# .PCD v0.7 - Point Cloud Data file format
VERSION 0.7
FIELDS x y z rgb
SIZE 4 4 4 4
TYPE F F F F
COUNT 1 1 1 1
WIDTH 1004
HEIGHT 1
VIEWPOINT 0 0 0 1 0 0 0
POINTS 1004
DATA ascii
0.050214589 0.09384279 0.93900001 1.9450421e-38
0.054359026 0.093893193 0.93950003 1.2446008e-38
0.057623297 0.093842782 0.93900001 1.9390453e-39
0.061804999 0.09410841 0.94 4.7121253e-39
0.065855198 0.093842782 0.93900001 4.7142651e-39
0.069920883 0.093776748 0.93833345 1.3833686e-38
0.077462263 0.093119532 0.94 1.0206677e-38
0.018953534 0.096415795 0.94 3.7818159e-39
0.021745091 0.097680457 0.93857151 1.271323e-38
0.026314026 0.096210659 0.93800002 9.3298466e-39
0.029877385 0.096758865 0.93800008 7.5567402e-40
0.033714846 0.097032979 0.93800008 2.8707421e-39
0.037826415 0.097032964 0.93800002 4.6192066e-39
0.041526824 0.096621811 0.93800002 1.8504707e-39
0.046049543 0.096210659 0.93800002 5.6051939e-44
0.050161116 0.096210659 0.93800008 3.0363812e-39
0.053998575 0.096758865 0.93800008 2.6708791e-39
0.05756193 0.096210659 0.93800002 1.0307755e-39
0.0616735 0.096210659 0.93800008 4.896504e-39
0.021402063 0.10207555 0.93900001 1.4797712e-42
0.071541257 0.10196685 0.93800002 1.1210388e-44
0.073185883 0.10196685 0.93800002 3.2748345e-42
0.021402065 0.10619151 0.93900001 7.2475157e-42
0.071541265 0.10607843 0.93800008 2.8385683e-40
0.074087977 0.10619151 0.93900007 1.1168349e-39
0.022217071 0.11026829 0.9386667 6.1769236e-42
0.070718944 0.11018999 0.93800002 1.8985632e-40
0.074166 0.11042493 0.94 3.7280144e-40
0.022449931 0.1139008 0.93857157 5.0951212e-42
0.026039921 0.11539797 0.93800008 5.0993251e-42
0.066607378 0.11512387 0.93800002 5.5863744e-40
0.06970527 0.1139008 0.93857157 1.9129265e-40
0.073341928 0.11372119 0.94 6.8831781e-42
0.022579426 0.11751191 0.94 4.7391914e-42
0.026314026 0.11841312 0.93800002 4.7391914e-42
0.028780967 0.11923543 0.93800002 5.0965225e-42
0.065785065 0.11841312 0.93800002 9.8013821e-41
0.070024878 0.11780573 0.93971431 5.8181912e-42
0.023897933 0.12113779 0.94 4.7363888e-42
0.026355667 0.12189743 0.93949997 4.018924e-42
0.029329177 0.12197648 0.93800008 4.018924e-42
0.063318126 0.12170237 0.93800002 5.4482484e-42
0.065785065 0.12170237 0.93800002 6.5272482e-42
0.068397529 0.12196186 0.94 5.8069808e-42
0.0271942 0.12608218 0.94 4.3706499e-42
0.02960328 0.12581395 0.93800008 4.0119175e-42
0.033056997 0.12647179 0.93800002 3.6503825e-42
0.05756193 0.12745856 0.93800002 2.2126503e-42
0.061908446 0.12628385 0.93800008 2.9385229e-42
0.065856077 0.12594807 0.93900007 4.3706499e-42
0.068397529 0.12443406 0.94 3.735063e-40
0.029650182 0.13013372 0.93950003 2.5713827e-42
0.033726245 0.12997197 0.93833339 2.2126503e-42
0.037552312 0.13019961 0.93800008 1.1420582e-42
0.054272678 0.13074781 0.93800002 2.2196568e-42
0.05756193 0.1299255 0.93800002 2.5713827e-42
0.061740421 0.13006431 0.93900007 2.9399242e-42
0.065101266 0.13020253 0.94 3.3042618e-42
0.029666398 0.13432288 0.94 2.572784e-42
0.033737637 0.13413234 0.93866664 2.9273125e-42
0.037826415 0.13403708 0.93800008 2.572784e-42
0.041937985 0.13403708 0.93800002 1.1392557e-42
0.046049546 0.13403708 0.93800008 1.488179e-42
0.050161112 0.13403706 0.93800002 2.2056438e-42
0.054272678 0.13403708 0.93800008 2.9287138e-42
0.057602845 0.13413352 0.93866676 2.9329177e-42
0.060706243 0.13322411 0.94 3.6489812e-42
0.09127678 0.13485938 0.93800002 8.6642256e-39
0.092921406 0.13485938 0.93800002 8.8486197e-39
0.030490464 0.13761912 0.94 3.2888475e-42
0.033786736 0.1384432 0.94 2.2154529e-42
0.037866741 0.1382968 0.93900001 2.2098477e-42
0.042013079 0.1383944 0.93966669 1.4895803e-42
0.046147734 0.1384432 0.94 1.4923829e-42
0.050268065 0.1384432 0.94 1.1336505e-42
0.054388396 0.13761912 0.94 2.2098477e-42
0.0568606 0.13761912 0.94 2.2294659e-42
0.035434864 0.14091539 0.94 1.4923829e-42
0.037907064 0.14091539 0.94 7.7631935e-43
0.041697774 0.14157465 0.94 1.4923829e-42
0.045323666 0.14091539 0.94 2.9287138e-42
0.041203331 0.14421166 0.94 1.4867777e-42
0.01488054 0.085976452 0.94300002 1.7872609e-38
0.01791176 0.086252019 0.94300002 1.8807548e-38
0.014880539 0.089283243 0.94300002 1.4176519e-38
0.018187325 0.090109944 0.94300002 2.2492443e-38
0.022084612 0.089637548 0.94300002 7.3735498e-39
0.026454292 0.090936631 0.94300002 1.4794951e-39
0.02976108 0.091763332 0.94300002 6.43629e-40
0.033894565 0.09176334 0.94300002 4.0408067e-39
0.038028046 0.091763332 0.94300002 1.0042973e-38
0.042161532 0.09176334 0.94300002 2.3509524e-38
0.046570577 0.091212206 0.94300002 2.3509886e-38
0.049326237 0.091212198 0.94300002 2.3509886e-38
0.053735282 0.09176334 0.94300002 1.834693e-38
0.057868764 0.091763332 0.94300002 1.2904782e-39
0.061175551 0.091763332 0.94300002 4.7124672e-39
0.069938533 0.090440616 0.94300002 1.0228582e-39
0.017911762 0.093967855 0.94300002 1.3711551e-38
0.038028046 0.093416721 0.94300002 9.3631961e-41
0.042161532 0.093416721 0.94300002 2.0821118e-38
0.045468315 0.093416721 0.94300002 2.3509886e-38
0.062002245 0.093416721 0.94300002 5.3564059e-39
0.018187325 0.097550198 0.94300002 1.4012985e-45
0.019014023 0.10168369 0.94300002 1.8875771e-40
0.075229399 0.10251039 0.94300002 1.5749292e-39
0.019014023 0.10581717 0.94300002 3.7532098e-40
0.076882794 0.10581717 0.94300002 3.695814e-39
0.085976452 0.10664387 0.94300002 2.779603e-39
0.088456541 0.10664387 0.94300002 3.2441783e-39
0.019014023 0.10995065 0.94300002 1.9093532e-40
0.076882794 0.10995065 0.94300002 9.2704301e-40
0.083496362 0.10995065 0.94300002 3.5092423e-39
0.085976452 0.10995065 0.94300002 2.4940198e-39
0.089283243 0.10995065 0.94300002 6.5473695e-39
0.019014023 0.11408414 0.94300002 1.8913325e-40
0.075229399 0.11408414 0.94300002 5.4412419e-42
0.076882794 0.11408414 0.94300002 5.0853121e-42
0.086252019 0.11380857 0.94300002 9.2978956e-41
0.089007676 0.11380857 0.94300002 3.687884e-39
0.021218549 0.11931988 0.94300002 4.7391914e-42
0.071922608 0.11987101 0.94300002 4.3762551e-42
0.074402705 0.11821762 0.94300002 4.3650447e-42
0.023147505 0.12235111 0.94300002 4.7363888e-42
0.071095914 0.12235111 0.94300002 4.0091149e-42
0.023974203 0.1248312 0.94300002 4.7363888e-42
0.025627596 0.12565789 0.94300002 4.3762551e-42
0.069442518 0.12565789 0.94300002 5.0825095e-42
0.026729859 0.12979138 0.94300002 2.5755866e-42
0.066962428 0.13061807 0.94300002 3.2916501e-42
0.068615824 0.12896469 0.94300002 3.6517838e-42
0.06310451 0.13420042 0.94300002 3.6531851e-42
0.065309033 0.13309816 0.94300002 3.6601916e-42
0.029485514 0.1391606 0.94300002 2.5783892e-42
0.05456198 0.13971174 0.94300002 2.2098477e-42
0.058144331 0.1391606 0.94300002 1.1448608e-42
0.060348857 0.13723165 0.94300002 2.934319e-42
0.030587774 0.14136513 0.94300002 1.8469114e-42
0.033563886 0.14235717 0.94300002 1.1322492e-42
0.038028046 0.14301853 0.94300002 7.7631935e-43
0.04381492 0.14301853 0.94300002 1.1336505e-42
0.046570577 0.14246741 0.94300002 1.1364531e-42
0.049601801 0.14219183 0.94300002 1.1350518e-42
0.053404599 0.14202648 0.94300002 1.8511153e-42
0.05704207 0.14136513 0.94300002 1.126644e-42
0.03830361 0.14522305 0.94300002 1.126644e-42
0.042161532 0.14660089 0.94300002 1.4867777e-42
0.04629501 0.14549862 0.94300002 1.1280453e-42
0.049601801 0.14549862 0.94300002 1.488179e-42
0.052633017 0.14522305 0.94300002 1.1336505e-42
0.063993156 0.063993156 0.94800001 2.3509886e-38
0.065655313 0.063993156 0.94800001 2.322826e-38
0.063993156 0.065655313 0.94800001 1.4820671e-38
0.065655313 0.065655313 0.94800001 2.3494239e-38
0.073966116 0.070641801 0.94800001 2.3502711e-38
0.01495944 0.074797198 0.94800001 1.7788377e-38
0.01745268 0.075628273 0.94800001 2.3509886e-38
0.073633686 0.072968818 0.94800007 2.1746996e-38
0.010804039 0.078952596 0.94800001 7.7419148e-39
0.01412836 0.078121528 0.94800007 1.6127764e-38
0.018006735 0.078398541 0.94800007 1.6226067e-38
0.073966116 0.078952596 0.94800007 1.3730273e-38
0.078121513 0.078952596 0.94800001 1.5941526e-38
0.010781246 0.082103342 0.94599998 9.1215828e-39
0.014105567 0.082141139 0.94644451 1.6495449e-38
0.018271487 0.082218468 0.94733334 1.2169822e-38
0.021441864 0.082609348 0.94800007 9.2249636e-39
0.024101319 0.083107993 0.94800001 2.3509886e-38
0.070087746 0.08338502 0.94800007 1.8547755e-39
0.073966116 0.082276918 0.94800007 1.0597139e-38
0.07806658 0.082217894 0.94733334 1.5301962e-38
0.080558069 0.082217887 0.94733334 5.0657122e-39
0.012439899 0.085420638 0.94599998 2.1150919e-39
0.019074513 0.085420638 0.94599998 4.1480649e-39
0.021562491 0.08624997 0.94599998 1.4279945e-38
0.025728412 0.086310759 0.94666672 2.3509886e-38
0.029641852 0.08670935 0.94800007 2.3509886e-38
0.034074284 0.087263398 0.94800007 2.3509886e-38
0.038506705 0.086709343 0.94800007 2.3509886e-38
0.041276973 0.08670935 0.94800007 2.3325494e-38
0.045709401 0.087263398 0.94800007 2.3509886e-38
0.050695878 0.087263398 0.94800001 2.3509886e-38
0.054020196 0.087263398 0.94800007 2.3048907e-38
0.058175597 0.087263398 0.94800001 2.4273993e-39
0.062330998 0.087263398 0.94800007 3.7887271e-39
0.066486396 0.087263398 0.94800001 5.5404343e-39
0.069737077 0.086340271 0.94699997 2.5934167e-39
0.073810071 0.08624997 0.94600004 1.1057048e-38
0.026814893 0.089290842 0.94599998 5.2483322e-39
0.029871976 0.089614183 0.94650006 1.5296193e-38
0.034038335 0.089661084 0.94700003 2.3508804e-38
0.038168751 0.089614168 0.94650006 2.3509886e-38
0.042295661 0.089567274 0.94600004 2.3509886e-38
0.046199165 0.089353368 0.94666672 2.3509886e-38
0.050106175 0.089415908 0.94733334 2.3509886e-38
0.053963214 0.089661084 0.94699997 2.2495734e-38
0.058114234 0.089661077 0.94700003 8.2850917e-39
0.062265247 0.089661077 0.94700003 2.6856291e-39
0.066450894 0.089708865 0.94749999 5.4482414e-39
0.069663435 0.08873795 0.94599998 2.3161194e-39
0.063858144 0.092055254 0.94599998 5.3571248e-39
0.066346131 0.092055254 0.94599998 5.2670914e-39
0.017415859 0.098689869 0.94599998 1.4012985e-44
0.077127375 0.098689869 0.94599998 8.2676609e-44
0.01745268 0.10222283 0.94800007 2.8275821e-40
0.077857465 0.10242587 0.94680005 2.2174483e-39
0.082375765 0.1022945 0.94674999 6.1818044e-39
0.086034894 0.103186 0.94666672 8.4784106e-39
0.01745268 0.10637824 0.94800001 4.6715647e-40
0.078786023 0.1061538 0.94599998 1.7597058e-39
0.082103342 0.10615381 0.94600004 3.7933948e-39
0.086249962 0.10532448 0.94599998 4.4283175e-39
0.08873795 0.10532448 0.94599998 7.7441246e-39
0.017440407 0.11045474 0.94733334 4.6824248e-40
0.07878603 0.11030044 0.94599998 9.2668288e-40
0.081274018 0.11030044 0.94600004 1.7586072e-39
0.017434269 0.11456893 0.94700003 7.4266577e-40
0.078786023 0.11444707 0.94599998 5.8055795e-42
0.082103342 0.11444707 0.94600004 8.3340685e-40
0.085420638 0.1152764 0.94599998 6.4937432e-40
0.090396598 0.1152764 0.94599998 3.3179861e-39
0.092249878 0.11552012 0.94800001 4.9775074e-39
0.018263597 0.11788887 0.94700003 6.9070001e-42
0.077956699 0.11776438 0.94599998 1.4909816e-42
0.082103342 0.11776438 0.94600004 9.2776468e-40
0.086249962 0.11776438 0.94599998 1.2976304e-39
0.089567274 0.11776438 0.94599998 4.6680615e-40
0.092803925 0.11773633 0.94800007 1.7557387e-39
0.018270317 0.12208343 0.94733334 5.4594588e-42
0.021286048 0.12301677 0.94599998 4.7363888e-42
0.074639395 0.12274034 0.94599998 1.8567205e-42
0.078011639 0.1219981 0.94666666 7.6370766e-43
0.082200162 0.12205537 0.94711113 9.2932713e-41
0.086402223 0.12212639 0.94766665 1.480221e-39
0.089756638 0.12216876 0.94800007 1.2983619e-39
0.092914745 0.12183633 0.94800007 6.5515327e-40
0.01828376 0.12632415 0.94800001 5.0965225e-42
0.021562491 0.12605764 0.94599998 4.0175227e-42
0.024050472 0.12688696 0.94599998 4.3762551e-42
0.070492759 0.12688696 0.94599998 4.0133188e-42
0.073862672 0.12614706 0.94666666 2.211249e-42
0.078121513 0.12549306 0.94800001 2.5461593e-42
0.082276925 0.12549308 0.94800007 1.0944141e-42
0.087263398 0.12549306 0.94800001 5.8126435e-39
0.089756638 0.12549306 0.94800001 1.7589449e-39
0.092249878 0.12549306 0.94800001 1.2086816e-39
0.018560788 0.12937145 0.94800007 4.0161214e-42
0.02157345 0.12944376 0.94649994 3.6531851e-42
0.024713933 0.130536 0.94600004 2.9301151e-42
0.070078097 0.13061894 0.94599998 3.6503825e-42
0.073096901 0.12958054 0.94749999 2.5685801e-42
0.094123602 0.13038664 0.94733334 4.0634699e-39
0.097236358 0.13047956 0.94800001 1.6601183e-41
0.019114841 0.13214171 0.94800001 3.6531851e-42
0.021608081 0.13380387 0.94800007 3.6475799e-42
0.025709128 0.13435093 0.94600004 2.9273125e-42
0.066622578 0.13462736 0.94599998 2.9301151e-42
0.069700696 0.13442236 0.94650006 3.2916501e-42
0.072719492 0.13338834 0.94800001 2.2126503e-42
0.094417699 0.13357735 0.94639999 8.9411852e-39
0.097651899 0.13421941 0.94800001 5.4449666e-39
0.021885108 0.13768224 0.94800007 2.2126503e-42
0.025726076 0.13776524 0.94666672 2.934319e-42
0.06302882 0.13766822 0.94599998 3.6559877e-42
0.066417143 0.13781375 0.94700003 3.6531851e-42
0.069810718 0.13795927 0.94800001 2.9357203e-42
0.09806744 0.13712819 0.94800001 9.4007271e-39
0.022439159 0.14045252 0.94800001 3.6461786e-42
0.026221851 0.14179206 0.94742858 3.2916501e-42
0.029579317 0.14292061 0.94599998 2.2084464e-42
0.055564884 0.14347349 0.94599998 2.2098477e-42
0.05832931 0.14292061 0.94599998 1.4909816e-42
0.06224411 0.14191556 0.94666672 2.2098477e-42
0.066486403 0.14211468 0.94800007 2.5657775e-42
0.069810718 0.14045252 0.94800001 3.2860449e-42
0.027425639 0.14627008 0.94800001 1.1308479e-42
0.029887319 0.14611667 0.94700003 1.1238414e-42
0.034002393 0.14596151 0.94600004 1.1238414e-42
0.037319697 0.14679082 0.94599998 1.126644e-42
0.055011999 0.14623794 0.94599998 7.6931286e-43
0.058052868 0.14596149 0.94599998 7.7491805e-43
0.062309664 0.14621896 0.94766665 1.4937842e-42
0.065655313 0.145439 0.94800001 1.8469114e-42
0.030749958 0.14876331 0.94800001 7.6651026e-43
0.034489818 0.14917885 0.94800001 7.7351675e-43
0.038189352 0.14943746 0.94700003 1.126644e-42
0.042710323 0.14969344 0.94599998 1.1322492e-42
0.046608157 0.14977638 0.94600004 1.1308479e-42
0.049759597 0.15010813 0.94600004 1.4895803e-42
0.053686064 0.14967957 0.94628578 1.1294466e-42
0.058145352 0.14951593 0.94749999 1.1308479e-42
0.061222892 0.14931737 0.94800007 1.1308479e-42
0.044878319 0.15208764 0.94800001 1.4867777e-42
0.054851279 0.15208764 0.94800001 1.126644e-42
0.058175597 0.15208764 0.94800001 7.6651026e-43
0.062528245 0.062528245 0.95099998 2.3499482e-38
0.064195663 0.062528245 0.95099998 2.3499841e-38
0.062528245 0.064195663 0.95099998 2.3478239e-38
0.015840489 0.072532766 0.95099998 2.3505544e-38
0.018063717 0.074200183 0.95099998 1.5857646e-38
0.02084275 0.075867608 0.95099998 9.5288296e-44
0.070865348 0.074200183 0.95099998 5.8868184e-39
0.074617043 0.075450748 0.95099998 1.9538998e-38
0.077535026 0.075033896 0.95099998 1.3458435e-38
0.019175328 0.077535026 0.95099998 0
0.021676458 0.078368738 0.95099998 2.2213299e-39
0.070031635 0.078368738 0.95099998 7.441035e-40
0.074200183 0.077535026 0.95099998 1.4562245e-38
0.077535026 0.077535026 0.95099998 2.1288256e-38
0.022510169 0.080869861 0.95099998 1.7540487e-38
0.025011297 0.081703573 0.95099998 2.3509886e-38
0.067530505 0.082537279 0.95099998 1.0972744e-38
0.069753736 0.081425667 0.95099998 3.5067228e-39
0.010838229 0.085872121 0.95099998 9.0297641e-39
0.026678719 0.084204704 0.95099998 2.3509886e-38
0.03029146 0.084760509 0.95099998 2.3509886e-38
0.034182109 0.085038416 0.95100009 2.3509886e-38
0.038072757 0.084760509 0.95099998 2.3509886e-38
0.041963406 0.084760509 0.95099998 2.3509886e-38
0.045854047 0.085038409 0.95100009 2.1393349e-38
0.050022595 0.085872121 0.95099998 1.7609396e-38
0.05419115 0.085038409 0.95100009 9.0356131e-39
0.058359694 0.085872121 0.95099998 4.988956e-39
0.061694533 0.085872121 0.95099998 3.9738274e-39
0.06627994 0.085455261 0.95099998 6.6442553e-39
0.079202451 0.098377779 0.95099998 4.701659e-39
0.080869861 0.099211484 0.95099998 7.8341104e-39
0.015840489 0.10254633 0.95099998 2.8419034e-40
0.079202451 0.1008789 0.95099998 2.7688158e-39
0.080869861 0.1008789 0.95099998 6.5455394e-39
0.015840489 0.10588117 0.95099998 4.6822426e-40
0.015840489 0.11004971 0.95099998 7.4372795e-40
0.015840489 0.11421826 0.95099998 1.1103609e-39
0.015840489 0.11838682 0.95099998 5.5898637e-40
0.094209224 0.11922053 0.95099998 7.4090433e-40
0.015840489 0.12172165 0.95099998 1.8948638e-40
0.095876642 0.12172165 0.95099998 1.0145401e-41
0.098099872 0.12199955 0.95099998 3.7711464e-40
0.1008789 0.12255536 0.95099998 2.8573625e-39
0.015840489 0.1258902 0.95099998 2.8024428e-40
0.078368738 0.12755762 0.95099998 7.6651026e-43
0.081703573 0.12755762 0.95099998 7.2166871e-43
0.085872121 0.12714078 0.95099998 5.2583935e-39
0.090040669 0.12755762 0.95099998 2.3117655e-39
0.094685636 0.12612841 0.95100009 6.5730987e-40
0.097960919 0.12547335 0.95099998 5.6368212e-40
0.10171261 0.12422278 0.95099998 9.0411777e-42
0.015840489 0.12922505 0.95099998 9.6925012e-41
0.017507909 0.13089246 0.95099998 3.2930514e-42
0.075867608 0.13005875 0.95099998 1.1336505e-42
0.077535026 0.12922505 0.95099998 1.4657582e-42
0.087539546 0.12922505 0.95099998 9.0365786e-39
0.090040669 0.13005875 0.95099998 8.8518609e-39
0.092541806 0.13005875 0.95099998 5.8101394e-39
0.098655686 0.12978086 0.95099998 6.6089439e-40
0.018174877 0.13456079 0.95100003 3.2930514e-42
0.074200183 0.13506101 0.95099998 1.1350518e-42
0.090874381 0.13255988 0.95099998 9.4947206e-39
0.099211484 0.13339359 0.95099998 9.3205546e-40
0.10087891 0.13422731 0.95099998 1.028242e-39
0.019175328 0.13839585 0.95099998 1.4979881e-42
0.02084275 0.13922957 0.95099998 2.2126503e-42
0.073088579 0.13811795 0.95099998 2.2182555e-42
0.1008789 0.13756214 0.95099998 5.9974047e-39
0.021676458 0.1417307 0.95099998 2.9259112e-42
0.024177589 0.1425644 0.95099998 3.2930514e-42
0.070031635 0.1425644 0.95099998 1.849714e-42
0.072532766 0.1417307 0.95099998 1.8525166e-42
0.022510169 0.14423183 0.95099998 4.004911e-42
0.025011299 0.14589925 0.95099998 2.5769879e-42
0.066974699 0.14701086 0.95099998 2.2014399e-42
0.069197923 0.14423183 0.95099998 1.8469114e-42
0.10611937 0.14542285 0.95100009 8.7582289e-39
0.109216 0.14589925 0.95099998 4.7030813e-39
0.027512427 0.14923407 0.95099998 1.126644e-42
0.030013558 0.15006778 0.95099998 1.126644e-42
0.033348396 0.1509015 0.95099998 7.7211545e-43
0.062528245 0.1509015 0.95099998 1.8469114e-42
0.064751476 0.14978987 0.95099998 1.4909816e-42
0.035849527 0.15256892 0.95099998 1.8595231e-42
0.03862856 0.15312473 0.95099998 1.126644e-42
0.041685499 0.15340263 0.95099998 7.6510896e-43
0.045854047 0.15423635 0.95099998 7.7351675e-43
0.050022595 0.15423635 0.95099998 1.126644e-42
0.054191146 0.15423635 0.95099998 4.0637655e-43
0.058359694 0.15423635 0.95099998 4.0637655e-43
0.061694533 0.15256892 0.95099998 1.126644e-42
0.058666531 0.062018901 0.95599997 1.7782304e-38
0.061052814 0.062725499 0.954 2.0454877e-38
0.019276146 0.067885555 0.95599997 2.3509886e-38
0.021790426 0.067047462 0.95599997 2.3509844e-38
0.025142798 0.067047462 0.95599997 1.2721921e-38
0.059504624 0.064533181 0.95599997 1.793662e-42
0.061825681 0.066517606 0.95559996 4.4135437e-39
0.066628419 0.067466505 0.95599997 1.3360087e-38
0.070399836 0.067885555 0.95599997 2.3499452e-38
0.018691704 0.070579849 0.95466661 2.3231151e-38
0.021767631 0.070325315 0.95499998 1.3735703e-38
0.025142798 0.070399836 0.95599997 6.5861028e-44
0.062856995 0.070399836 0.95599997 1.0228624e-39
0.066209368 0.070399836 0.95599997 1.6577641e-39
0.070326194 0.070325315 0.95499998 1.9351338e-38
0.07276158 0.070252553 0.954 2.3507732e-38
0.01923582 0.073597923 0.954 1.5485996e-38
0.02174484 0.073597915 0.954 7.9118671e-39
0.025645653 0.073919833 0.95599997 1.2021824e-39
0.029333265 0.074590303 0.95599997 6.8347758e-39
0.062856995 0.07375221 0.95599997 3.6994041e-39
0.066162035 0.073700778 0.95533335 1.7669028e-39
0.069416218 0.073597923 0.954 6.1657132e-44
0.022581179 0.076106936 0.954 8.8281803e-44
0.025951864 0.07785169 0.95488888 1.2351033e-38
0.030171357 0.077942669 0.95599997 9.5920281e-39
0.033523731 0.07878077 0.95599997 3.5096949e-39
0.037714198 0.079618864 0.95600003 1.2387478e-42
0.041904662 0.079618864 0.95599997 4.3440252e-44
0.046514176 0.079199821 0.95599997 8.3810961e-40
0.050285596 0.07878077 0.95599997 2.3142977e-39
0.05363797 0.07878077 0.95599997 2.6823697e-39
0.057828438 0.07878077 0.95599997 5.1698328e-39
0.062186521 0.078277908 0.95599997 1.3551003e-38
0.066147424 0.077869028 0.95511109 7.5691095e-39
0.069416218 0.076106936 0.954 6.1909366e-42
0.027041659 0.081682533 0.954 2.3509886e-38
0.030124458 0.082003832 0.95449996 2.3509886e-38
0.033983454 0.082196608 0.95480007 2.2315307e-38
0.038017176 0.081896089 0.95520002 1.0425694e-38
0.04186083 0.082046345 0.95499992 1.1340119e-38
0.04604692 0.082046345 0.95500004 3.7812105e-39
0.050232995 0.082046345 0.95499998 6.4798844e-40
0.053581864 0.082046345 0.95499998 1.7564632e-39
0.05776795 0.082046352 0.95499992 3.7898005e-39
0.061954025 0.082046345 0.95499998 8.5767397e-39
0.065736316 0.081794046 0.954 1.2445017e-38
0.049344059 0.084470332 0.954 4.6971525e-42
0.058543798 0.084470332 0.954 2.3164795e-39
0.061889157 0.084470332 0.954 4.8032181e-39
0.065234512 0.084470332 0.954 7.011942e-39
0.015923772 0.094704546 0.95599997 2.1019477e-44
0.014444616 0.098189503 0.95524991 8.3376698e-40
0.013899724 0.10199421 0.9551999 6.5261692e-40
0.010895212 0.10643785 0.95599997 6.522638e-40
0.013559229 0.10596901 0.95479995 4.6786693e-40
0.010895212 0.10895212 0.95599997 5.604227e-40
0.013229951 0.11003288 0.95520002 3.7494823e-40
0.01339459 0.11386146 0.95499992 5.5754583e-40
0.01339459 0.11804755 0.95500004 3.7387344e-40
0.096179098 0.11959662 0.954 1.3862737e-39
0.01339459 0.12223363 0.95499992 3.7387484e-40
0.013559229 0.12605801 0.95479995 5.571885e-40
0.099524453 0.12712368 0.954 4.7292422e-40
0.10208739 0.12718987 0.95449996 8.7174777e-42
0.013678337 0.13037202 0.95533335 3.735133e-40
0.078950256 0.13083959 0.95466661 1.1196375e-42
0.081853777 0.13046318 0.95600003 3.643376e-43
0.085485518 0.12990445 0.95599997 3.6892531e-39
0.10203347 0.13046904 0.954 9.3246183e-40
0.10559975 0.12990445 0.95599997 1.9345626e-40
0.10895213 0.13074255 0.95599997 1.0192625e-39
0.015069021 0.13395467 0.95499998 6.4650166e-40
0.077511005 0.13375933 0.95479995 7.7772065e-43
0.090418518 0.13395378 0.95499998 9.2177623e-39
0.10286982 0.13381439 0.954 6.6199161e-40
0.10559975 0.13409492 0.95599997 1.3008744e-39
0.11062831 0.13409492 0.95599997 2.8386103e-40
0.11314259 0.13409492 0.95599997 1.203295e-39
0.015496397 0.1377949 0.95550001 2.7736601e-40
0.01756314 0.13883242 0.954 1.4979881e-42
0.074434258 0.13966876 0.954 2.9581411e-42
0.076905049 0.13789299 0.95559996 7.7912195e-43
0.10294171 0.1380937 0.95466661 3.5088401e-39
0.10559975 0.1382854 0.95599997 9.353345e-40
0.018417889 0.14232682 0.95499992 1.8525166e-42
0.020908499 0.14301413 0.954 1.8469114e-42
0.074512281 0.1423277 0.95499998 2.934319e-42
0.10596901 0.14246358 0.95480007 5.0758211e-39
0.10979022 0.14275524 0.95600003 1.9596178e-40
0.018438052 0.14582823 0.95599997 2.211249e-42
0.02146606 0.14580193 0.954 2.2056438e-42
0.070581011 0.14590421 0.95466661 2.9217073e-42
0.073422 0.14544776 0.95533335 2.9301151e-42
0.11123321 0.14552315 0.954 3.8071037e-40
0.019276146 0.14834251 0.95599997 1.8525166e-42
0.021778591 0.14910302 0.95550001 1.8469114e-42
0.025394987 0.15042052 0.95499992 1.488179e-42
0.029271899 0.15137753 0.954 1.126644e-42
0.067185983 0.15081997 0.954 1.4867777e-42
0.070203118 0.1496214 0.95559996 1.4895803e-42
0.072914116 0.14834251 0.95599997 1.8525166e-42
0.10705151 0.14886852 0.954 9.8620415e-39
0.11039688 0.14886852 0.954 5.9941593e-39
0.027098348 0.1539298 0.95600003 4.0637655e-43
0.030155139 0.15412895 0.95550001 7.6651026e-43
0.033955406 0.15405384 0.954 1.1322492e-42
0.0376353 0.1547229 0.954 1.126644e-42
0.054362096 0.1547229 0.954 4.4841551e-44
0.061889157 0.1547229 0.954 1.126644e-42
0.066141285 0.15404817 0.95499992 1.126644e-42
0.031009451 0.15672344 0.95599997 7.6651026e-43
0.034011509 0.15732835 0.95559996 3.9796876e-43
0.038017176 0.157598 0.95520002 7.6651026e-43
0.04186083 0.1573976 0.95499992 1.126644e-42
0.046046913 0.1573976 0.95500004 1.1294466e-42
0.050232999 0.1573976 0.95499992 1.1294466e-42
0.053581864 0.1573976 0.95499992 4.0917915e-43
0.057788696 0.15745226 0.95533335 7.6510896e-43
0.061739534 0.15728217 0.95600003 7.6651026e-43
0.065371275 0.15672344 0.95599997 2.5461593e-42
0.034361824 0.16007581 0.95599997 1.2611686e-44
0.038049437 0.16074629 0.95599997 7.5109598e-43
0.042184025 0.16063455 0.95600003 7.6651026e-43
0.045676086 0.16049486 0.95599997 1.4895803e-42
0.050285596 0.16091391 0.95599997 1.4867777e-42
0.05363797 0.1609139 0.95599997 1.1154336e-42
0.057828438 0.16007581 0.95600003 3.9236357e-44
0.061180804 0.16007581 0.95599997 4.4841551e-44
0.046479989 0.058490317 0.95900011 2.0552403e-38
0.050443403 0.058009904 0.95900005 1.9815927e-38
0.053638149 0.058346193 0.95900005 1.8622452e-38
0.056888945 0.05913087 0.95899999 1.7701576e-38
0.026482783 0.062633887 0.95899999 2.313457e-38
0.030266037 0.062213525 0.95899999 1.888507e-38
0.033628933 0.062213521 0.95899999 1.299173e-38
0.036991823 0.062213521 0.95899999 6.7368012e-39
0.047921225 0.061372798 0.95899999 1.7531435e-39
0.0504434 0.062213521 0.95899999 3.9608388e-39
0.05380629 0.062213525 0.95899999 1.133073e-38
0.056328461 0.062213525 0.95899999 1.2991672e-38
0.022699529 0.064735696 0.95899999 2.3505222e-38
0.026482783 0.065156057 0.95899999 1.7608656e-38
0.029985797 0.065296181 0.95899999 4.0552162e-39
0.03278821 0.064735696 0.95899999 5.3249342e-44
0.051284123 0.064735696 0.95899999 9.5288296e-44
0.05380629 0.064735696 0.95899999 7.286752e-44
0.057673614 0.065744571 0.95900005 1.8511153e-42
0.027743869 0.069780037 0.95899999 1.8625639e-40
0.029845675 0.070200391 0.95899999 4.614885e-39
0.054647014 0.07062076 0.95899999 3.4221138e-39
0.058009904 0.069780037 0.95900005 1.6711115e-39
0.061372798 0.07062076 0.95899999 2.7745794e-39
0.027743869 0.073142923 0.95899999 2.1259491e-39
0.030546278 0.073703408 0.95899999 9.4068647e-39
0.033628933 0.073983647 0.95899999 9.5927035e-39
0.047921225 0.07482437 0.95899999 5.8159225e-39
0.0504434 0.073983647 0.95899999 6.6428077e-39
0.05380629 0.073983647 0.95899999 1.189545e-38
0.058009904 0.073983647 0.95900005 1.0789829e-38
0.061372798 0.073983647 0.95899999 5.6355109e-39
0.033628933 0.076505817 0.95899999 4.7366551e-40
0.037832547 0.077346541 0.95900005 5.6478214e-40
0.042036165 0.077346541 0.95899999 1.7611183e-39
0.045903493 0.077178396 0.95900005 4.0649356e-39
0.0504434 0.076505817 0.95899999 3.5096039e-39
0.05380629 0.076505817 0.95899999 5.0729639e-39
0.058009904 0.076505825 0.95899999 9.0388235e-39
0.061372798 0.076505817 0.95899999 1.4474424e-38
0.01261085 0.091638841 0.95899999 1.8367099e-40
0.010929403 0.094161004 0.95899999 5.7147025e-39
0.013956008 0.093992859 0.95900005 2.7612096e-39
0.010088679 0.097523898 0.95899999 2.7666074e-39
0.01261085 0.096683174 0.95899999 2.8617023e-39
0.010929404 0.10172752 0.95899999 7.4446083e-40
0.010929403 0.10509041 0.95899999 1.1125189e-39
0.010929403 0.1118162 0.95899999 1.0188785e-39
0.010929403 0.11433837 0.95899999 4.653488e-40
0.010929403 0.11770125 0.95899999 4.653488e-40
0.010929404 0.12190487 0.95899999 1.8912064e-40
0.010929403 0.1261085 0.95899999 4.653488e-40
0.10509041 0.12694922 0.95899999 1.0171017e-39
0.010929404 0.13031211 0.95899999 9.764528e-41
0.083231606 0.13199356 0.95899999 1.4012985e-45
0.085753776 0.13199356 0.95899999 4.0548014e-39
0.088275947 0.13199356 0.95899999 9.402878e-39
0.1118162 0.13199356 0.95899999 3.2243457e-39
0.01261085 0.13451573 0.95899999 7.4122383e-40
0.079868712 0.13535646 0.95899999 7.7631935e-43
0.082390882 0.13367501 0.95899999 7.342804e-43
0.089957394 0.13535646 0.95899999 9.0326536e-39
0.1084533 0.13451573 0.95899999 4.7077463e-40
0.11517908 0.13451573 0.95899999 5.3441123e-39
0.013451573 0.13787863 0.95899999 8.2982653e-40
0.079868712 0.13787863 0.95899999 7.7071416e-43
0.090798117 0.1370379 0.95899999 8.9404524e-39
0.11013474 0.13787863 0.95900005 8.4025499e-40
0.11433837 0.13787863 0.95899999 4.7518031e-42
0.11686053 0.13787863 0.95899999 2.0366542e-39
0.014964876 0.14241853 0.95900005 3.2916501e-42
0.077850975 0.14174595 0.95900005 1.8511153e-42
0.11047103 0.14107338 0.95900005 4.7364729e-40
0.11433836 0.14208224 0.95900005 1.9525413e-40
0.11686053 0.14208224 0.95899999 4.0231279e-42
0.01513302 0.14628585 0.95899999 2.2126503e-42
0.07482437 0.14712657 0.95899999 3.2888475e-42
0.11433837 0.14628585 0.95899999 2.8887488e-40
0.11770125 0.14628585 0.95899999 1.4839751e-42
0.12106415 0.14712657 0.95899999 6.8246654e-39
0.018215673 0.14992899 0.95899999 1.4993894e-42
0.073983647 0.14964874 0.95899999 1.4923829e-42
0.1118162 0.15048946 0.95899999 4.1513271e-39
0.11433837 0.14964874 0.95899999 2.8382039e-40
0.11770125 0.14964874 0.95899999 2.5769879e-42
0.12156858 0.14981689 0.95900005 8.2061608e-39
0.018495914 0.15217091 0.95899999 1.8525166e-42
0.02202695 0.15351607 0.95900005 1.126644e-42
0.024941457 0.15497333 0.95899999 7.7211545e-43
0.070340522 0.15385237 0.95899999 1.4867777e-42
0.073142923 0.15217091 0.95899999 1.8469114e-42
0.10677186 0.15217091 0.95899999 7.3749245e-39
0.11013475 0.15217093 0.95899999 7.0979957e-39
0.11433837 0.15217091 0.95899999 5.0783056e-42
0.11686053 0.15217091 0.95899999 4.3874655e-42
0.12190487 0.15217093 0.95899999 9.0341264e-39
0.026398713 0.15788783 0.95900005 5.3249342e-44
0.029985797 0.15833622 0.95899999 3.7835059e-44
0.063054249 0.1588967 0.95899999 1.126644e-42
0.065576419 0.1588967 0.95899999 1.4867777e-42
0.068939313 0.15721525 0.95899999 2.5461593e-42
0.027743869 0.16057815 0.95899999 3.9376487e-43
0.030266037 0.16141887 0.95899999 2.8025969e-44
0.033460792 0.1625959 0.95900005 2.6624671e-44
0.037412185 0.16352068 0.95899999 7.5670117e-43
0.041755926 0.16338056 0.95899999 3.9796876e-43
0.046576068 0.16326848 0.95900005 1.1210388e-42
0.0504434 0.16394104 0.95899999 1.8371023e-42
0.05380629 0.16394104 0.95899999 1.4657582e-42
0.058009904 0.16310033 0.95900005 1.1014206e-42
0.062213525 0.16141888 0.95899999 7.6651026e-43
0.064735696 0.16057815 0.95899999 1.1336505e-42
0.034469657 0.16562249 0.95899999 2.9427268e-44
0.037832551 0.1656225 0.95899999 1.1224401e-42
0.042036165 0.16562249 0.95899999 7.5389857e-43
0.046239786 0.1656225 0.95899999 1.1168349e-42
0.0504434 0.16562249 0.95899999 4.0637655e-43
0.034577485 0.059878085 0.96200001 2.3505578e-38
0.037107546 0.059878085 0.96200001 2.2398861e-38
0.046384431 0.056504674 0.96200001 2.0272942e-38
0.039665073 0.061606284 0.96266669 6.0914276e-39
0.042196885 0.061606288 0.96266669 5.5292421e-39
0.045541078 0.062408142 0.96200001 2.6624671e-44
0.048071139 0.063251495 0.96200001 3.643376e-44
0.031204073 0.06662491 0.96200001 4.3440252e-44
0.034062009 0.066155016 0.96333331 9.5853019e-41
0.037990354 0.065850817 0.963 2.2163385e-39
0.042211495 0.065850809 0.96299994 2.5858749e-39
0.045564309 0.065816179 0.96249998 3.1397563e-39
0.049420506 0.06595023 0.96200001 2.8646086e-39
0.053974614 0.06662491 0.96200001 1.7607806e-39
0.031204073 0.069154978 0.96200001 2.6766286e-39
0.033757515 0.070045665 0.96266663 3.6028981e-39
0.037985578 0.070061833 0.96288884 5.8137715e-39
0.042211793 0.070069924 0.963 6.5502534e-39
0.045572054 0.070046254 0.96266669 6.4616493e-39
0.049757849 0.069998324 0.96200001 5.2649208e-39
0.053552933 0.069576651 0.96200001 4.8021503e-39
0.037950903 0.074215092 0.96200001 3.9759882e-39
0.042167664 0.074215092 0.96200001 4.7989091e-39
0.045541078 0.074215092 0.96200001 6.1828904e-39
0.048071139 0.073371738 0.96200001 6.8293486e-39
0.0075901798 0.098672338 0.96200001 7.8341104e-39
0.0076006996 0.10218836 0.96333331 3.9644051e-39
0.0092768874 0.10204576 0.96200007 2.304525e-39
0.0076059592 0.10648343 0.96399999 1.6635305e-39
0.0092768865 0.10626252 0.96200001 1.9397586e-39
0.0076059592 0.10986386 0.96399999 1.3862289e-39
0.0092768865 0.10963593 0.96200001 1.3865876e-39
0.0092768874 0.1138527 0.96200007 1.2007586e-39
0.0092768865 0.11806946 0.96200001 6.4973165e-40
0.0092768874 0.12228622 0.96200007 2.8095754e-40
0.0092768865 0.12650299 0.96200001 1.898325e-40
0.0092768865 0.12987641 0.96200001 5.4202225e-42
0.0099515691 0.13443051 0.96200001 2.8203093e-40
0.08264862 0.13577989 0.96200001 7.4689208e-43
0.086022034 0.13493654 0.96200001 3.7789432e-39
0.088552095 0.13493654 0.96200001 9.2170421e-39
0.010963594 0.13830994 0.96200001 1.2000538e-39
0.0126503 0.13915329 0.96200001 3.7172945e-40
0.082692027 0.13838227 0.96249998 3.3631163e-44
0.086200878 0.13859749 0.96399999 3.4105236e-39
0.088736199 0.13775238 0.96399999 8.8482567e-39
0.11891282 0.13830994 0.96200001 7.9259473e-39
0.0126503 0.14168337 0.96200001 7.3834276e-40
0.082246058 0.14202912 0.96320003 7.4829338e-43
0.11835059 0.14196448 0.96200007 3.7169162e-40
0.12059952 0.14168337 0.96200001 7.5625766e-39
0.0126503 0.14590012 0.96200007 2.7772474e-40
0.07775718 0.14623748 0.96200001 2.5671788e-42
0.080285132 0.14620344 0.96399999 7.6370766e-43
0.11891282 0.14421341 0.96200001 1.1434595e-42
0.12059952 0.14505675 0.96200001 5.5353938e-39
0.013783537 0.14993921 0.96266669 9.4048146e-41
0.016023712 0.15011689 0.96200001 1.8511153e-42
0.075058445 0.15096024 0.96200001 1.4867777e-42
0.077669159 0.1502738 0.96299994 1.1294466e-42
0.080285132 0.14958386 0.96399999 7.6931286e-43
0.014366813 0.1538094 0.96399999 2.5657775e-42
0.017288743 0.15391198 0.96200001 1.8483127e-42
0.071685031 0.15433365 0.96200001 1.4867777e-42
0.074600242 0.15398416 0.96333331 1.126644e-42
0.076904699 0.15296429 0.96399999 4.4841551e-44
0.11047929 0.15433365 0.96200001 3.133592e-39
0.11385269 0.15433365 0.96200007 5.5608848e-40
0.11835059 0.15377143 0.96200007 6.4831214e-40
0.12228623 0.15433365 0.96200007 8.2057908e-39
0.018874047 0.15690814 0.96399999 1.4867777e-42
0.021785516 0.15824254 0.96320003 4.2038954e-44
0.024457246 0.15939379 0.96200001 5.7453237e-44
0.07073193 0.15851431 0.96279997 1.4783699e-42
0.074331254 0.15710874 0.96349996 7.7071416e-43
0.11439272 0.15660509 0.963 4.7644148e-44
0.11804773 0.15790521 0.96320003 4.2450067e-39
0.12210673 0.15753722 0.96224993 8.8493652e-39
0.12423067 0.15972516 0.96399999 9.0322977e-39
0.021972772 0.16141535 0.96399999 3.0828566e-44
0.025816781 0.16216019 0.96239996 4.4841551e-44
0.063251495 0.16276719 0.96200001 4.4841551e-44
0.066108853 0.16231775 0.96266669 1.4895803e-42
0.069017045 0.16197877 0.96399999 2.906293e-42
0.11831493 0.16226046 0.96399999 8.0203191e-39
0.12144287 0.16108048 0.96200001 8.3876555e-39
0.027325116 0.1653592 0.96399999 3.9236357e-44
0.030376062 0.16538361 0.96249998 3.0828566e-44
0.033453017 0.16726509 0.96200007 2.5223372e-44
0.037950899 0.16782731 0.96200007 3.9796876e-43
0.042167664 0.16782731 0.96200001 3.2229865e-44
0.045541078 0.16782731 0.96200001 1.460153e-42
0.049757846 0.16782731 0.96200007 7.7071416e-43
0.053693496 0.16670284 0.96200007 7.5810247e-43
0.058191381 0.1661406 0.96200007 1.1056245e-42
0.062213521 0.16524523 0.96333331 1.8272932e-42
0.065918311 0.16479579 0.96399999 1.126644e-42
0.031268943 0.16817622 0.96399999 2.5223372e-44
0.034649372 0.16986643 0.96399999 3.8535708e-43
0.038452353 0.17028899 0.96399999 3.8535708e-43
0.042255331 0.17071155 0.96399999 2.3822074e-44
0.04563576 0.17071155 0.96399999 3.0828566e-44
0.049827397 0.17059407 0.96333331 4.4841551e-44
0.054368526 0.16930303 0.96399999 3.3631163e-44
0.057185546 0.16873962 0.96399999 7.4829338e-43
0.060002569 0.16817622 0.96399999 3.9376487e-43
0.0076296297 0.11359671 0.96700001 1.5691838e-39
0.0076296302 0.1178354 0.96700001 1.1107126e-39
0.0067818929 0.12207408 0.96700001 5.5790176e-40
0.0067818929 0.12546502 0.96700001 8.3196771e-40
0.007205761 0.12927984 0.96700001 2.8058059e-40
0.0076296297 0.13309465 0.96700001 5.7831588e-42
0.0093251029 0.13902882 0.96700001 1.8876471e-40
0.089860082 0.13987654 0.96700001 8.5731146e-39
0.092403293 0.13987654 0.96700001 8.8482567e-39
0.011020577 0.14241976 0.96700001 1.0145709e-39
0.086469144 0.14241976 0.96700001 2.948105e-39
0.011020577 0.14581069 0.96700001 7.3906723e-40
0.083078191 0.14581069 0.96700001 3.7835059e-43
0.086186558 0.14552812 0.96700001 3.8535708e-43
0.012716049 0.15174486 0.96700001 4.6068528e-40
0.082230456 0.14962552 0.96700001 4.0637655e-43
0.012716049 0.15428807 0.96700001 2.7807086e-40
0.078274354 0.15457064 0.96700001 4.4841551e-44
0.014411522 0.15683128 0.96700001 7.6931286e-43
0.016672155 0.15796161 0.96700001 1.1182362e-42
0.077709191 0.15739644 0.96700001 4.2038954e-44
0.11444444 0.15852675 0.96700001 3.8535708e-43
0.11953086 0.15852675 0.96700001 6.4548305e-39
0.018650208 0.16106996 0.96700001 3.0828566e-44
0.022041153 0.16361317 0.96700001 7.4549078e-43
0.070362143 0.16361317 0.96700001 3.6251591e-42
0.07341399 0.16157861 0.96700001 1.474166e-42
0.11444444 0.16106996 0.96700001 7.7912195e-43
0.11613992 0.16191769 0.96700001 1.9372096e-39
0.02288889 0.16530864 0.96700001 2.9427268e-44
0.02514952 0.16643897 0.96700001 3.2229865e-44
0.063580252 0.16700412 0.96700001 2.1874269e-42
0.066123456 0.16700412 0.96700001 1.4867777e-42
0.069514409 0.16615638 0.96700001 2.5489619e-42
0.072057612 0.16530864 0.96700001 2.5461593e-42
0.11698765 0.16530864 0.96700001 9.0351549e-39
0.027975308 0.16869959 0.96700001 2.9427268e-44
0.030235942 0.16982991 0.96700001 2.9427268e-44
0.033061728 0.17039506 0.96700001 2.9427268e-44
0.058493827 0.17039506 0.96700001 3.0828566e-44
0.061884779 0.16954733 0.96700001 1.8286945e-42
0.066123456 0.16869959 0.96700001 1.4867777e-42
0.031366255 0.17209053 0.96700001 3.8535708e-43
0.033909462 0.17209053 0.96700001 3.5032462e-44
0.03814815 0.17350344 0.96700001 3.5032462e-44
0.042386834 0.17463376 0.96700001 2.9427268e-44
0.045777783 0.17463374 0.96700001 3.8535708e-43
0.050016463 0.17463377 0.96700001 2.9427268e-44
0.054085601 0.17344692 0.96700001 3.0828566e-44
0.05736351 0.1726557 0.96700001 2.6624671e-44
0.0059525664 0.11054766 0.97000003 2.1194247e-39
0.0059525664 0.11394913 0.97000003 1.5695075e-39
0.0055273832 0.11862615 0.97000003 1.1110615e-39
0.0025511 0.12330317 0.97000003 1.7531463e-39
0.0042518335 0.1224528 0.97000003 1.0188785e-39
0.0025511 0.1250039 0.97000003 1.8446735e-39
0.0042518335 0.12585427 0.97000003 1.6599291e-39
0.0051022 0.13010609 0.97000003 4.64267e-40
0.0065194778 0.13464139 0.97000003 4.7293823e-42
0.0070863888 0.13747594 0.97000003 4.0077136e-42
0.0076533002 0.14116086 0.97000003 1.8660671e-40
0.0093540326 0.1428616 0.97000003 8.3053699e-40
0.089288503 0.1428616 0.97000003 7.7418867e-39
0.0093540326 0.1454127 0.97000003 9.7278139e-41
0.087587766 0.14711343 0.97000003 1.4012985e-44
0.089288503 0.14626306 0.97000003 2.391669e-39
0.011054766 0.14966452 0.97000003 4.6246913e-40
0.085036665 0.14966452 0.97000003 2.2084464e-42
0.081805274 0.15425652 0.97000009 5.465064e-44
0.013605866 0.1581682 0.97000003 1.8657588e-40
0.079084098 0.15901856 0.97000003 2.5223372e-44
0.080784827 0.15731783 0.97000003 2.5223372e-44
0.11309877 0.15901856 0.97000003 2.5223372e-44
0.016156966 0.16156965 0.97000003 3.8535708e-43
0.075682633 0.16242003 0.97000003 3.9376487e-43
0.078233734 0.16071929 0.97000003 3.2229865e-44
0.11309877 0.16071929 0.97000003 4.1618564e-43
0.018708067 0.16412076 0.97000003 2.9427268e-44
0.022109533 0.16667187 0.97000003 2.8025969e-44
0.073981896 0.16582151 0.97000009 2.1874269e-42
0.11479949 0.16497114 0.97000003 3.9676519e-39
0.025794458 0.16978988 0.97000003 2.9427268e-44
0.028062101 0.17092369 0.97000003 2.9427268e-44
0.063777499 0.17092369 0.97000003 9.4028528e-41
0.0663286 0.17092369 0.97000003 4.3454265e-42
0.069446608 0.16978988 0.97000003 2.5503632e-42
0.072281167 0.16922295 0.97000003 1.8328984e-42
0.029762834 0.17347479 0.97000003 2.6624671e-44
0.034014665 0.17432517 0.97000003 3.5032462e-44
0.058675297 0.17432517 0.97000003 3.0828566e-44
0.061736621 0.17330472 0.97000009 9.4025726e-41
0.065478235 0.17262442 0.97000003 3.7097275e-40
0.034014665 0.1760259 0.97000003 3.3631163e-44
0.038266502 0.17744319 0.97000015 4.3440252e-44
0.042518333 0.17857701 0.97000003 3.643376e-44
0.045919798 0.17857701 0.97000003 1.5414283e-44
0.050171636 0.17857701 0.97000015 7.4829338e-43
0.054593541 0.17806679 0.97000009 1.1196375e-42
0.057824932 0.17687628 0.97000003 1.1238414e-42
0.042518333 0.1811281 0.97000003 1.821688e-44
0.045919798 0.1811281 0.97000003 0
0.0042737499 0.11197225 0.97500002 3.1364647e-39
0.00256425 0.11539125 0.97500002 3.1356884e-39
0.0042693662 0.11441815 0.97399998 2.0304857e-39
0.0019944168 0.11824042 0.97500008 3.8725682e-39
0.0042649829 0.11771353 0.97299999 5.5860381e-40
0.0015360954 0.12173691 0.9738 3.7785677e-39
0.001421661 0.12652785 0.97299999 1.3851191e-39
-0.00085474999 0.129922 0.97500002 3.1342857e-39
0.00170687 0.12978874 0.97399998 9.2485559e-40
0.0025624968 0.13410518 0.97433329 5.5677932e-40
0.0042649833 0.13392049 0.97299999 9.6564878e-41
0.004839492 0.13865915 0.97433341 3.6531851e-42
0.0051223631 0.14174296 0.97399998 2.7771914e-40
0.0070026377 0.14570111 0.97419995 1.8731717e-40
0.0093829632 0.14756842 0.97299999 4.7237771e-42
0.0076927501 0.14958124 0.97500002 4.6246493e-40
0.0093926061 0.15028258 0.97399998 5.5466056e-40
0.08700566 0.15012741 0.97299999 2.5657775e-42
0.089564644 0.14927441 0.97299999 7.7912195e-43
0.010534319 0.15346548 0.97433329 2.7844361e-40
0.085074358 0.15335968 0.97366667 3.6657968e-42
0.011111749 0.15727399 0.97500002 3.7097275e-40
0.01279495 0.15951037 0.97299999 9.4734783e-41
0.082228705 0.159051 0.97366667 4.0217266e-43
0.084446661 0.1560984 0.97299999 4.6679914e-40
0.11174256 0.15951037 0.97299999 6.4459729e-44
0.013654522 0.16215308 0.97350001 1.8258919e-42
0.078475684 0.16292235 0.97299999 2.5223372e-44
0.081201248 0.16154775 0.97500002 1.9618179e-44
0.1118574 0.16223681 0.97399998 7.9173363e-43
0.11344855 0.16292235 0.97299999 6.5861028e-44
0.01453075 0.16496675 0.97500002 1.8202867e-42
0.017503962 0.16607879 0.97399998 2.5223372e-44
0.0759167 0.16633435 0.97299999 3.0828566e-44
0.078244537 0.16531099 0.97366667 2.5223372e-44
0.11197225 0.16496675 0.97500002 5.0446745e-44
0.11356515 0.1656523 0.97399998 2.4896393e-39
0.019089418 0.16895559 0.97500008 3.7835059e-44
0.022034315 0.17029828 0.97419995 2.8025969e-44
0.024736902 0.17145231 0.97299999 2.9427268e-44
0.070798725 0.17145231 0.97299999 2.906293e-42
0.073692895 0.17100112 0.97366667 1.4727647e-42
0.025909301 0.17396544 0.97433329 2.8025969e-44
0.02814889 0.17486431 0.97299999 7.4549078e-43
0.063974746 0.17486431 0.97299999 4.6246493e-40
0.066818066 0.17429565 0.97299999 3.7097275e-40
0.070017606 0.17419103 0.97399998 1.8622136e-40
0.073508501 0.17351425 0.97500002 9.3325076e-41
0.029874172 0.17754488 0.97366667 3.9096227e-43
0.034119867 0.17827629 0.97299999 4.4841551e-44
0.037531853 0.17998229 0.97299999 4.7644148e-44
0.058003772 0.17998229 0.97299999 7.6931286e-43
0.061927557 0.17725269 0.97299999 2.7806666e-40
0.065815754 0.177788 0.97500002 7.390294e-40
0.031625748 0.18035224 0.97500002 5.3249342e-44
0.034189999 0.18120699 0.97500002 3.2229865e-44
0.037570424 0.18272977 0.97399998 9.2161158e-40
0.041370336 0.18296777 0.97299999 1.5669782e-39
0.046061821 0.18339427 0.97299999 1.658462e-39
0.049499664 0.1826355 0.97350001 7.3758886e-40
0.053794019 0.18272977 0.97399998 1.3825841e-39
0.058123 0.18206175 0.97500002 1.8440527e-40
0.061541997 0.18035224 0.97500002 2.7662332e-40
0.0014289666 0.11460312 0.97800004 7.6518631e-39
-0.00085737993 0.11917581 0.97799999 8.6642256e-39
0.00085737993 0.11746105 0.97799999 6.6398874e-39
-0.00085737993 0.12174796 0.97799999 7.2812841e-39
-0.00085737993 0.12603486 0.97800004 4.9782025e-39
-0.00085737993 0.13289389 0.97799999 2.2119692e-39
0.00085737993 0.13375127 0.97799999 1.4783769e-39
0.00257214 0.13803817 0.97799999 5.7635406e-42
0.0042868997 0.14575458 0.97799999 1.4811725e-42
0.0065732463 0.15004149 0.97800004 3.702707e-40
0.088310137 0.15175626 0.97799999 3.2888475e-42
0.0094311787 0.15518576 0.97799999 4.0035097e-42
0.086595379 0.15518576 0.97799999 6.1783249e-42
0.0094311787 0.15775791 0.97799999 1.8766049e-40
0.084880613 0.15861529 0.97799999 9.8371152e-41
0.01114594 0.16204482 0.97800004 9.4378853e-41
0.082308471 0.16290219 0.97799999 1.2611686e-44
0.11060201 0.16290219 0.97799999 2.2322685e-42
0.011145939 0.16633171 0.97799999 7.4689208e-43
0.013432287 0.16661751 0.97800004 1.4643569e-42
0.079736337 0.16718909 0.97799999 1.098618e-42
0.11060201 0.16547433 0.97799999 7.7631935e-43
0.11231677 0.16718909 0.97799999 3.4108852e-39
0.014003873 0.16947544 0.97800004 1.1140323e-42
0.016861806 0.17004703 0.97800004 3.0828566e-44
0.07630682 0.16976124 0.97799999 1.8477241e-40
0.019148152 0.17290495 0.97800004 3.5032462e-44
0.02229188 0.17490551 0.97799999 4.3440252e-44
0.024864018 0.17576288 0.97799999 1.4657582e-42
0.073734671 0.17576288 0.97799999 9.2089972e-40
0.023149259 0.17747766 0.97799999 6.1657132e-44
0.025721397 0.17833503 0.97799999 2.6624671e-44
0.06773302 0.17919241 0.97799999 1.3818779e-39
0.070019364 0.17804925 0.97800004 1.2900438e-39
0.065160871 0.18090717 0.97799999 1.4740763e-39
-0.00143335 0.11782136 0.98100007 9.6780118e-39
-0.0025800299 0.12212142 0.98100001 9.6783705e-39
-0.0043131998 0.12680808 0.98400003 1.0230491e-38
-0.0025800299 0.12556145 0.98100001 9.3110355e-39
-0.0043131998 0.12853335 0.98400003 1.0323036e-38
-0.0025800299 0.1290015 0.98100001 9.1270044e-39
-0.00086000998 0.13502157 0.98100001 2.2126979e-39
-0.001723965 0.137812 0.98250002 4.7009107e-39
0.00086000998 0.1376016 0.98100001 9.2844011e-40
-0.0014377333 0.1411854 0.98400009 4.0555301e-39
0.0017204585 0.14197311 0.98150003 4.6638856e-40
-0.00086263998 0.14492351 0.98400003 2.3041677e-39
0.0017206775 0.14631413 0.98175001 6.4826029e-40
0.0020128267 0.14981183 0.98400009 3.7132027e-40
0.00430005 0.14964172 0.98100001 9.3682408e-41
0.0025879201 0.15268727 0.98400003 3.716762e-40
0.0060244533 0.15381116 0.98200005 9.4401274e-41
0.089819752 0.15352538 0.98200005 2.5853957e-42
0.0071728872 0.1575405 0.98200005 1.8730736e-40
0.086993821 0.15848511 0.98250002 1.919933e-40
0.088851921 0.15613784 0.98400003 6.1783249e-42
0.10696736 0.1595884 0.98400003 4.6119703e-39
0.11070547 0.15901332 0.98400009 6.4684358e-40
0.11266131 0.15910184 0.98100001 4.0777785e-43
0.0077637597 0.16217631 0.98400003 1.8766049e-40
0.0094601102 0.16168188 0.98100001 9.5103324e-41
0.086133815 0.1619291 0.98250002 1.8946396e-40
0.098340958 0.16303895 0.98400003 1.05071e-38
0.10179152 0.16303895 0.98400003 5.7162019e-39
0.10594298 0.16192779 0.98250008 5.5574656e-40
0.11001903 0.16172309 0.98300004 3.3210774e-42
0.0077637597 0.16476424 0.98400003 5.5571433e-40
0.0094745755 0.16537571 0.98250002 1.8328984e-42
0.082847625 0.1654086 0.98100007 2.8025969e-45
0.086133808 0.16451308 0.98250002 1.2611686e-44
0.095753044 0.16562688 0.98400003 2.3016874e-39
0.098392509 0.16594037 0.98280001 3.3190665e-39
0.10148117 0.16598193 0.98100007 3.5045424e-39
0.10578123 0.16598193 0.98100007 1.3873037e-39
0.10965127 0.16641194 0.98100001 1.1089189e-39
0.010334585 0.16967972 0.98250002 7.6791156e-43
0.012900149 0.17114198 0.98100001 7.6931286e-43
0.078834251 0.16999531 0.98100007 9.2215248e-41
0.081950799 0.16950876 0.98400003 4.6099917e-40
0.095753044 0.1682148 0.98400003 7.0064923e-45
0.098168433 0.17028514 0.98400003 4.6097114e-40
0.10179152 0.17080271 0.98400003 9.2162699e-40
0.10583427 0.17036921 0.98150003 1.9382676e-39
0.11041792 0.16994008 0.98400003 3.7832718e-39
0.11386848 0.16994008 0.98400003 6.3618544e-39
0.11645639 0.16994008 0.98400003 9.3099481e-39
0.011214321 0.17339064 0.98400003 1.4727647e-42
0.014074883 0.17378953 0.98300004 7.6651026e-43
0.016913529 0.1740087 0.98100007 5.0446745e-44
0.077460729 0.17385548 0.98175001 1.5662677e-39
0.076540887 0.17630205 0.98100001 2.4889289e-39
-0.0043263496 0.12286833 0.98699999 9.2188469e-39
-0.0043263496 0.12546416 0.98699999 9.954261e-39
-0.00086526998 0.14796115 0.98699999 2.1194205e-39
-0.00086526998 0.1496917 0.98699999 2.0265032e-39
0.00086526998 0.15142223 0.98699999 1.109244e-39
0.0017305398 0.15401806 0.98699999 8.3265295e-40
0.092583887 0.15401806 0.98699999 7.8472714e-43
0.0049031964 0.15776756 0.98699999 9.3326478e-41
0.090276502 0.15776756 0.98699999 9.8734088e-41
0.0060568899 0.16094021 0.98699999 1.8552071e-40
