# .PCD v0.7 - Point Cloud Data file format
VERSION 0.7
FIELDS x y z rgb
SIZE 4 4 4 4
TYPE F F F F
COUNT 1 1 1 1
WIDTH 968
HEIGHT 1
VIEWPOINT 0 0 0 1 0 0 0
POINTS 968
DATA ascii
0.067956567 0.091389857 0.89099997 4.5269788e-39
0.069518782 0.091389857 0.89099997 6.6384833e-39
0.067175455 0.093733199 0.89099997 1.2537165e-38
0.070299894 0.093733199 0.89099997 1.1343707e-38
0.074038886 0.094302163 0.88900006 9.5898449e-39
0.07773491 0.094892442 0.88966668 9.5905554e-39
0.067331679 0.097326301 0.89099997 2.4090409e-39
0.070299894 0.097638749 0.89099997 2.2250153e-39
0.074038878 0.098198943 0.88900006 1.4892496e-39
0.078197785 0.097862832 0.89020008 3.2377071e-39
0.066915087 0.10284615 0.89099997 1.2137361e-39
0.070247293 0.10224768 0.89033335 3.3313671e-39
0.074076667 0.10214636 0.88944447 2.5941566e-39
0.077920057 0.10259121 0.89059991 2.0420744e-39
0.081235439 0.10388763 0.89099997 1.2130494e-39
0.062488794 0.10623096 0.89099997 9.8671408e-39
0.066270739 0.10603195 0.88933337 2.9593266e-39
0.070142105 0.1059925 0.889 9.4058278e-39
0.074038886 0.10599251 0.88900006 1.1066385e-38
0.077935666 0.1059925 0.889 1.0052292e-38
0.081894986 0.10607199 0.88966668 3.4206803e-39
0.085140981 0.10623095 0.89099997 2.4068688e-39
0.062417787 0.11001289 0.88999999 3.5038333e-39
0.066245317 0.10988928 0.88900006 9.1270268e-39
0.070142105 0.10988929 0.88900006 8.0214206e-39
0.074038878 0.10988928 0.88900006 3.9662646e-39
0.077965185 0.10993107 0.88933337 2.3996255e-39
0.081893809 0.10997286 0.88966668 3.702721e-40
0.085140988 0.11013651 0.89099997 9.693342e-41
0.062488794 0.11326094 0.89099997 3.8736738e-39
0.075597592 0.11300671 0.889 1.2255927e-38
0.078024209 0.11313383 0.88999999 8.0181738e-39
0.08201655 0.11326095 0.89099997 2.0305053e-39
0.065050416 0.094048798 0.89399999 1.0049359e-38
0.065442286 0.098359369 0.89399999 2.4090423e-39
0.080725215 0.098751239 0.89399999 4.6195682e-39
0.06557291 0.10162495 0.89399999 1.6725534e-39
0.079157732 0.10110245 0.89399999 2.6823851e-39
0.082292698 0.1018862 0.89399999 2.132084e-39
0.085427657 0.10188619 0.89399999 2.9603845e-39
0.06348294 0.10423741 0.89399999 2.4094304e-39
0.083860174 0.10423741 0.89399999 4.7941363e-40
0.086603269 0.10541303 0.89399999 1.9462536e-39
0.088562623 0.10580491 0.89399999 1.6692926e-39
0.060347974 0.1097236 0.89399999 1.2000342e-39
0.08699514 0.1097236 0.89399999 4.6895714e-40
0.088562615 0.1097236 0.89399999 1.7585833e-39
0.060347974 0.11285856 0.89399999 1.1210388e-44
0.086211398 0.11442604 0.89399999 2.9329177e-42
0.062839471 0.094259188 0.89600003 7.7491609e-39
0.081783354 0.095150769 0.89700001 7.7524007e-39
0.085809886 0.09525685 0.898 6.5480898e-39
0.058256254 0.098405831 0.89799994 3.6968902e-39
0.062053978 0.098186672 0.89600003 6.0925304e-39
0.082084045 0.097793914 0.89600003 9.499073e-39
0.085661635 0.098234594 0.89644444 4.0624147e-39
0.090185329 0.098436959 0.89649999 2.9567944e-39
0.093473703 0.099757649 0.89600003 3.5081955e-39
0.058256254 0.10234207 0.898 2.7738549e-39
0.062053978 0.10211413 0.89600003 2.3175641e-39
0.087189756 0.10211413 0.89600003 1.0239162e-39
0.090331733 0.10211413 0.89600003 1.1237012e-41
0.094259188 0.10211413 0.89600003 1.8482664e-39
0.058212422 0.10619881 0.89733332 2.7752744e-39
0.060875736 0.10564885 0.89600003 4.2450375e-39
0.091117233 0.10604161 0.89600003 5.6402964e-40
0.09443482 0.10623944 0.89766663 1.0135592e-41
0.055894509 0.11021453 0.898 1.1118154e-39
0.058190502 0.1100918 0.89700001 2.2170588e-39
0.091117226 0.10996906 0.89600003 1.4845272e-39
0.094469592 0.11021453 0.898 5.6222477e-40
0.058474839 0.11301753 0.89733332 3.7835059e-44
0.06209898 0.11555343 0.89666671 4.2038954e-45
0.087189756 0.11232555 0.89600003 2.9413255e-42
0.090331733 0.11389653 0.89600003 2.2070451e-42
0.093682349 0.11415076 0.898 2.2154529e-42
0.090331733 0.11703851 0.89600009 1.4867777e-42
0.093682349 0.11729975 0.898 1.8469114e-42
0.056081243 0.09873458 0.90100002 2.4011067e-39
0.056081247 0.1018941 0.90100002 1.0246547e-39
0.097154833 0.10347384 0.90100002 4.8899641e-39
0.054622468 0.10607842 0.903 6.9266183e-42
0.056081243 0.10584347 0.90100002 1.3005451e-39
0.097154833 0.10505359 0.90100002 7.4516568e-40
0.054622468 0.11003657 0.90300006 5.5828572e-40
0.056081243 0.1082131 0.90100002 2.4022039e-39
0.054622468 0.11320309 0.903 4.4000772e-43
0.056933362 0.1138676 0.90200001 5.6051939e-44
0.095787227 0.11399472 0.903 4.0147201e-42
0.058714166 0.11663845 0.90100002 4.0217266e-43
0.061610378 0.11769163 0.90100002 1.1056245e-42
0.054803938 0.10245954 0.90600002 7.2503183e-42
0.053671286 0.10535517 0.90700006 8.6908531e-42
0.098940164 0.10609113 0.90649998 3.505627e-39
0.1017305 0.10618818 0.90799999 6.0834949e-39
0.10427774 0.1074618 0.90799999 5.8987603e-39
0.051740866 0.10984983 0.90799999 1.204367e-39
0.053215422 0.11040214 0.90600002 9.910263e-41
0.098597825 0.10972886 0.90700001 1.1128762e-39
0.1018897 0.10984983 0.90799999 1.8486406e-39
0.10507375 0.10984983 0.90799999 2.8595541e-39
0.051740866 0.1138299 0.90799999 7.4411331e-40
0.053784084 0.11472294 0.9066667 9.4415287e-41
0.056392461 0.11516769 0.90600002 5.0446745e-44
0.098560713 0.11366158 0.90666676 5.593423e-40
0.10174009 0.11366158 0.90666676 1.0210407e-39
0.10427774 0.11462592 0.90799999 5.6186884e-40
0.051740866 0.11701395 0.90799999 6.9084014e-42
0.054068416 0.11768022 0.90700006 5.1848043e-44
0.05692197 0.11781524 0.90600002 1.1308479e-42
0.097801805 0.1176811 0.90700006 3.2986566e-42
0.10147475 0.11737281 0.9066667 4.6714667e-40
0.098705649 0.12019801 0.90799999 2.7880374e-40
0.0358206 0.13054618 0.90799999 1.6594118e-38
0.038208641 0.13054617 0.90799999 5.4435359e-39
0.051854834 0.1076985 0.91000003 2.5905202e-39
0.0502593 0.11088957 0.91000003 6.5038886e-40
0.050259303 0.11408063 0.91000003 1.1136259e-39
0.10450743 0.1124851 0.91000003 1.5727782e-39
0.0502593 0.11846834 0.91000003 7.1002126e-39
0.1029119 0.11886723 0.91000003 1.4787777e-39
0.10450743 0.11886723 0.91000003 1.8479203e-39
0.050658185 0.12086165 0.91000003 1.2972997e-39
0.053982209 0.12099462 0.91000003 7.8472714e-44
0.05664143 0.12046277 0.91000003 7.8192454e-43
0.096529759 0.12046277 0.91000003 5.5577459e-40
0.10131636 0.12046277 0.91000003 1.4727647e-42
0.035899498 0.12844044 0.91000003 1.5855482e-38
0.038292799 0.12844044 0.91000003 7.7444497e-39
0.042281635 0.13083375 0.91000003 1.0378577e-40
0.0454727 0.13083375 0.91000003 4.7436335e-40
0.038292799 0.1340248 0.91000003 7.0969293e-39
0.043877166 0.1340248 0.91000003 1.2083229e-39
0.0454727 0.1340248 0.91000003 7.4878804e-40
0.038292799 0.13801363 0.91000003 2.1194625e-39
0.042281631 0.13801363 0.90999997 1.4816825e-39
0.045472704 0.13801363 0.91000003 7.4770764e-40
0.038292799 0.14200246 0.91000003 2.3822074e-44
0.042281635 0.14200246 0.91000003 1.2054404e-39
0.0454727 0.14200246 0.91000003 1.0142598e-41
0.038691685 0.14559242 0.91000003 2.6624671e-44
0.042053703 0.14553544 0.91000003 3.7460491e-40
0.0454727 0.14519353 0.91000003 6.5412612e-42
0.05202578 0.10645276 0.91299999 1.3372591e-41
0.047326848 0.11149885 0.91500002 8.8594125e-39
0.049678948 0.10977357 0.91400003 7.750593e-39
0.046022721 0.11401558 0.91460001 1.8558601e-39
0.048824195 0.11365633 0.91299999 3.5103143e-39
0.037701052 0.11871821 0.91500008 8.4895566e-39
0.041872229 0.11823691 0.91500008 1.0774304e-40
0.045676962 0.1178011 0.91411102 2.7724438e-39
0.048824195 0.1168579 0.91299999 8.8548596e-39
0.0385032 0.1219268 0.91500002 1.0970918e-38
0.041688569 0.12185974 0.9145 1.5583602e-38
0.04562261 0.12166028 0.91300005 1.1444562e-38
0.049624592 0.12246068 0.91299999 6.755573e-39
0.055227365 0.12246068 0.91299999 4.4841551e-44
0.057938021 0.12201651 0.91366673 4.2739603e-43
0.060652182 0.12157117 0.91433334 2.9441281e-42
0.098448783 0.12246068 0.91299999 5.465064e-44
0.10096131 0.12259482 0.91400003 2.6624671e-44
0.037636563 0.12572266 0.9134444 1.0788695e-38
0.041635528 0.12570873 0.91333342 7.379993e-39
0.04562261 0.12566228 0.91299999 1.2263852e-38
0.049624592 0.12566227 0.91300005 1.1711083e-38
0.05366651 0.1257548 0.91366673 1.6671654e-39
0.057734054 0.12589225 0.91466665 2.8565329e-40
0.060161248 0.12593754 0.91500008 8.3847254e-40
0.041620627 0.12886386 0.91299999 3.7459791e-40
0.046022806 0.12926406 0.91299999 8.7048661e-42
0.049624592 0.12966426 0.91299999 2.8278343e-40
0.053706061 0.12985364 0.91433334 1.9633453e-40
0.0577548 0.12994829 0.91500002 6.5694413e-40
0.041620623 0.13446663 0.91299999 2.3092712e-39
0.0472234 0.13366625 0.91299999 6.5695254e-40
0.049624592 0.13366625 0.91300005 1.970562e-40
0.05369262 0.13382812 0.91411114 1.030585e-40
0.0577548 0.13395905 0.91500008 1.0860063e-41
0.061444689 0.13492166 0.91500008 1.0853057e-41
0.038419038 0.13846862 0.91299999 2.2116455e-39
0.0472234 0.13766822 0.91299999 8.3954453e-40
0.049624592 0.13766822 0.91299999 4.7183821e-40
0.053646736 0.1377182 0.91333342 1.0502732e-41
0.057723675 0.13789396 0.9145 1.0144e-41
0.061765548 0.13796979 0.91500008 1.0499929e-41
0.064974152 0.13877194 0.91500002 1.0498528e-41
0.036017846 0.143271 0.91299999 1.548779e-38
0.0472234 0.14167021 0.91299999 1.0269696e-40
0.049624592 0.14167021 0.91300005 4.6823968e-40
0.053679567 0.14180893 0.91388893 2.8349109e-40
0.057734054 0.14192942 0.91466665 2.8314076e-40
0.061765544 0.14198054 0.91500008 8.347535e-42
0.065375224 0.14238161 0.91500002 9.4223309e-42
0.068182752 0.14358485 0.91500002 3.7424758e-40
0.036551446 0.14593898 0.91299999 9.0355249e-39
0.0472234 0.14567217 0.91299999 6.5426625e-42
0.049624592 0.14567217 0.91299999 5.4566562e-42
0.053706061 0.14588493 0.91433334 4.3790577e-42
0.0577548 0.1459913 0.91500002 4.3888668e-42
0.061765548 0.14599131 0.91500008 6.5412612e-42
0.065776303 0.1459913 0.91500002 5.826599e-42
0.068182752 0.1459913 0.91500002 5.8251977e-42
0.03743827 0.14995666 0.91350001 4.1484446e-39
0.041780703 0.14999433 0.91300005 9.5499892e-41
0.045622606 0.14967418 0.91299999 3.3028605e-42
0.049661413 0.1497829 0.91366667 3.2986566e-42
0.053744052 0.15000206 0.91500008 2.5811918e-42
0.0577548 0.15000205 0.91500008 2.9413255e-42
0.061536361 0.14954369 0.91500008 3.6587903e-42
0.065776303 0.1491999 0.91500002 3.6643955e-42
0.068182752 0.1491999 0.91500002 4.0259305e-42
0.037686732 0.15395698 0.91466665 2.7586886e-39
0.04166621 0.15384534 0.91400003 3.3056631e-42
0.045672581 0.15384535 0.91400003 3.6517838e-42
0.049678948 0.15384534 0.91400003 1.4965868e-42
0.053744048 0.1540128 0.91500008 7.8893104e-43
0.0577548 0.1540128 0.91500002 1.8539179e-42
0.060161248 0.1540128 0.91500002 1.849714e-42
0.037701052 0.15802357 0.91500008 7.4829338e-43
0.0417118 0.15802357 0.91500008 2.572784e-42
0.045722548 0.15802357 0.91500008 1.4867777e-42
0.049733303 0.15802355 0.91500008 4.1478435e-43
0.0529419 0.15722141 0.91500002 7.7772065e-43
0.038021911 0.16187386 0.91500008 7.4969468e-43
0.0417118 0.16123214 0.91500002 1.8483127e-42
0.045722552 0.16123214 0.91500008 1.1238414e-42
0.0497333 0.16123214 0.91500002 4.1618564e-43
0.0508116 0.10726893 0.92000002 2.4079717e-39
0.052310698 0.10542617 0.91799998 1.2276776e-41
0.046215057 0.1106241 0.91839999 6.8322367e-39
0.049091574 0.1086453 0.91799998 9.6870824e-39
0.034643233 0.11440237 0.91900003 1.4473998e-38
0.038102187 0.11407462 0.9191429 8.0253582e-39
0.041893851 0.11359642 0.91900003 2.4997861e-39
0.044262897 0.11347398 0.91799998 2.0406255e-39
0.034605537 0.11749788 0.91799998 1.5487062e-38
0.037824657 0.1166931 0.91799998 9.7759836e-39
0.041043781 0.11669309 0.91799998 4.7001793e-40
0.065187179 0.11991221 0.91799998 0
0.063041091 0.12259482 0.91799998 9.6215955e-41
0.066240236 0.12200254 0.91920006 3.7835059e-44
0.069093019 0.12286191 0.92000002 4.4841551e-44
0.097378373 0.12313133 0.91799998 7.7631935e-43
0.10381661 0.12232655 0.91799998 2.795156e-40
0.10646239 0.12259306 0.92000002 7.4589296e-40
0.06277284 0.12635046 0.9180001 1.3015975e-39
0.06599196 0.12635046 0.9180001 2.865675e-39
0.07008443 0.12647203 0.91888893 2.3139445e-39
0.07339453 0.12581921 0.92000002 4.718214e-40
0.10162319 0.12501267 0.92000002 1.821688e-44
0.1040428 0.12501267 0.92000002 1.126644e-42
0.061968058 0.13037437 0.9180001 1.2097536e-39
0.065991953 0.13037436 0.91799998 1.4845482e-39
0.070015855 0.13037437 0.9180001 1.6678633e-39
0.07420107 0.12985188 0.92000002 1.8522531e-39
0.062370449 0.13319108 0.91799998 1.9560445e-40
0.065991953 0.13359347 0.91799998 1.9524992e-40
0.070015863 0.13359347 0.9180001 6.5299668e-40
0.07420107 0.13388452 0.92000002 9.2885909e-40
0.077427194 0.13388452 0.92000002 9.288605e-40
0.066152923 0.13729547 0.91800004 1.0497127e-41
0.070015855 0.13761736 0.9180001 9.7852672e-42
0.074120715 0.13776612 0.91900003 1.0054457e-40
0.078032091 0.13811883 0.92000002 9.4265348e-42
0.066796735 0.14164126 0.91799998 9.7810633e-42
0.070015855 0.14164127 0.9180001 3.7532658e-40
0.074039757 0.14164126 0.91799998 1.0089769e-40
0.078178212 0.141847 0.9193334 9.4209296e-42
0.081459865 0.14194986 0.92000002 9.7810633e-42
0.07082063 0.14566517 0.9180001 6.5426625e-42
0.074039757 0.14566517 0.9180001 8.3349233e-42
0.078178205 0.14587675 0.91933334 8.6894518e-42
0.081459865 0.14598255 0.92000002 8.3321207e-42
0.07082063 0.14968908 0.91799998 3.6643955e-42
0.074039757 0.14968908 0.91799998 4.0245292e-42
0.078178212 0.1499065 0.91933334 3.3042618e-42
0.081459865 0.14920866 0.92000002 3.6671981e-42
0.06277284 0.15371299 0.9180001 2.2140516e-42
0.06599196 0.15371299 0.9180001 1.8539179e-42
0.070015848 0.15371297 0.9180001 1.502192e-42
0.074039757 0.15371299 0.9180001 1.1448608e-42
0.078011274 0.15380481 0.91974998 1.502192e-42
0.034605537 0.15854165 0.91799998 8.268782e-40
0.055529818 0.15773687 0.91799998 4.1618564e-43
0.057944156 0.15773687 0.91799998 4.1618564e-43
0.061968058 0.15773688 0.9180001 5.6051939e-44
0.065991953 0.15773687 0.91799998 7.7491805e-43
0.070041865 0.15779445 0.91833341 4.1478435e-43
0.074161179 0.15799505 0.91950005 4.1618564e-43
0.076620668 0.15808053 0.92000002 7.7631935e-43
0.033800758 0.16176078 0.9180001 8.7552988e-39
0.036215097 0.16337034 0.91799998 5.6051939e-45
0.041848559 0.16337034 0.91799998 4.1198175e-43
0.045872461 0.16337034 0.91799998 3.2229865e-44
0.049896356 0.16337034 0.91799998 4.4841551e-44
0.053920262 0.16176079 0.9180001 5.1848043e-44
0.057965487 0.16182008 0.91833341 5.0446745e-44
0.062058065 0.1619969 0.91933334 3.2229865e-44
0.065916918 0.161651 0.91919994 5.3249342e-44
0.070143566 0.16124851 0.91966665 5.1848043e-44
0.074201062 0.16050012 0.92000002 5.465064e-44
0.031386416 0.16578467 0.91799998 9.2148798e-39
0.033800758 0.16578467 0.91799998 3.679891e-39
0.037824661 0.16578467 0.9180001 3.9656747e-43
0.041848559 0.16578467 0.91799998 1.1224401e-42
0.045872457 0.16578467 0.9180001 1.1252427e-42
0.049896356 0.16578467 0.91799998 4.0637655e-43
0.053940427 0.16584516 0.91833341 4.2038954e-44
0.058070399 0.16614588 0.92000002 4.0497526e-43
0.060489997 0.16533934 0.92000002 5.0446745e-44
0.031386416 0.16819902 0.91799998 1.1960138e-39
0.033838458 0.16838223 0.91900003 0
0.038196016 0.1690641 0.91920006 4.0637655e-44
0.042064574 0.16970934 0.91920006 3.8535708e-43
0.045939084 0.17005639 0.91933334 3.7835059e-43
0.049987242 0.17011747 0.91966665 3.2229865e-44
0.053807296 0.16971765 0.92000008 3.0828566e-44
0.057263862 0.16856545 0.92000002 2.9427268e-44
0.047740631 0.10761871 0.92299998 3.3313545e-39
0.04935896 0.10761871 0.92299998 3.9749372e-39
0.038839839 0.11085537 0.92299998 9.770597e-39
0.042346209 0.11031593 0.92300004 9.5887561e-39
0.04504342 0.10977649 0.92300004 7.0116057e-39
0.037221514 0.1124737 0.92299998 1.1523378e-38
0.067160554 0.11813784 0.92299998 3.4105349e-39
0.06877888 0.11813784 0.92299998 3.3161602e-39
0.069857769 0.12110477 0.92300004 1.9618179e-44
0.073402673 0.12264603 0.92299998 2.6624671e-44
0.076870508 0.12299281 0.92299998 4.9045446e-44
0.075252183 0.12622947 0.92299998 1.927486e-40
0.076870508 0.12622947 0.92299998 4.3958733e-42
0.077679679 0.13027529 0.92299998 1.4845538e-39
0.080107167 0.13108444 0.92299998 1.1172076e-39
0.080107167 0.13432109 0.92299998 8.3774387e-40
0.081725493 0.1387715 0.92299998 3.7676852e-40
0.083343819 0.14241274 0.92299998 1.0502732e-41
0.083343819 0.1456494 0.92299998 8.6880505e-42
0.082939237 0.15009978 0.92299998 4.3818603e-42
0.082534656 0.15374103 0.92299998 2.2140516e-42
0.078488842 0.15859601 0.92299998 7.7491805e-43
0.081401825 0.15681586 0.92299998 1.1364531e-42
0.07444302 0.16264182 0.92299998 5.1848043e-44
0.076870508 0.16183266 0.92299998 5.1848043e-44
0.062629245 0.16684948 0.92299998 3.7835059e-44
0.066621117 0.16533904 0.92300004 5.1848043e-44
0.069588043 0.16506931 0.92299998 4.3440252e-44
0.072554976 0.16479959 0.92300004 4.9045446e-44
0.031557366 0.17073345 0.92299998 1.2860557e-39
0.033984859 0.17073345 0.92299998 0
0.036412347 0.17073345 0.92299998 4.6242849e-44
0.058529478 0.17019401 0.92300004 2.5223372e-44
0.060687248 0.16911513 0.92299998 4.7644148e-44
0.034794021 0.17235178 0.92299998 9.8090893e-45
0.038030677 0.17235178 0.92300004 3.8815967e-43
0.041267328 0.17235178 0.92299998 7.4549078e-43
0.046122305 0.1739701 0.92300004 1.8062737e-42
0.050168123 0.1739701 0.92299998 3.2229865e-44
0.054213941 0.17235178 0.92299998 3.8535708e-43
0.053694077 0.10332042 0.92799997 7.2820479e-39
0.034869418 0.10785192 0.92500001 1.3734998e-38
0.038195483 0.10645802 0.92700005 7.1073858e-39
0.042236045 0.10721326 0.92649996 2.3240451e-39
0.046297204 0.10667177 0.92650002 1.031486e-39
0.050358362 0.10558879 0.92649996 3.7869096e-39
0.053520501 0.10460825 0.92500001 2.1270295e-39
0.0340585 0.11028466 0.92500001 1.4195976e-38
0.037707623 0.1098792 0.92500001 1.1433708e-38
0.041356746 0.10947374 0.92500001 1.0883458e-38
0.034869418 0.11271741 0.92500001 1.4473266e-38
0.070549749 0.11839383 0.92500001 4.7912903e-39
0.073953845 0.11864895 0.92699999 8.0113242e-39
0.077829294 0.119049 0.92799997 8.9332847e-39
0.080541112 0.11959136 0.92799997 5.9905706e-39
0.074604332 0.12082657 0.92500001 1.1210388e-44
0.078203343 0.12149781 0.926 1.8658009e-40
0.0817376 0.12203586 0.92679995 4.6280684e-40
0.078658909 0.12569208 0.92500007 7.8052324e-43
0.08199288 0.12582797 0.92599994 5.3249342e-44
0.086073235 0.12642513 0.92799997 4.2038954e-44
0.089490131 0.12772682 0.92799997 4.4841551e-44
0.098873675 0.12650621 0.92699999 1.1210388e-44
0.1014724 0.12745155 0.926 2.8025969e-44
0.10591915 0.12704682 0.92699999 1.4727647e-42
0.1082017 0.12691328 0.92799997 3.7279724e-40
0.082226954 0.12958448 0.92500001 1.7600547e-39
0.086166903 0.1300616 0.92724997 1.7600505e-39
0.089978263 0.13033016 0.92799997 1.4841853e-39
0.093557857 0.130981 0.92799997 2.8887628e-40
0.0827135 0.13380125 0.92500007 1.3898372e-39
0.086050972 0.13394503 0.926 1.4838265e-39
0.090303674 0.1342352 0.92799991 2.4954561e-39
0.094371408 0.1342352 0.92799997 2.1284701e-39
0.082983807 0.13758552 0.92500007 6.5299387e-40
0.085957162 0.13785583 0.92500001 1.6653353e-39
0.090208128 0.1381539 0.92699999 2.4940128e-39
0.094371408 0.13830292 0.92799997 2.5862084e-39
0.08595717 0.14191042 0.92500007 1.2047201e-39
0.090208113 0.14221723 0.92699993 1.3894729e-39
0.094371408 0.14237064 0.92799997 1.4834636e-39
0.096812055 0.14237064 0.92799997 1.6678549e-39
0.08595717 0.145965 0.92500001 1.9092551e-40
0.090208128 0.1462806 0.92700005 5.5971084e-40
0.094371401 0.14643839 0.92799997 8.3701799e-40
0.096812047 0.14643839 0.92799997 8.3845573e-40
0.08595717 0.15001959 0.92500007 3.657389e-42
0.090208128 0.14953128 0.92700005 3.6643955e-42
0.094371408 0.14969257 0.92799997 4.7433953e-42
0.096812047 0.14969257 0.92799997 5.4622614e-42
0.085957162 0.15407416 0.92500001 2.5699814e-42
0.090239972 0.15364927 0.92733341 2.5713827e-42
0.094371408 0.15376031 0.92799997 2.5713827e-42
0.096812055 0.15376031 0.92799997 2.572784e-42
0.082308039 0.15934512 0.92500001 7.7491805e-43
0.085794985 0.15780437 0.92500001 1.1434595e-42
0.090303682 0.15782803 0.92799997 1.4965868e-42
0.094371408 0.15701449 0.92799997 1.4993894e-42
0.078658909 0.16218333 0.92500001 4.0777785e-43
0.0820354 0.16244765 0.92650002 4.7644148e-44
0.086398654 0.16222119 0.92799997 5.0446745e-44
0.089083359 0.16148901 0.92799997 4.2038954e-44
0.066495165 0.16785975 0.92500001 4.3440252e-44
0.069738835 0.16785975 0.92500001 2.5223372e-44
0.074198872 0.16623791 0.92500001 4.0637655e-44
0.077911772 0.16556178 0.92575002 5.0446745e-44
0.082168207 0.1659635 0.92799997 3.9236357e-44
0.085422389 0.16514996 0.92799997 4.2038954e-44
0.061899971 0.1705628 0.92500007 2.1019477e-44
0.065790765 0.17056996 0.92650002 2.2420775e-44
0.069693826 0.17057362 0.92799997 3.8535708e-43
0.074358158 0.16938041 0.92799997 1.9618179e-44
0.077286929 0.16840415 0.92799997 2.5223372e-44
0.03167703 0.17381889 0.92649996 0
0.033824138 0.17399494 0.926 3.9516617e-43
0.038113084 0.17515799 0.92500007 9.4730579e-41
0.042167664 0.17515799 0.92500001 9.3645974e-41
0.046222251 0.17596893 0.92500007 4.6062502e-40
0.050276831 0.17596892 0.92500001 3.6772594e-40
0.054563109 0.17481045 0.92500007 7.0064923e-45
0.058433995 0.17367753 0.92574996 7.1886611e-43
0.061558362 0.1738278 0.92799997 9.220684e-41
0.065083727 0.17328544 0.92799997 2.2420775e-44
0.034168959 0.17653961 0.92799997 7.3615814e-40
0.03791127 0.17881754 0.92799997 4.6062642e-40
0.042304426 0.1781667 0.92799997 7.3577838e-40
0.046372157 0.17816672 0.92799997 3.6842098e-40
0.050711073 0.17870907 0.92799997 4.2038954e-45
0.053694077 0.17898026 0.92799997 0
0.057490628 0.17816672 0.92799997 9.219563e-41
0.051253434 0.18142089 0.92799997 0
0.053694077 0.18142089 0.92799997 0
0.056134716 0.18142089 0.92799997 0
0.038319096 0.1035431 0.93000001 4.8932347e-39
0.043210898 0.1035431 0.93000001 8.5745915e-39
0.0456568 0.1035431 0.93000001 8.022501e-39
0.049733296 0.1035431 0.93000001 9.8664038e-39
0.042395599 0.1051737 0.93000001 2.686355e-39
0.0456568 0.1051737 0.93000001 2.4097317e-39
0.082345299 0.1198491 0.93000001 5.3495171e-39
0.087237097 0.1198491 0.93000001 7.3973005e-40
0.083975896 0.1214797 0.93000001 1.5716823e-39
0.086421803 0.122295 0.93000001 9.4402675e-41
0.089682996 0.122295 0.93000001 7.5670117e-43
0.092128903 0.1231103 0.93000001 4.4841551e-44
0.087237097 0.1247409 0.93000001 4.2038954e-44
0.089682996 0.1255562 0.93000001 1.6815582e-44
0.092672437 0.12582797 0.93000001 1.2611686e-44
0.097020693 0.1255562 0.93000001 4.4841551e-44
0.093992442 0.12916683 0.93000001 2.7916668e-40
0.097672932 0.12995882 0.93000001 7.8612844e-43
0.1019125 0.13044801 0.93000001 4.6242849e-44
0.10598899 0.1296327 0.93000001 1.2611686e-44
0.1084349 0.1296327 0.93000001 7.1466222e-44
0.097835995 0.13370919 0.93000001 2.313576e-39
0.097836003 0.1377857 0.93000001 2.4950974e-39
0.098651297 0.1418622 0.93000001 2.3107117e-39
0.098651305 0.14593869 0.93000001 1.0232071e-39
0.098651297 0.15001521 0.93000001 1.9021786e-40
0.098651305 0.1540917 0.93000001 2.2196568e-42
0.094574794 0.1589835 0.93000001 1.4965868e-42
0.097564235 0.15789643 0.93000001 2.2126503e-42
0.090498298 0.16305999 0.93000001 3.9516617e-43
0.09343338 0.16126633 0.93000001 4.1618564e-43
0.08669357 0.16659296 0.93000001 4.2038954e-44
0.088867702 0.1655059 0.93000001 2.3822074e-44
0.078540564 0.16985416 0.93000001 3.3631163e-44
0.08201918 0.16941933 0.93000001 2.1019477e-44
0.085606501 0.16876709 0.93000001 4.2038954e-44
0.0627781 0.1752895 0.93000001 1.4727647e-42
0.066446945 0.17488185 0.93000001 1.821688e-44
0.070387572 0.17311536 0.93000001 1.2611686e-44
0.0741923 0.17202829 0.93000001 3.8535708e-43
0.1010972 0.1752895 0.93000001 0
0.035057899 0.17855069 0.93000001 5.5282345e-40
0.059516896 0.17855069 0.93000001 0
0.061147496 0.17692009 0.93000001 1.8439126e-40
0.1010972 0.17692009 0.93000001 0
0.035057899 0.1809966 0.93000001 0
0.038726747 0.18140426 0.93000001 9.1841101e-41
0.042395599 0.1809966 0.93000001 4.2038954e-45
0.0456568 0.1809966 0.93000001 0
0.048917994 0.1809966 0.93000001 0
0.058973365 0.18126838 0.93000001 0
0.035246383 0.099181682 0.935 9.2188595e-39
0.037705433 0.099181682 0.935 9.586919e-39
0.035246383 0.10164073 0.935 1.0969846e-38
0.037624776 0.10142332 0.93300003 7.7498545e-39
0.041765526 0.10189758 0.93414289 1.3091461e-38
0.045853171 0.10153115 0.93400002 1.4196359e-38
0.049947202 0.10153115 0.93400002 1.3920846e-38
0.054040361 0.10235083 0.93400002 1.4653399e-38
0.056437168 0.10305918 0.93300003 3.2323051e-39
0.085064724 0.1202357 0.93300003 3.1368192e-39
0.094879881 0.12350743 0.93300003 4.7644148e-44
0.09733367 0.12350743 0.93300003 4.1618564e-43
0.09515252 0.12568858 0.93300003 3.643376e-44
0.1105389 0.12609535 0.93400002 3.3298887e-39
0.11311629 0.12705091 0.935 1.2958129e-39
0.1063309 0.13168672 0.93300003 5.3249342e-44
0.11007076 0.1305304 0.93350005 4.6428661e-40
0.11393598 0.1301247 0.935 5.812586e-42
0.11803439 0.13114932 0.935 4.394472e-42
0.10224125 0.13414052 0.93300003 1.7611309e-39
0.10650229 0.13435662 0.93449998 9.3029543e-40
0.10983756 0.13442805 0.935 5.4692679e-42
0.11229661 0.13360837 0.935 3.2832423e-42
0.10195791 0.13730791 0.93340009 1.8518902e-39
0.10491946 0.13770679 0.935 1.7604148e-39
0.10156884 0.14170353 0.93433332 2.2181532e-39
0.10409978 0.14180522 0.93500006 2.0344794e-39
0.10147811 0.14566912 0.93350005 1.3001513e-39
0.10409978 0.14590362 0.935 1.6674919e-39
0.10180517 0.14996073 0.93328577 9.2705843e-40
0.10464624 0.15000205 0.93500006 1.2032838e-39
0.10191407 0.15360725 0.93300003 3.6643955e-42
0.10519269 0.15437369 0.93500006 3.2986566e-42
0.098969534 0.15949635 0.93300003 7.7631935e-43
0.10158682 0.15729548 0.93449998 2.5699814e-42
0.10409978 0.15655951 0.935 3.2930514e-42
0.095697805 0.16276807 0.93300003 5.3249342e-44
0.098204635 0.16203737 0.93349999 4.7644148e-44
0.089972302 0.16685772 0.93300003 2.2420775e-44
0.094129741 0.1653405 0.93366671 5.3249342e-44
0.098088771 0.16530281 0.93500006 5.0446745e-44
0.086338513 0.17063002 0.93350005 4.0637655e-44
0.090117387 0.16958371 0.93449998 1.1000193e-42
0.093170673 0.16858153 0.93500006 7.6230636e-43
0.070341982 0.17585494 0.93300003 2.5153307e-42
0.073341064 0.17476438 0.93300003 2.7625899e-40
0.078097843 0.17371413 0.93380004 1.1000193e-42
0.081924938 0.17368038 0.93449998 2.766023e-40
0.084973842 0.17349963 0.93500006 8.2906422e-40
0.098969534 0.17585494 0.93300003 0
0.031130871 0.17777616 0.93449998 1.8440107e-40
0.03353513 0.17912666 0.93300003 2.7623797e-40
0.062435322 0.17858139 0.93300003 3.643376e-43
0.06595356 0.17822194 0.93339998 3.657389e-43
0.070000954 0.1788549 0.93500006 2.8025969e-45
0.073935442 0.17819916 0.93500006 2.7588344e-40
0.077401519 0.17763707 0.93500006 3.61535e-43
0.095902942 0.17705159 0.935 0
0.09801805 0.17719799 0.93433332 1.4012985e-45
0.031967647 0.1819697 0.935 1.836808e-40
0.03353513 0.18158045 0.93300003 0
0.062295936 0.1819697 0.935 0
0.065574661 0.18196969 0.935 0
0.069673084 0.1819697 0.93500006 0
0.073771499 0.1819697 0.935 0
0.070492759 0.18442874 0.935 0
0.034336112 0.094218284 0.94 7.2870715e-39
0.037082996 0.09476766 0.94 2.8710924e-39
0.041997012 0.093876392 0.93933338 3.4213767e-39
0.046147734 0.09476766 0.94 2.9600482e-39
0.04861993 0.09476766 0.94 3.5128521e-39
0.062629066 0.093943596 0.94 6.8210725e-39
0.03457398 0.097135536 0.93900001 9.1295436e-39
0.037578609 0.097375453 0.9386667 7.1062928e-39
0.041947529 0.097878084 0.93822223 8.0271715e-39
0.046082273 0.097923666 0.93866676 6.5534918e-39
0.049987782 0.09844441 0.93914294 6.6446112e-39
0.053564329 0.099712059 0.94 6.8290207e-39
0.054331414 0.10125236 0.93900001 1.3182921e-38
0.111249 0.12443406 0.94 5.1741629e-39
0.1143822 0.1256281 0.93866676 3.047202e-39
0.1179479 0.12590221 0.93866676 3.7822181e-39
0.12113779 0.12773032 0.94 6.640546e-39
0.11841312 0.1291032 0.93800002 2.5643762e-42
0.12088005 0.1299255 0.93800002 1.4802252e-39
0.11457567 0.13458529 0.93800008 4.7363888e-42
0.11860292 0.13507548 0.93950003 4.7532044e-42
0.12088005 0.13239245 0.93800002 8.3595441e-40
0.10717484 0.13842276 0.93800008 1.576025e-39
0.11018999 0.13814865 0.93800002 1.3012303e-39
0.11366114 0.13836999 0.93950003 7.4590136e-40
0.11674277 0.13816851 0.94 1.9129686e-40
0.10690074 0.14226022 0.93800008 1.9422837e-39
0.11021348 0.14217253 0.93959999 2.4936569e-39
0.1134465 0.14146477 0.94 8.3990187e-40
0.10690074 0.14637178 0.93800002 2.1255918e-39
0.11049648 0.14606458 0.93920004 2.4014584e-39
0.11330916 0.14627182 0.94 2.4014584e-39
0.10690074 0.14966102 0.93800002 9.3065136e-40
0.11030833 0.14982058 0.93900001 1.3883925e-39
0.1134465 0.14970544 0.94 1.0221337e-39
0.10772305 0.15377259 0.93800008 3.7208258e-40
0.11030834 0.15393654 0.93900007 2.8024428e-40
0.11289713 0.15410046 0.94 3.6601916e-42
0.10640734 0.15804863 0.93800002 2.9315164e-42
0.11042493 0.1582208 0.94 2.572784e-42
0.11289713 0.15739672 0.94 2.2126503e-42
0.10200338 0.16205388 0.93833339 4.0777785e-43
0.10576958 0.16200799 0.93942863 1.1294466e-42
0.10960086 0.16069299 0.94 7.7631935e-43
0.099499911 0.1669296 0.93800002 7.6651026e-43
0.10190958 0.16618678 0.94 1.4769686e-42
0.09127678 0.17186348 0.93800002 2.1804204e-42
0.094017826 0.17131528 0.93800008 2.1846243e-42
0.097925417 0.16951752 0.9386667 9.4035535e-41
0.087439321 0.17460452 0.93800008 4.6064884e-40
0.090503126 0.17442378 0.93849999 3.6987133e-40
0.093943596 0.17470212 0.94 9.219563e-41
0.09799438 0.17375357 0.93933338 1.8440387e-40
0.10207555 0.1745154 0.93900001 1.4012985e-45
0.10465646 0.17470212 0.94 0
0.028780967 0.17844199 0.93800002 5.0446745e-44
0.079764389 0.17844199 0.93800002 1.4012985e-45
0.082231328 0.17761967 0.93800002 0
0.085368037 0.17759804 0.93933338 0
0.089823268 0.17717433 0.94 1.4012985e-45
0.093743727 0.17761967 0.93800002 0
0.02960328 0.18090893 0.93800002 9.1852312e-41
0.078379005 0.182257 0.93828583 0
0.08236327 0.18119867 0.93950003 0
0.084878862 0.18047059 0.94 0
0.068252005 0.18502049 0.93800002 0
0.035547953 0.093416721 0.94300002 5.902726e-39
0.038303614 0.093967855 0.94300002 4.2504129e-39
0.047121707 0.093416721 0.94300002 3.9720253e-39
0.049877368 0.093967855 0.94300002 4.063135e-39
0.052081887 0.094243415 0.94300002 4.1546089e-39
0.038854741 0.096723504 0.94300002 4.3440168e-39
0.050428499 0.096723504 0.94300002 2.0395198e-39
0.053735282 0.097550198 0.94300002 2.7749381e-39
0.05704207 0.0983769 0.94300002 2.9621964e-39
0.055388674 0.1000303 0.94300002 6.3676824e-39
0.057593204 0.10113256 0.94300002 4.6177787e-39
0.1231778 0.13144477 0.94300002 6.4832615e-40
0.12235111 0.13392484 0.94300002 2.8278063e-40
0.11904432 0.13888504 0.94300002 1.8842139e-40
0.11491083 0.14301853 0.94300002 9.3209329e-40
0.11656422 0.14219183 0.94300002 1.4809483e-39
0.11491083 0.14549862 0.94300002 2.4018214e-39
0.11656423 0.14632532 0.94300002 2.3110593e-39
0.11491083 0.15128548 0.94300002 4.756007e-42
0.11656422 0.15045878 0.94300002 4.6788795e-40
0.11491083 0.15376557 0.94300002 2.7953242e-40
0.11656422 0.15376557 0.94300002 3.3028605e-42
0.1143597 0.15789907 0.94300002 2.572784e-42
0.10995065 0.16203254 0.94300002 1.1308479e-42
0.11325745 0.16120586 0.94300002 1.1336505e-42
0.10333708 0.16781941 0.94300002 3.7202933e-40
0.10499047 0.16699272 0.94300002 2.787603e-40
0.10829727 0.16451263 0.94300002 1.4867777e-42
0.10168369 0.1702995 0.94300002 1.8272932e-42
0.10168369 0.1727796 0.94300002 1.460153e-42
0.086803146 0.17939317 0.94300002 0
0.090109937 0.17939317 0.94300002 0
0.085976452 0.18187326 0.94300002 0
0.089283243 0.18104656 0.94300002 0
0.046442293 0.092884578 0.94599998 4.8918194e-39
0.049759597 0.092055254 0.94599998 6.0860298e-39
0.054413199 0.093532555 0.94657153 6.2700581e-39
0.057936091 0.094124191 0.94680005 6.9143429e-39
0.060540844 0.095372565 0.94599998 5.1640889e-39
0.065516807 0.095372565 0.94599998 5.1626442e-39
0.055564884 0.097031213 0.94599998 4.0638678e-39
0.05832931 0.097584099 0.94599998 3.8783934e-39
0.062199499 0.097860545 0.94600004 3.6035945e-39
0.065516807 0.097031213 0.94599998 3.4192047e-39
0.058882192 0.10034852 0.94599998 1.9512997e-39
0.062288329 0.10048996 0.94733334 4.0638566e-39
0.11480476 0.12310269 0.94666672 2.2239167e-39
0.11705866 0.12286921 0.94700003 1.5785389e-39
0.12383091 0.12964848 0.94800001 7.0983544e-39
0.12549306 0.13047956 0.94800001 8.7582695e-39
0.12383091 0.13546604 0.94800001 1.0149605e-41
0.12549308 0.13380387 0.94800007 8.3631174e-40
0.12287097 0.13781375 0.94700003 5.5382889e-39
0.12549306 0.13795927 0.94800001 5.5382833e-39
0.11859371 0.14264417 0.94599998 4.6643761e-40
0.12214051 0.14208174 0.94777775 2.4000347e-39
0.12549308 0.14211468 0.94800007 2.7724088e-39
0.12992552 0.14322278 0.94800007 4.5920831e-40
0.13380387 0.14294575 0.94800007 1.530163e-38
0.13712819 0.14294575 0.94800001 7.0947475e-39
0.11859371 0.14596149 0.94599998 2.401457e-39
0.12212639 0.14621836 0.94766665 1.9444417e-39
0.12632415 0.14627008 0.94800001 1.848649e-39
0.12964848 0.14627008 0.94800001 1.1420582e-42
0.13347144 0.14610386 0.94800007 1.5581112e-38
0.11859372 0.15010813 0.94599998 7.4554824e-40
0.12212639 0.14954209 0.94766665 8.391844e-40
0.12632415 0.1495944 0.94800001 1.2040167e-39
0.13047954 0.14997968 0.9465 7.7401786e-39
0.13380387 0.1495944 0.94800001 1.8527384e-38
0.11859371 0.15425475 0.94599998 2.2210581e-42
0.12216876 0.15374981 0.94800007 9.5862828e-41
0.12632415 0.15374981 0.94800007 1.8878013e-40
0.13012314 0.15408519 0.9471429 5.5292757e-39
0.13435583 0.15395179 0.9472 1.3455897e-38
0.11782706 0.15765578 0.94650006 2.2098477e-42
0.12216876 0.15790519 0.94800007 1.4923829e-42
0.12660119 0.15762816 0.94800007 2.9287138e-42
0.12964848 0.15790519 0.94800001 2.0276368e-39
0.13347144 0.15773897 0.94800007 1.401123e-38
0.11112977 0.16337734 0.94599998 1.126644e-42
0.11492267 0.1622197 0.94650006 1.4895803e-42
0.11765393 0.16083969 0.94733334 4.0777785e-43
0.12964848 0.16122952 0.94800001 4.3310885e-39
0.13359609 0.16185282 0.94800001 1.1058039e-38
0.13712819 0.16122952 0.94800001 7.3745868e-39
0.10698313 0.16669466 0.94599998 1.4727647e-42
0.10974756 0.16614178 0.94599998 1.8258919e-42
0.11352552 0.16604978 0.94800007 1.8272932e-42
0.13297279 0.16538492 0.94800001 8.3865513e-39
0.10366583 0.17084128 0.94599998 4.6277461e-40
0.10621035 0.17010181 0.94649994 6.4718269e-40
0.10954826 0.17013177 0.94666672 1.4531465e-42
0.1121958 0.16954032 0.94800001 1.0916115e-42
0.10366583 0.17332925 0.94599998 1.8202867e-42
0.10662501 0.17342 0.94649994 5.6051939e-45
0.10947111 0.17332925 0.94599998 0
0.11385795 0.17369571 0.94800001 0
0.11718228 0.1745268 0.94800001 3.6913565e-40
0.082932666 0.18493983 0.94599998 0
0.12755762 0.13422731 0.95099998 5.4832809e-42
0.12755762 0.13839585 0.95099998 4.0642546e-39
0.12922505 0.13839585 0.95099998 7.9733883e-43
0.12755762 0.1417307 0.95099998 3.0526054e-39
0.12978086 0.14145279 0.95099998 1.473754e-39
0.13422731 0.14089698 0.95099998 1.5022176e-38
0.13756214 0.14089698 0.95099998 7.0021931e-39
0.12755762 0.14423183 0.95099998 8.3321207e-42
0.1258902 0.15923859 0.95099998 1.4923829e-42
0.13589473 0.15923859 0.95099998 7.7400426e-39
0.11922053 0.16257344 0.95099998 4.4841551e-44
0.12172166 0.16173974 0.95099998 5.3249342e-44
0.1258902 0.16173974 0.95100009 4.9045446e-44
0.11588568 0.1675757 0.95099998 3.7132307e-40
0.11810891 0.16479668 0.95099998 7.4829338e-43
0.12172165 0.16424087 0.95099998 5.1848043e-44
0.12622368 0.16490783 0.95100003 1.9618179e-44
0.13005875 0.16590828 0.95100009 8.2976417e-39
0.13464417 0.16632514 0.95099998 8.0170387e-39
0.11505197 0.17007682 0.95099998 9.1842503e-41
0.13339359 0.16924311 0.95099998 7.9277466e-39
0.11477407 0.17313378 0.95099998 2.8025969e-45
0.11398069 0.12236162 0.95599997 1.0235616e-39
0.11733305 0.12152352 0.95599997 1.1570521e-41
0.11984733 0.1248759 0.95599997 3.3284412e-39
0.12655209 0.12990445 0.95599997 1.2629338e-38
0.12956922 0.13091017 0.95599997 7.7437617e-39
0.13493302 0.13074255 0.95599997 1.9263508e-38
0.1366092 0.13074255 0.95599997 8.1996727e-39
0.1306058 0.13395378 0.95499998 8.2658112e-40
0.13409492 0.13493302 0.95599997 1.8625017e-38
0.1366092 0.13493302 0.95599997 8.2951404e-39
0.13088721 0.13757792 0.954 3.4956035e-39
0.134002 0.13818838 0.95533335 2.1565175e-38
0.13805959 0.13805999 0.95444447 8.5684398e-39
0.14134145 0.13799608 0.954 8.8468204e-39
0.13465072 0.14134145 0.954 2.138294e-38
0.13966876 0.14134145 0.954 8.5698776e-39
0.11959662 0.16643165 0.954 3.7835059e-43
0.12210564 0.16643165 0.954 4.4841551e-44
0.12461465 0.16643165 0.954 9.8090893e-45
0.11888564 0.16995499 0.95499992 2.2420775e-44
0.12194257 0.16971388 0.95599997 3.7835059e-44
0.12643763 0.16950251 0.95514286 3.0828566e-44
0.1300209 0.17085253 0.9544 6.5452045e-39
0.13297805 0.17144969 0.954 7.8359125e-39
0.11817115 0.17348531 0.95599997 9.8090893e-45
0.13018464 0.17408322 0.95559996 6.2711413e-39
0.13297805 0.17312238 0.954 7.651517e-39
0.1118162 0.11854198 0.95899999 9.2777729e-40
0.11433837 0.11770125 0.95899999 2.6748083e-39
0.11770125 0.11770125 0.95899999 5.2544797e-39
0.1118162 0.12190487 0.95899999 1.2058005e-39
0.11433837 0.12022343 0.95899999 8.3558587e-40
0.11770125 0.12022343 0.95899999 3.7677132e-40
0.12078391 0.12302583 0.95899999 2.4064975e-39
0.1118162 0.12526776 0.95899999 7.4877823e-40
0.11349764 0.12526776 0.95899999 3.6986797e-39
0.12190487 0.1261085 0.95899999 5.6260914e-39
0.12947139 0.12694922 0.95899999 7.932794e-39
0.1261085 0.12863067 0.95899999 1.106099e-38
0.13073248 0.12905103 0.95899999 1.2808012e-38
0.13409537 0.12989175 0.95899999 1.9908152e-38
0.13871935 0.13115284 0.95899999 6.6355686e-39
0.13451573 0.13367501 0.95899999 2.0825796e-38
0.13815887 0.1342355 0.95899999 7.3702568e-39
0.1404008 0.13535646 0.95899999 8.7542688e-39
0.12358632 0.17066683 0.95899999 3.9236357e-44
0.12190487 0.17430997 0.95900005 1.5414283e-44
0.12594035 0.17436601 0.95900005 1.8658149e-40
0.12863067 0.17571117 0.95899999 4.890704e-39
0.13031211 0.17739263 0.95899999 7.3760203e-39
0.12144287 0.11891282 0.96200001 2.218872e-39
0.11047929 0.12397294 0.96200001 1.2054348e-39
0.12262356 0.12194889 0.96200001 6.0882018e-39
0.12592089 0.12197705 0.96399999 1.0789454e-38
0.12987641 0.12312958 0.96200001 8.7607821e-39
0.13268173 0.12254046 0.96399999 1.5668585e-38
0.12397294 0.12650299 0.96200001 6.5480477e-39
0.12663421 0.12578911 0.963 8.3927254e-39
0.12987641 0.12565964 0.96200001 1.6589973e-41
0.13289696 0.12614575 0.96249998 1.4836709e-38
0.12397294 0.12903306 0.96200001 7.2816429e-39
0.030360721 0.17963426 0.96200001 1.3650334e-38
0.1227079 0.17752588 0.96200001 2.2130244e-39
0.12678412 0.1785098 0.96200007 5.4409841e-39
0.12987641 0.17963426 0.96200001 7.2845436e-39
0.029517367 0.18132097 0.96200001 5.7007372e-39
0.12507579 0.18000771 0.96399999 4.7930952e-39
0.13014643 0.18169792 0.96399999 7.3749441e-39
0.12546502 0.11953086 0.96700001 1.9451704e-39
0.12800823 0.11953086 0.96700001 2.0366458e-39
0.12631276 0.12122634 0.96700001 1.0972744e-38
0.12885597 0.12122634 0.96700001 9.9571462e-39
0.027975308 0.18141565 0.96700001 1.9168816e-38
0.12292181 0.18056791 0.96700001 4.5172327e-39
0.12800823 0.18226337 0.96700001 7.188755e-39
0.026361367 0.18197846 0.97000003 2.0552664e-38
0.12670463 0.18282883 0.97000003 6.0827662e-39
0.026361367 0.18452956 0.97000003 8.9310567e-39
0.028062101 0.18452956 0.97000003 7.556509e-39
0.026497249 0.17864275 0.97500002 2.3509886e-38
0.029031694 0.17931253 0.97399998 2.2771603e-38
0.02219311 0.1818116 0.97366667 2.6736705e-39
0.025323685 0.1818116 0.97366667 1.7139263e-38
0.12295863 0.18272975 0.97399998 5.4370408e-39
0.12539051 0.18339427 0.97299999 6.2671771e-39
0.030865679 0.098598696 0.97799999 1.13408e-38
0.025721397 0.1028856 0.97799999 7.5596689e-39
0.030008296 0.10202821 0.97799999 1.1617022e-38
0.03386651 0.1024569 0.97799999 1.3181093e-38
0.03172306 0.10545773 0.97799999 1.4010827e-38
0.034580991 0.10602932 0.97800004 1.3089614e-38
0.025721397 0.17576288 0.97799999 2.3509886e-38
0.029150918 0.17576288 0.97799999 2.314003e-38
0.02229188 0.17833504 0.97799999 1.0597804e-38
0.025435604 0.17804925 0.97800004 2.3139644e-38
0.030436989 0.17790635 0.97799999 2.2769795e-38
0.026114147 0.10646415 0.98200005 1.0234842e-38
0.029756347 0.10681324 0.98100007 1.4472912e-38
0.033540387 0.10750125 0.98100001 1.3827179e-38
0.030192401 0.10955527 0.98400009 1.5026795e-38
0.034426041 0.1101661 0.98175001 1.3735711e-38
0.036980428 0.11008128 0.98100001 1.2444977e-38
0.034505598 0.11300584 0.98400003 1.4011929e-38
0.03709352 0.11300584 0.98400003 1.3274376e-38
0.022428639 0.17166536 0.98400003 2.0558555e-38
0.025879201 0.17166536 0.98400003 2.3509163e-38
0.022376698 0.17385417 0.98175001 1.8434483e-38
0.025800299 0.17372203 0.98100001 2.3509886e-38
0.030146375 0.17398635 0.98250008 2.2770158e-38
0.033591673 0.17398635 0.98250002 1.861919e-38
0.022360258 0.17630205 0.98100001 1.5115731e-38
0.031820368 0.17630205 0.98100001 2.2952746e-38
0.025669675 0.10931244 0.98699999 7.1953201e-39
0.029419178 0.11161982 0.98699999 1.5578916e-38
0.032014988 0.11161982 0.98699999 1.4289248e-38
0.033312894 0.11464827 0.98699999 1.5117204e-38
0.022497017 0.17045818 0.98699999 2.0188996e-38
0.025958098 0.17045818 0.98699999 2.2863437e-38
0.028553909 0.17045818 0.98699999 2.1756008e-38
0.0260107 0.11184601 0.98900002 1.2174554e-38
0.02605015 0.11462197 0.99049997 1.429433e-38
0.029478792 0.11444708 0.98900002 1.6868213e-38
0.026959252 0.11740319 0.99199998 1.7057638e-38
0.029827414 0.11786461 0.99100006 1.6684877e-38
0.032946885 0.11791517 0.98900002 1.5302329e-38
0.033916481 0.12088182 0.99199998 1.5394877e-38
0.023480639 0.16262516 0.99199998 2.3509886e-38
0.026089597 0.16262516 0.99199998 2.2495005e-38
0.029568212 0.16262516 0.99199998 2.0373442e-38
0.033916481 0.16262516 0.99199998 1.9911375e-38
0.021932775 0.16613151 0.99087501 2.323366e-38
0.026036998 0.16576715 0.99000001 2.2955996e-38
0.029538406 0.16593459 0.99100006 2.0834054e-38
0.033905666 0.16604739 0.99166667 2.0372356e-38
0.037357397 0.16593459 0.99100006 1.0968037e-38
0.037282001 0.16906956 0.98900002 5.066424e-39
0.026168499 0.11863053 0.995 1.6138205e-38
0.028785348 0.11950281 0.995 1.6869277e-38
0.030529916 0.12124739 0.995 1.6961815e-38
0.034891333 0.12299194 0.995 1.5303763e-38
0.029657632 0.15962785 0.995 2.0373086e-38
0.032274481 0.15962785 0.995 1.9360006e-38
0.022679366 0.16224469 0.995 2.2494653e-38
0.026168499 0.16137241 0.995 2.203261e-38
0.029657632 0.16137241 0.995 2.0465279e-38
0.034019049 0.16137241 0.99500006 1.9635152e-38
0.037508182 0.16224469 0.995 1.5761857e-38
0.025372487 0.11986312 0.99800003 1.5772305e-38
0.027122313 0.12161295 0.99800003 1.7148365e-38
0.029455416 0.12277951 0.99800003 1.7054021e-38
0.032371793 0.12336278 0.99800003 1.6593787e-38
0.030621966 0.12511261 0.99800003 1.6685964e-38
0.034471583 0.12581253 0.99800009 1.5672186e-38
0.035871446 0.12948719 0.99800003 1.6039513e-38
0.037621275 0.13036209 0.99800003 1.5854402e-38
0.033246703 0.13473666 0.99800003 1.6502303e-38
0.029747054 0.15748438 0.99800003 2.0189046e-38
0.033684164 0.15792184 0.99800003 1.8898668e-38
0.026247401 0.16010913 0.99800003 2.2032235e-38
0.034996532 0.16010913 0.99800003 1.9082698e-38
0.037621275 0.16010913 0.99800003 1.7606126e-38
0.02369367 0.11846835 1.001 1.1258354e-38
0.023271333 0.12206991 1.00175 1.2635908e-38
0.026033787 0.12314858 1.0010002 1.7884149e-38
0.021766536 0.12599015 1.00325 9.4961821e-39
0.026326301 0.12636624 1.001 1.7976709e-38
0.029543959 0.12665877 1.0010002 1.7054391e-38
0.032469105 0.12724379 1.001 1.5765471e-38
0.022004332 0.13026565 1.0039999 1.2080905e-38
0.026326301 0.12987641 1.001 1.816075e-38
0.029836472 0.12987641 1.001 1.7331336e-38
0.033346646 0.12987641 1.001 1.6132816e-38
0.0223564 0.13361029 1.0039999 1.5492502e-38
0.026326301 0.13338658 1.001 1.98192e-38
0.029836472 0.13338658 1.001 1.7515729e-38
0.034662962 0.13294782 1.001 1.622355e-38
0.038611908 0.13338658 1.001 1.5301951e-38
0.018483639 0.13906738 1.0039999 2.865305e-39
0.022224376 0.13840725 1.0039998 1.8255845e-38
0.026326302 0.13777432 1.001 2.0647488e-38
0.029836474 0.13777432 1.001 1.834333e-38
0.034474917 0.13827577 1.001 1.6316475e-38
0.037734367 0.13777432 1.0010002 1.6315399e-38
0.021980662 0.14244607 1.003 2.0461693e-38
0.026326301 0.14216202 1.001 2.2483133e-38
0.029836472 0.14216202 1.001 1.9998527e-38
0.03422419 0.14216202 1.001 1.6778175e-38
0.037734363 0.14216202 1.001 1.650087e-38
0.021980662 0.14596324 1.003 1.9362174e-38
0.026326301 0.1456722 1.001 1.9727345e-38
0.029836472 0.1456722 1.001 1.8621707e-38
0.03422419 0.1456722 1.001 1.7238795e-38
0.038319394 0.14596471 1.0010002 1.6870001e-38
0.022225378 0.14981395 1.0027143 2.1206456e-38
0.026326302 0.15005991 1.001 2.1849655e-38
0.029836474 0.15005991 1.001 2.0646048e-38
0.034224186 0.15005989 1.001 1.7700125e-38
0.038611908 0.15005992 1.001 1.7329903e-38
0.021766536 0.15413465 1.00325 2.2768743e-38
0.026326301 0.15444763 1.001 2.2863443e-38
0.029836472 0.15444762 1.001 2.009648e-38
0.03422419 0.15444764 1.001 1.8344416e-38
0.038611908 0.15444763 1.001 1.7239141e-38
0.035101734 0.15708025 1.001 1.8713552e-38
0.020304475 0.13506891 1.007 1.0885917e-38
0.020304475 0.1368345 1.007 1.2179216e-38
0.018538868 0.14301413 1.007 3.5938906e-39
0.018538868 0.14654535 1.007 1.8493693e-39
0.018538868 0.15007655 1.007 3.777584e-39
0.01864933 0.13587368 1.013 3.6946579e-39
0.01864933 0.1376498 1.013 3.2362399e-39
0.016873203 0.14209013 1.013 5.0696876e-39
