# .PCD v0.7 - Point Cloud Data file format
VERSION 0.7
FIELDS x y z rgb
SIZE 4 4 4 4
TYPE F F F F
COUNT 1 1 1 1
WIDTH 618
HEIGHT 1
VIEWPOINT 0 0 0 1 0 0 0
POINTS 618
DATA ascii
0.018550266 0.15485439 0.92000002 4.9191055e-39
0.021776401 0.15485439 0.92000002 4.8272812e-39
0.015374102 0.14645857 0.92299998 7.1300196e-39
0.017801594 0.1456494 0.92299998 7.6824647e-39
0.021038245 0.14645857 0.92299998 7.9590418e-39
0.0072824704 0.1496952 0.92300004 5.010239e-39
0.0093053784 0.15009978 0.92299998 5.1949862e-39
0.014218155 0.14992639 0.92299998 5.6559657e-39
0.017801594 0.14969522 0.92299998 6.6683044e-39
0.021847408 0.14969522 0.92299992 7.0363722e-39
0.025893226 0.14969522 0.92299998 7.0367295e-39
0.029534459 0.15090895 0.92299998 5.1942687e-39
0.00242749 0.15455019 0.92299998 4.1793881e-39
0.0062035858 0.15401076 0.92300004 4.1797538e-39
0.0097099598 0.15374103 0.92299998 4.6410879e-39
0.013755776 0.15374103 0.92299998 5.010941e-39
0.017531872 0.15347131 0.92300004 5.4715618e-39
0.021847408 0.15293185 0.92300004 6.2998918e-39
0.025893226 0.15374103 0.92299998 5.3790173e-39
0.029939041 0.15374103 0.92299998 4.3655814e-39
0.00242749 0.15778685 0.92300004 3.5350949e-39
0.0052017639 0.15801804 0.92299998 3.6269304e-39
0.0097099598 0.15778685 0.92299998 3.9035159e-39
0.013755776 0.15778683 0.92299992 4.0879057e-39
0.017639762 0.15811051 0.92299998 4.1808286e-39
0.021847408 0.15859601 0.92299998 3.997515e-39
0.025893226 0.15778685 0.92299998 3.8131335e-39
0.02973675 0.15758453 0.92299992 3.1673998e-39
0.00242749 0.16183266 0.92299998 2.7971697e-39
0.0056641432 0.16183266 0.92299998 2.7053356e-39
0.0097099598 0.16183266 0.92299998 3.1663138e-39
0.013755776 0.16183266 0.92299998 3.4421762e-39
0.017801592 0.16183266 0.92299998 3.4414643e-39
0.021847408 0.16183266 0.92299998 3.5354564e-39
0.025893226 0.16183266 0.92299998 3.0744741e-39
0.028860157 0.16156295 0.92300004 2.7978858e-39
0.00242749 0.16426013 0.92299998 2.150364e-39
0.0053404779 0.16490749 0.92299998 1.8759365e-39
0.0097099598 0.16587847 0.92299998 1.8762924e-39
0.013755775 0.16587849 0.92299992 2.0606907e-39
0.017801592 0.16587847 0.92299998 2.6131372e-39
0.02184741 0.16587849 0.92299992 2.6134973e-39
0.025893226 0.16506931 0.92299998 2.153601e-39
0.028320715 0.16506931 0.92299998 1.3245592e-39
0.0097099598 0.16992429 0.92299998 8.6322227e-40
0.013755776 0.1699243 0.92299998 1.1390945e-39
0.017801594 0.16992429 0.92299998 1.5064435e-39
0.021847408 0.1699243 0.92299998 1.5057204e-39
0.013755776 0.17397012 0.92299992 6.7595975e-40
0.017801594 0.1739701 0.92299998 9.5182918e-40
0.021616219 0.17350774 0.92299998 1.2262539e-39
0.015374102 0.17720675 0.92299998 1.2237357e-39
0.016992429 0.17720675 0.92299998 1.0397032e-39
0.018711573 0.13586229 0.92799997 8.8835512e-39
0.021762373 0.13443859 0.92799997 8.1474127e-39
0.026033491 0.13504875 0.92799997 8.0555814e-39
0.030101225 0.13586229 0.92799997 6.7651831e-39
0.0056948266 0.13911647 0.92799997 7.1318104e-39
0.010576106 0.13911647 0.92799997 7.8708118e-39
0.013830292 0.13911647 0.92799997 1.0172108e-38
0.018149046 0.1384242 0.92699999 1.0171403e-38
0.021894749 0.13785583 0.92500007 9.5274661e-39
0.025949333 0.13785583 0.92500001 8.9761e-39
0.030101223 0.13830292 0.92799997 6.7644755e-39
0.033355411 0.13911647 0.92799997 5.4747932e-39
-0.00081354659 0.14399774 0.92799997 5.1971484e-39
0.0017882244 0.14260297 0.92740005 5.8425122e-39
0.0056799226 0.14201152 0.92566669 6.7626622e-39
0.0097310003 0.14191042 0.92500007 8.3278313e-39
0.013785584 0.14191042 0.92500007 1.0169589e-38
0.017840166 0.14191042 0.92500007 1.0813164e-38
0.021894749 0.14191042 0.92500007 1.0629849e-38
0.025949335 0.14191042 0.92500007 9.8940892e-39
0.030003915 0.14191042 0.92500007 6.8555907e-39
0.034150988 0.14229307 0.92750001 5.2875139e-39
-0.0016270932 0.14643839 0.92799997 4.3659514e-39
0.0016218333 0.145965 0.92500001 5.1035122e-39
0.0056764162 0.145965 0.92500007 6.0240224e-39
0.0097310003 0.145965 0.92500001 6.3002561e-39
0.013461217 0.14580281 0.92500001 7.4058848e-39
0.022300206 0.14555953 0.92500001 8.4196598e-39
0.025949333 0.145965 0.92500001 8.4196724e-39
0.030003916 0.145965 0.92500007 6.5775661e-39
0.0340585 0.145965 0.92500001 4.6432137e-39
0.036609598 0.14643839 0.92799997 3.6298142e-39
-0.004067733 0.15050612 0.92799997 3.9035229e-39
-0.0016231483 0.1500998 0.92550004 4.8233198e-39
0.0016218333 0.15001959 0.92500007 4.7322073e-39
0.0048655001 0.15001959 0.92500007 4.8258421e-39
0.010541917 0.14920866 0.92500001 6.2073346e-39
0.01216375 0.14920866 0.92500001 6.1151376e-39
0.030328283 0.14904648 0.92500001 5.6548965e-39
0.034058504 0.15001959 0.92500007 4.2729878e-39
0.036609598 0.14969257 0.92799997 3.2588709e-39
-0.004067733 0.15376031 0.92799997 3.2574332e-39
-0.0016218333 0.15407416 0.92500001 3.5343788e-39
0.0013515278 0.15380386 0.92500007 4.3630605e-39
0.0051358053 0.15380386 0.92500007 4.1804727e-39
0.0340585 0.15407416 0.92500001 3.07373e-39
0.037383694 0.15359375 0.92699999 1.8752162e-39
-0.0046100975 0.15809923 0.92799997 3.1655907e-39
-0.0016218333 0.15812874 0.92500007 3.1655907e-39
0.00081091671 0.15812874 0.92500007 3.3507022e-39
0.0072982493 0.15731782 0.92500001 3.9949926e-39
0.031625748 0.15975058 0.92500001 1.9659699e-39
0.0340585 0.15812874 0.92500007 1.599351e-39
0.037151963 0.15755686 0.92799997 1.875212e-39
-0.0048812795 0.16189578 0.92799997 2.4265921e-39
-0.0016218333 0.16218333 0.92500001 1.9677762e-39
0.00081091665 0.16218333 0.92500001 2.5202255e-39
0.031085139 0.16245364 0.92500007 1.9659615e-39
0.034086771 0.16231549 0.92574996 9.5434311e-40
0.036609598 0.16189578 0.92799997 1.7822947e-39
-0.0048812795 0.1659635 0.92799997 1.5968328e-39
-0.0016244634 0.16641676 0.926 1.5060707e-39
0.00145965 0.16656227 0.92500001 1.4145968e-39
0.0060818745 0.16745429 0.92500001 1.1401693e-39
0.025949333 0.16785975 0.92500001 2.1507143e-39
0.030467298 0.1664696 0.92500007 9.5218231e-40
0.034115046 0.16569525 0.92649996 8.6070975e-40
-0.0048812795 0.16921771 0.92799997 8.5926221e-40
-0.0016244632 0.17056996 0.92649996 8.6070274e-40
0.0016218333 0.1702925 0.92500001 6.7775622e-40
0.0056764162 0.1702925 0.92500007 6.7847228e-40
0.025949333 0.1702925 0.92500001 1.136219e-39
0.03002101 0.17038499 0.92550009 7.6563865e-40
0.033355411 0.17003125 0.92799997 1.0411437e-39
-0.001355911 0.1738278 0.92799997 6.7379475e-40
0.0016244632 0.17381887 0.92649996 3.9901273e-40
0.0059081069 0.17388371 0.92500007 4.9156429e-40
0.0097310003 0.17434707 0.92500007 3.0825343e-40
0.022705667 0.17596892 0.92500001 4.8832028e-40
0.025949333 0.17353615 0.92500001 9.4823205e-40
0.029738983 0.17371114 0.92679995 1.038627e-39
0.0060202442 0.17784129 0.92799997 8.5530494e-40
0.0097382329 0.17854697 0.92574996 6.7127521e-40
0.013461216 0.17856385 0.92500001 7.6311491e-40
0.018110473 0.17867199 0.92500007 1.0382585e-39
0.021920174 0.17859453 0.92600006 9.4534257e-40
0.025219945 0.17653961 0.92799997 5.7871665e-40
0.010576106 0.18142089 0.92799997 4.8544762e-40
0.013814515 0.18203895 0.92700005 8.5243508e-40
0.017869096 0.1819412 0.92649996 8.5063021e-40
0.020859113 0.18176776 0.92699999 8.5098614e-40
0.01464384 0.18630219 0.92799997 2.8918877e-40
0.017898027 0.18630219 0.92799997 4.7213949e-40
0.020338666 0.18467508 0.92799997 1.3998481e-39
0.022013098 0.13126329 0.93000001 7.6885912e-39
0.014267749 0.13411684 0.93000001 7.5016846e-39
0.017936599 0.13370919 0.93000001 7.5949592e-39
0.023643699 0.13289389 0.93000001 7.7804309e-39
0.026089599 0.13289389 0.93000001 7.7800693e-39
0.029758448 0.13411684 0.93000001 7.1332552e-39
0.0019023668 0.13887277 0.93000001 6.4893095e-39
0.0048917998 0.13778569 0.93000001 6.7651873e-39
0.009511834 0.13832924 0.93000001 7.3183737e-39
0.013860099 0.1369704 0.93000001 8.3307208e-39
0.0171213 0.1369704 0.93000001 7.9619523e-39
0.0342426 0.13778569 0.93000001 4.5539257e-39
-0.0016306 0.1426775 0.93000001 5.3822529e-39
0.00081529998 0.1410469 0.93000001 6.8573802e-39
0.036688495 0.1426775 0.93000001 3.9064123e-39
-0.0040765 0.146754 0.93000001 3.9975248e-39
-0.0024458999 0.14430809 0.93000001 4.9209216e-39
0.037775561 0.14593869 0.93000001 3.3532288e-39
-0.0048917998 0.15001521 0.93000001 3.995357e-39
0.038319096 0.15001521 0.93000001 1.9681335e-39
-0.0061147502 0.15449935 0.93000001 3.1652348e-39
0.039949697 0.1540917 0.93000001 5.8916053e-40
-0.0067941668 0.15789643 0.93000001 2.7053356e-39
0.039134398 0.1581682 0.93000001 1.8755735e-39
-0.0073376996 0.16224471 0.93000001 2.3329574e-39
0.038971338 0.16191857 0.93000001 1.5982636e-39
-0.0073376996 0.16632119 0.93000001 8.5856296e-40
0.03723203 0.16604942 0.93000001 1.3198816e-39
-0.0073376996 0.1695824 0.93000001 1.3159328e-39
0.035057899 0.1695824 0.93000001 1.0422227e-39
0.036688495 0.16876709 0.93000001 1.4099249e-39
-0.0044841496 0.17325124 0.93000001 1.3151999e-39
-0.0024458999 0.1752895 0.93000001 8.5602521e-40
0.031796698 0.1752895 0.93000001 9.4498804e-40
0.0342426 0.17284359 0.93000001 9.4679011e-40
-0.0016306 0.17692009 0.93000001 4.8832169e-40
0.0016306 0.17773539 0.93000001 5.7943972e-40
0.0040765 0.17855069 0.93000001 9.467789e-40
0.026361367 0.17800717 0.93000001 1.1286562e-39
0.028535498 0.17773539 0.93000001 1.1283003e-39
0.0061147502 0.18140423 0.93000001 8.5241966e-40
0.009511834 0.18289897 0.93000001 8.5098614e-40
0.023100168 0.18289897 0.93000001 1.0339341e-39
0.025274299 0.1818119 0.93000001 1.1264856e-39
0.0105989 0.18507309 0.93000001 6.6697463e-40
0.012229499 0.18588839 0.93000001 6.6517116e-40
0.022339221 0.18605146 0.93000001 1.0281789e-39
0.025817832 0.18616018 0.93000001 5.6287917e-40
0.014267749 0.18996489 0.93000001 2.8025969e-45
0.017664833 0.19050843 0.93000001 0
0.022013098 0.18833429 0.93000001 0
0.025274299 0.18833429 0.93000001 0
0.0154907 0.1932261 0.93000001 3.6734899e-40
0.0171213 0.1932261 0.93000001 6.4284847e-40
0.015573982 0.12377217 0.935 1.2751079e-38
0.018033031 0.12377217 0.935 1.1831274e-38
0.020492082 0.12377217 0.935 1.0267539e-38
0.0073771495 0.12705091 0.935 8.7920394e-39
0.0098361988 0.12623122 0.935 9.1601087e-39
0.013934616 0.12623124 0.93500006 1.0356862e-38
0.018033033 0.12623122 0.935 1.0265016e-38
0.021803578 0.12639517 0.93500006 9.8051278e-39
0.025410183 0.12705091 0.935 9.7129167e-39
0.0024590499 0.13196902 0.935 6.858099e-39
0.0059427032 0.13053456 0.935 7.778612e-39
0.0098291859 0.13023554 0.93433332 7.6864262e-39
0.013920978 0.13020456 0.93411118 7.6867877e-39
0.018007319 0.13014263 0.93366671 7.6882268e-39
0.02210778 0.12937057 0.93400002 8.1488448e-39
0.026211163 0.13023554 0.93433332 8.4250688e-39
0.030099034 0.13042869 0.93425 6.4893123e-39
0.034153473 0.13142256 0.93500006 4.8312357e-39
0.03688575 0.13196902 0.935 4.1862236e-39
-0.0040984168 0.13524774 0.935 6.119448e-39
-0.0013661388 0.13470128 0.93500006 6.3956761e-39
0.0016380516 0.13435572 0.93449998 6.6726274e-39
0.0057269717 0.13418816 0.93333334 6.9485024e-39
0.0098151602 0.13414052 0.93300003 7.0414253e-39
0.01308688 0.1333226 0.93300003 7.1336251e-39
0.031081339 0.1333226 0.93300003 6.6719155e-39
0.034353059 0.13414052 0.93300003 4.9223481e-39
0.037685707 0.13435572 0.93449998 4.4602924e-39
-0.0052663875 0.1384408 0.93442869 5.2900544e-39
-0.0016358601 0.13823017 0.93300003 6.6718959e-39
0.0013632167 0.1371396 0.93300003 6.3971223e-39
0.0061344751 0.13700327 0.93300003 6.7651929e-39
0.0098151602 0.13659431 0.93300003 7.3183723e-39
0.035170987 0.13659431 0.93300003 4.1840754e-39
0.037638515 0.13827896 0.93333334 3.1728088e-39
0.040164482 0.13852647 0.935 2.9880476e-39
-0.0094263572 0.14221504 0.935 4.3659387e-39
-0.0059614587 0.14201212 0.93328577 5.7474271e-39
-0.00163586 0.14150189 0.93300003 6.7651817e-39
0.037897423 0.1420472 0.93300003 3.1710081e-39
0.040164482 0.14180522 0.93500006 2.8951359e-39
-0.012295249 0.14590362 0.935 3.7198505e-39
-0.0098265558 0.14574759 0.93400002 3.629094e-39
-0.0060526817 0.14542794 0.93300003 4.3670219e-39
0.038442709 0.1447736 0.93300003 3.2613961e-39
0.040653661 0.14596879 0.93366671 1.9731726e-39
-0.013114932 0.15000205 0.93500006 3.1670298e-39
-0.0098227579 0.14978758 0.93366671 3.5343788e-39
-0.0067070262 0.14935401 0.93300003 3.8113272e-39
0.040941209 0.14984164 0.93400002 1.0501485e-39
-0.013114933 0.15410046 0.935 2.796448e-39
-0.0098151602 0.15377083 0.93300003 3.1645131e-39
-0.0073613701 0.15377083 0.93300003 3.6251283e-39
0.041803848 0.15410046 0.935 1.0515778e-39
-0.013114933 0.15819889 0.93500006 2.3343937e-39
-0.0098151602 0.15786049 0.93300003 2.427311e-39
0.04137253 0.15852325 0.93449998 2.2436414e-39
-0.012841705 0.16202407 0.93500006 1.8726967e-39
-0.0098151602 0.16195014 0.93300003 2.5169843e-39
0.041803848 0.16229729 0.935 1.5064295e-39
-0.012295249 0.16557604 0.935 8.5926781e-40
-0.0096561331 0.16578381 0.93340009 1.2276972e-39
0.038442709 0.16767564 0.93300003 1.1358533e-39
0.040768679 0.16585429 0.93380004 1.2276874e-39
-0.012295249 0.16803508 0.935 3.0609824e-40
-0.0099924225 0.16985646 0.93419999 1.0397046e-39
0.037897423 0.17040209 0.93300003 1.4999611e-39
0.040653661 0.16943133 0.93366671 1.5921525e-39
-0.0090165157 0.17377286 0.935 9.467789e-40
-0.0067070262 0.17454624 0.93300003 9.4641877e-40
0.034625702 0.17530966 0.93300003 7.6167578e-40
0.037665106 0.17358789 0.93400002 1.2215749e-39
0.040164482 0.17377286 0.935 1.9540967e-39
-0.0090165157 0.17623191 0.935 5.7763344e-40
-0.0057281405 0.17837273 0.93333334 5.7727331e-40
-0.00163586 0.17912666 0.93300003 5.7764325e-40
0.031081341 0.17830873 0.93300003 1.0357403e-39
0.034389876 0.17850071 0.93400002 1.2168778e-39
0.037705436 0.17787127 0.93500006 1.2140177e-39
0.040164482 0.17623191 0.935 1.4873746e-39
-0.0054099103 0.18180577 0.93500006 8.4988892e-40
-0.0016376133 0.18177596 0.93400002 3.9251351e-40
0.0016358598 0.18158045 0.93300003 4.8471895e-40
0.0049075801 0.18239839 0.93300003 8.5206233e-40
0.02699169 0.18158045 0.93300003 1.2186812e-39
0.030285617 0.18171081 0.93366671 1.1250437e-39
0.034153473 0.18169647 0.93500006 1.1207305e-39
0.037705433 0.18115 0.935 2.2152189e-39
-0.0049180998 0.18442874 0.935 4.8148195e-40
-0.00147543 0.18574025 0.93500006 9.3847761e-40
0.001637321 0.18587027 0.93400002 6.6442286e-40
0.0055210278 0.18587458 0.93300003 1.0332068e-39
0.0095425174 0.18676069 0.93300003 7.577087e-40
0.02699169 0.18485218 0.93300003 7.5160465e-40
0.030307826 0.18511635 0.93433332 5.6397078e-40
0.033607014 0.18524842 0.935 1.2042675e-39
0.0019125945 0.18989329 0.93500006 2.5209359e-42
0.0057351533 0.19009903 0.93466663 3.2327956e-42
0.0098151602 0.18975976 0.93300003 1.7950633e-42
0.01226895 0.19057769 0.93300003 0
0.021266181 0.19057769 0.93300003 0
0.01308688 0.19303147 0.93300003 9.1841101e-41
0.015657267 0.11948966 0.94 6.4071976e-39
0.018129466 0.11948966 0.94 7.4148699e-39
0.020601666 0.11948966 0.94 9.2540938e-39
0.0098887999 0.12278593 0.94 7.1379229e-39
0.013988677 0.12178829 0.9386667 7.3237631e-39
0.018090893 0.12170237 0.93800002 7.2322934e-39
0.02223519 0.12187537 0.93933338 8.2439047e-39
0.025546065 0.12278593 0.94 1.0451931e-38
-0.00082406664 0.12773032 0.94 7.1343356e-39
0.001922822 0.12718095 0.94 7.5949522e-39
0.0055543408 0.12570807 0.93875009 8.148119e-39
0.0098677594 0.1241693 0.93800002 9.2530204e-39
0.013157013 0.1241693 0.93800002 1.1646517e-38
0.023298878 0.12471752 0.93800008 9.7132853e-39
0.026490061 0.12553796 0.93839997 9.8051166e-39
0.029635131 0.12594691 0.93900007 6.0294103e-39
0.032687977 0.12718093 0.94 5.1096134e-39
-0.0041203331 0.1310266 0.94 7.412349e-39
-0.00137286 0.1303843 0.93933338 7.5942361e-39
0.0016446267 0.1299255 0.93800002 7.5949452e-39
0.0041115666 0.1291032 0.93800002 8.1481162e-39
0.034144849 0.12958317 0.93849999 5.198935e-39
0.037004102 0.13074781 0.93800002 4.4617315e-39
-0.0090647331 0.13597099 0.94 4.8290735e-39
-0.0059687844 0.13397351 0.93900007 5.8443044e-39
-0.0019187311 0.13294065 0.93800008 7.2265242e-39
0.0008223133 0.13239245 0.93800002 6.7659034e-39
0.038648728 0.13239245 0.93800002 3.6330512e-39
0.040321991 0.13413116 0.9386667 2.9887734e-39
-0.012360999 0.13926727 0.94 3.8134824e-39
-0.0098839784 0.13836911 0.93950003 4.4588518e-39
-0.00740082 0.13732633 0.93800002 5.1953337e-39
0.041160375 0.1382968 0.93900001 2.9884063e-39
-0.013171332 0.1424107 0.93900007 3.2613862e-39
-0.010690073 0.14143789 0.93800002 4.0904337e-39
0.042633001 0.14205191 0.93879998 2.710739e-39
-0.014818296 0.14652781 0.93900001 3.0766293e-39
0.043217912 0.14570375 0.93900001 2.340516e-39
0.045323666 0.14668386 0.94 1.6940675e-39
-0.015623953 0.14966103 0.93800002 2.8907989e-39
0.043582607 0.14966103 0.93800002 1.0501415e-39
0.046147734 0.14998013 0.94 1.8773798e-39
-0.0173054 0.15410046 0.94 2.3369174e-39
-0.015623953 0.15377259 0.93800008 2.5209373e-39
0.043582611 0.15377259 0.93800008 1.3267256e-39
0.046099514 0.15393654 0.93900007 1.8780931e-39
0.04861993 0.15574859 0.94 7.706539e-40
-0.017842505 0.1583827 0.93933338 1.0454681e-39
-0.015623953 0.15788415 0.93800002 2.0585215e-39
0.043582607 0.15788415 0.93800002 2.8882961e-39
0.046099514 0.15805247 0.93900001 1.9666916e-39
0.04861993 0.15739672 0.94 9.5289136e-40
-0.018117193 0.16222657 0.93933338 1.6843551e-39
-0.015212797 0.16240688 0.93800002 1.5035582e-39
0.043582611 0.16199574 0.93800008 1.5982706e-39
0.046099514 0.16216841 0.93900007 1.411364e-39
-0.017854778 0.16618678 0.94 1.4063179e-39
-0.014809968 0.16619627 0.93849999 1.3162873e-39
0.043582607 0.1661073 0.93800002 1.3177292e-39
0.046123624 0.16637334 0.93950003 1.3130517e-39
-0.017305398 0.16893366 0.94 1.4066682e-39
-0.013990431 0.17006515 0.9386667 1.1311716e-39
0.042783525 0.17030957 0.93849999 1.5892756e-39
0.045873046 0.16948304 0.94 1.6775126e-39
-0.013349879 0.17420769 0.94 1.036455e-39
-0.010690073 0.17433041 0.93800002 1.0375382e-39
0.042806756 0.17410424 0.93900001 1.6753504e-39
-0.012360999 0.17799839 0.94 1.0353662e-39
-0.010149463 0.1780206 0.9386667 9.4353349e-40
0.042321961 0.17801172 0.93920004 2.125547e-39
-0.0094719455 0.1816107 0.93949997 5.7329783e-40
-0.00740082 0.18337588 0.93800002 1.3083335e-39
0.035359472 0.18337588 0.93800002 1.3315138e-41
0.037004102 0.18337588 0.93800002 1.5702124e-39
0.041160375 0.1802786 0.93900001 2.6729698e-39
-0.0090647331 0.18623906 0.94 1.8977505e-40
-0.0061712945 0.18635346 0.93849999 4.6925562e-40
0.035359472 0.18502049 0.93800002 7.4581168e-40
-0.0054304241 0.18904792 0.93839997 9.2558566e-41
-0.0016446267 0.18995439 0.93800002 2.8712606e-42
0.0008223133 0.191599 0.93800002 0
-0.0024721997 0.19200753 0.94 0
0.010747056 0.11987101 0.94300002 8.8885679e-39
0.014053843 0.11931988 0.94300002 7.3237561e-39
0.01736063 0.11821762 0.94300002 8.5208503e-39
0.022320809 0.11987101 0.94300002 1.0913615e-38
0.0024800899 0.1231778 0.94300002 8.2410335e-39
0.0062002251 0.12276445 0.94300002 6.8609829e-39
0.0099203596 0.12152441 0.94300002 7.4148713e-39
0.026729858 0.12207554 0.94300002 1.0449764e-38
0.029485514 0.12262668 0.94300002 7.3172723e-39
0.032241169 0.1231778 0.94300002 6.400711e-39
-0.0013778278 0.12593345 0.94300002 7.0421315e-39
0.0013778278 0.12538233 0.94300002 6.8588277e-39
0.033067867 0.12565789 0.94300002 5.6620712e-39
-0.0090936627 0.13144477 0.94300002 5.2900502e-39
-0.0054561985 0.13012205 0.94300002 5.8450289e-39
-0.0024800899 0.12896469 0.94300002 6.7655545e-39
0.035547953 0.12813799 0.94300002 5.0141864e-39
0.038028046 0.13061807 0.94300002 4.3691743e-39
-0.0099203596 0.13392484 0.94300002 4.921988e-39
0.042161532 0.13475154 0.94300002 2.8962275e-39
-0.013723164 0.13838902 0.94300002 3.2621079e-39
-0.010747056 0.13640495 0.94300002 4.3680981e-39
0.042712659 0.13805833 0.94300002 3.0802418e-39
0.04629501 0.13971174 0.94300002 3.5368983e-39
0.049601801 0.13971174 0.94300002 4.6324489e-39
-0.015707236 0.14219183 0.94300002 3.1695451e-39
0.04629501 0.14219183 0.94300002 2.4323529e-39
0.049601801 0.14219183 0.94300002 2.9765359e-39
0.052081887 0.14219183 0.94300002 6.9337481e-39
-0.01736063 0.14715201 0.94300002 3.074467e-39
-0.015707236 0.14467192 0.94300002 3.0780656e-39
0.046708357 0.14591196 0.94300002 2.2450777e-39
0.048775103 0.14549862 0.94300002 2.3354755e-39
-0.018187325 0.15045878 0.94300002 2.0614067e-39
0.048775103 0.15128548 0.94300002 1.9684908e-39
-0.019014023 0.15376557 0.94300002 9.5506197e-40
0.048775103 0.15293887 0.94300002 1.3231214e-39
-0.020667417 0.15955245 0.94300002 1.5914393e-39
-0.019014023 0.15707237 0.94300002 1.0440262e-39
0.048775103 0.15955245 0.94300002 6.7594995e-40
-0.020667417 0.16203254 0.94300002 1.5914435e-39
0.049326237 0.16230811 0.94300002 2.7870972e-39
0.052081887 0.16285923 0.94300002 8.9505123e-39
-0.020667417 0.16533932 0.94300002 1.5907204e-39
-0.019014023 0.16781941 0.94300002 1.4970758e-39
0.049601801 0.16616602 0.94300002 6.0042304e-39
0.052081887 0.16533932 0.94300002 9.6852033e-39
-0.018462893 0.17057507 0.94300002 1.4048648e-39
0.047121707 0.1711262 0.94300002 4.1559962e-39
0.049601801 0.1702995 0.94300002 8.3026472e-39
-0.01736063 0.17360631 0.94300002 1.3112258e-39
-0.015707236 0.17360631 0.94300002 1.0364564e-39
0.04381492 0.17443299 0.94300002 2.0430497e-39
0.04629501 0.17360631 0.94300002 3.1443512e-39
0.049326237 0.17333075 0.94300002 8.6678143e-39
-0.01736063 0.17691308 0.94300002 1.672119e-39
-0.015045878 0.17807047 0.94300002 1.4009019e-39
0.045881663 0.17732644 0.94300002 3.691065e-39
-0.012951581 0.18159769 0.94300002 4.7716315e-40
-0.010747056 0.18269995 0.94300002 1.4895102e-39
-0.013227147 0.18518004 0.94300002 2.5293437e-42
-0.010747056 0.18600675 0.94300002 3.727496e-40
-0.0099203596 0.18931353 0.94300002 9.8090893e-45
-0.0074402699 0.19096693 0.94300002 1.9618179e-44
-0.0041334834 0.19262032 0.94300002 7.0064923e-45
0.010804039 0.11468904 0.94800001 9.8983786e-39
0.01412836 0.11468904 0.94800007 9.3448461e-39
0.018006735 0.11496606 0.94800007 7.7807742e-39
0.021608081 0.11552012 0.94800001 7.5960228e-39
0.01024239 0.1182068 0.94733334 1.2567743e-38
0.013784707 0.11774685 0.9472 1.0357567e-38
0.018547345 0.11765276 0.94733334 8.0616771e-39
0.021585286 0.117888 0.94699997 9.0722291e-39
0.026179019 0.11842889 0.94800001 8.9757118e-39
0.029641852 0.11829038 0.94800007 6.304928e-39
0.032412119 0.11884443 0.94800001 5.9357966e-39
-0.0041554002 0.12383091 0.94800001 8.2406705e-39
-0.0013839644 0.12310386 0.94666666 9.1629729e-39
0.001492788 0.12157928 0.94600004 1.0632361e-38
0.0054753092 0.12096667 0.94639999 9.9884372e-39
0.0091225933 0.12025236 0.94599998 1.1002221e-38
0.025709126 0.12025236 0.94599998 9.0715228e-39
0.030132201 0.12080525 0.94599998 6.123771e-39
0.034246542 0.12183169 0.94700003 6.4871571e-39
0.03781414 0.12258429 0.94800001 6.0215042e-39
-0.0054791667 0.12633012 0.94680005 6.3978341e-39
-0.0024879798 0.12522832 0.94599998 6.859178e-39
0.03510816 0.12578121 0.94599998 6.2109205e-39
0.038229678 0.12632415 0.94800001 5.3797375e-39
-0.012453049 0.13117126 0.94700003 5.105652e-39
-0.010126201 0.12998126 0.94680005 5.2900488e-39
-0.0069110552 0.1290985 0.94599998 5.5680819e-39
0.038452934 0.1291891 0.94666666 5.0123801e-39
0.040679961 0.13117126 0.94700003 3.9085605e-39
-0.013441053 0.13390908 0.94639999 4.3677296e-39
0.042878352 0.13361451 0.94666672 3.4483069e-39
0.045709398 0.13380389 0.94800007 4.9176734e-39
0.049033716 0.13463496 0.94800001 5.648763e-39
-0.01828376 0.13879037 0.94800001 3.7194819e-39
-0.015215427 0.13748822 0.94666672 3.3546567e-39
0.043954313 0.13766822 0.94599998 3.8142013e-39
0.046442293 0.13766822 0.94599998 3.9964374e-39
0.049759597 0.13766822 0.94599998 5.4614907e-39
-0.020777 0.14294575 0.94800001 2.7975452e-39
-0.018245187 0.14181484 0.94600004 3.8109489e-39
-0.020777 0.14710116 0.94800001 2.887929e-39
-0.018521629 0.14568506 0.94599998 3.3510413e-39
0.050588921 0.14596149 0.94599998 3.250571e-39
0.053076901 0.14596149 0.94599998 6.8361253e-39
-0.02076239 0.15031852 0.94733334 2.4265879e-39
-0.019074513 0.14844947 0.94599998 2.7060419e-39
0.049786337 0.14935812 0.94650006 2.7021e-39
0.053161502 0.14951593 0.94749999 5.0876677e-39
-0.021586161 0.15441781 0.94700003 1.6886627e-39
0.050254475 0.15408337 0.94749999 3.8945237e-39
0.052358039 0.15208764 0.94800001 6.6589619e-39
-0.024101319 0.15790519 0.94800001 1.6839908e-39
-0.021586161 0.15773863 0.94700003 1.1347715e-39
0.050588921 0.15757205 0.94599998 7.2024205e-39
0.053604662 0.15832074 0.94800001 1.1344705e-38
-0.024101321 0.1620606 0.94800007 1.3098217e-39
-0.022391818 0.1617187 0.94599998 1.3148552e-39
0.050588921 0.16088937 0.94599998 8.0260589e-39
0.053649373 0.16122222 0.94633341 1.096982e-38
-0.024101319 0.166216 0.94800001 3.1425617e-39
-0.022391818 0.16586533 0.94599998 8.5279521e-40
-0.024932399 0.1695403 0.94800001 5.5346034e-39
-0.021562492 0.17001197 0.94600004 1.4942074e-39
-0.024516858 0.17328018 0.94800001 4.1509361e-39
-0.021574326 0.17425106 0.94650006 1.1214508e-39
-0.019074513 0.17415859 0.94599998 1.0346375e-39
-0.021415561 0.17812358 0.94680005 1.8467979e-39
-0.018659851 0.17871989 0.94599998 1.2064647e-39
-0.017968744 0.18217543 0.94599998 1.1081622e-39
-0.015204321 0.18272829 0.94599998 1.9159534e-40
-0.015757205 0.18493983 0.94599998 4.635187e-40
-0.012439899 0.18825714 0.94599998 3.7835059e-43
-0.0091225933 0.19157445 0.94599998 2.7589044e-40
0.0091708088 0.11505197 0.95099998 1.0083095e-38
0.019175328 0.11421826 0.95099998 7.5027496e-39
0.021676458 0.11421826 0.95099998 7.6846185e-39
0.0016674199 0.11922053 0.95099998 1.1184457e-38
0.0058359699 0.11922053 0.95099998 1.2106768e-38
0.0091708088 0.11755311 0.95099998 1.220182e-38
0.025011297 0.11755311 0.95099998 6.8609983e-39
0.030847268 0.11755311 0.95099998 7.4991524e-39
0.034182109 0.11866473 0.95099998 7.313322e-39
0.037516948 0.11922053 0.95099998 8.502136e-39
-0.00416855 0.12255536 0.95099998 8.2413838e-39
-0.0019453233 0.12144375 0.95099998 8.5175923e-39
0.039184365 0.12172165 0.95099998 6.3888448e-39
0.040851787 0.12255536 0.95099998 8.0382838e-39
-0.010004519 0.12755762 0.95099998 6.0276097e-39
-0.0069475835 0.12477859 0.95099998 6.9484898e-39
0.041685499 0.12422278 0.95099998 7.0291709e-39
-0.013339359 0.13005875 0.95099998 5.1060191e-39
0.040851787 0.12922505 0.95099998 5.4701255e-39
-0.015840489 0.13589473 0.95099998 4.3670023e-39
0.047521465 0.13255988 0.95099998 7.9464413e-39
0.049188886 0.13255988 0.95099998 7.76205e-39
-0.02084275 0.13922957 0.95099998 4.0864694e-39
-0.017507909 0.13756214 0.95099998 4.0875442e-39
-0.02084275 0.14089698 0.95099998 3.3507036e-39
-0.02084275 0.14589925 0.95099998 2.7049839e-39
-0.022510169 0.15006778 0.95099998 2.0585243e-39
-0.025011297 0.15507005 0.95099998 1.4102766e-39
-0.022510169 0.15256892 0.95099998 1.965251e-39
0.053857662 0.15490332 0.95100003 1.0150157e-38
-0.025845008 0.15840489 0.95099998 1.3152083e-39
0.055024855 0.15757118 0.95099998 1.0879087e-38
-0.025845008 0.16173974 0.95099998 1.5885708e-39
-0.02584501 0.16590828 0.95099998 5.9105914e-39
0.0025090198 0.11457857 0.954 8.145954e-39
0.0058605163 0.11386059 0.95500004 8.6983991e-39
0.0092190262 0.11314259 0.95599997 9.5252885e-39
0.015890459 0.11290589 0.954 8.1445022e-39
0.018399481 0.11290589 0.954 8.5107876e-39
0.02174484 0.11290589 0.954 8.878124e-39
0.024811421 0.11402102 0.954 8.601893e-39
-0.0054454147 0.1193656 0.95550001 7.3161877e-39
-0.001506464 0.11830791 0.9544 7.5027285e-39
0.0016726798 0.11708759 0.954 7.4112784e-39
0.0058543803 0.1170876 0.954 1.0083479e-38
0.025926542 0.11625126 0.954 7.2254424e-39
0.035126276 0.11792393 0.954 7.8625498e-39
-0.01005712 0.12236162 0.95599997 6.4849935e-39
-0.0061920718 0.12198921 0.9544 6.582224e-39
0.040980656 0.12126929 0.954 9.6902479e-39
-0.012983871 0.12648503 0.95550001 7.129637e-39
-0.010036079 0.125451 0.954 6.9466835e-39
0.041568022 0.12693316 0.95466661 6.4796027e-39
0.045162357 0.12796003 0.954 8.0397285e-39
-0.017599959 0.13158065 0.95599997 6.479237e-39
-0.015247337 0.12951486 0.95559996 6.0236538e-39
0.042712953 0.1298127 0.95533335 5.3790103e-39
0.045684155 0.13069138 0.9544 6.8465733e-39
-0.020952333 0.13493302 0.95599997 6.0157463e-39
-0.018146414 0.1342802 0.95533335 5.8349423e-39
-0.015890459 0.13381439 0.954 4.7354317e-39
-0.021779466 0.13821305 0.95550001 4.2690628e-39
-0.018678261 0.13688098 0.954 4.7311157e-39
-0.025645653 0.14264348 0.95599997 6.0074618e-39
-0.022581179 0.14217779 0.954 2.244726e-39
-0.02598089 0.14582823 0.95599997 4.5348499e-39
-0.022581179 0.14552315 0.954 1.9674188e-39
-0.025963554 0.14991331 0.95533329 3.4310246e-39
-0.022581179 0.14803217 0.954 2.150364e-39
-0.029333265 0.15504727 0.95599997 8.398084e-39
-0.026359174 0.1535486 0.95449996 3.2448369e-39
0.054362096 0.1547229 0.954 1.0516082e-38
0.056034777 0.15388656 0.954 9.3175081e-39
-0.029333265 0.15756154 0.95599997 9.2263999e-39
-0.027599219 0.15723191 0.954 4.8932053e-39
-0.029333265 0.16007581 0.95599997 9.5926587e-39
-0.027637791 0.16163805 0.95533335 6.919354e-39
-0.027599219 0.16559532 0.954 8.944774e-39
-0.027599221 0.16977702 0.954 8.6645871e-39
-0.013171333 0.12302583 0.95899999 7.5855873e-39
-0.01513302 0.1261085 0.95899999 7.5855831e-39
-0.018215673 0.13031211 0.95899999 7.1228071e-39
-0.021858806 0.13451573 0.95899999 6.3820079e-39
-0.019336635 0.13367501 0.95899999 6.478867e-39
-0.025221698 0.13787863 0.95899999 7.2960426e-39
-0.022699529 0.1370379 0.95899999 5.0959494e-39
-0.024380974 0.1404008 0.95899999 5.6394024e-39
-0.030266037 0.15385236 0.95899999 9.5001071e-39
-0.031106761 0.15805598 0.95899999 1.1337907e-38
-0.021691069 0.1270477 0.96399999 1.0421335e-38
-0.018071255 0.12649177 0.96320003 8.5900268e-39
-0.021949979 0.13001055 0.96299994 9.2285509e-39
-0.019417288 0.13001055 0.963 7.1217267e-39
-0.024457246 0.13409318 0.96200007 9.1320379e-39
-0.022208303 0.13296871 0.96200007 7.9428512e-39
