# .PCD v0.7 - Point Cloud Data file format
VERSION 0.7
FIELDS x y z rgb
SIZE 4 4 4 4
TYPE F F F F
COUNT 1 1 1 1
WIDTH 601
HEIGHT 1
VIEWPOINT 0 0 0 1 0 0 0
POINTS 601
DATA ascii
0.16372627 0.15082173 0.92000002 6.8534173e-39
0.16533934 0.15082173 0.92000002 5.6573936e-39
0.15485439 0.15566093 0.92000002 6.2999072e-39
0.15834938 0.15512323 0.92000002 5.5634169e-39
0.16211319 0.15404786 0.91999996 4.7347311e-39
0.16533934 0.15404786 0.92000002 3.8142265e-39
0.15082173 0.15888706 0.92000002 6.2076947e-39
0.15404788 0.15808055 0.92000002 5.5637813e-39
0.15808053 0.15808053 0.92000002 4.9191237e-39
0.16211319 0.15808055 0.92000002 4.2737501e-39
0.16614586 0.15808053 0.92000002 3.4457985e-39
0.16856545 0.15808053 0.92000002 2.8015151e-39
0.15082173 0.16211319 0.92000002 5.7470655e-39
0.15404786 0.16211319 0.91999996 5.2861014e-39
0.15808053 0.16211319 0.92000002 4.5499755e-39
0.16211319 0.16050014 0.92000002 3.7220197e-39
0.16614586 0.16050012 0.92000002 3.7205763e-39
0.15437047 0.16598456 0.92000002 4.0893617e-39
0.15808053 0.16533934 0.92000002 3.8131419e-39
0.1669524 0.1669524 0.92000002 3.3503561e-39
0.17017853 0.16695242 0.92000002 3.1666767e-39
0.1669524 0.16856545 0.92000002 2.7982697e-39
0.17017853 0.16856545 0.92000002 2.8904541e-39
0.15455019 0.15050437 0.92299998 7.037824e-39
0.15778685 0.15050438 0.92299998 6.5761255e-39
0.16183266 0.14969522 0.92299998 6.760514e-39
0.16610967 0.14923283 0.92299998 6.1169425e-39
0.1699243 0.14969522 0.92299998 5.1049527e-39
0.15050437 0.15374103 0.92299998 6.9456227e-39
0.15374103 0.15374103 0.92299998 6.8530712e-39
0.15746318 0.15357921 0.92299998 6.2084248e-39
0.1674968 0.15374103 0.92299998 3.8142265e-39
0.16992429 0.15374103 0.92299998 3.262852e-39
0.14969522 0.15778685 0.92299998 6.0236678e-39
0.15293185 0.15616851 0.92299998 6.8520048e-39
0.1674968 0.15616851 0.92299998 3.4458013e-39
0.16911513 0.15616851 0.92299998 3.5376368e-39
0.14645857 0.16264182 0.92299998 4.181186e-39
0.14888604 0.16183266 0.92299998 5.103138e-39
0.15859601 0.16264182 0.92299998 4.2744732e-39
0.16183266 0.16264182 0.92299998 3.7227329e-39
0.16506931 0.16264182 0.92299998 3.5376228e-39
0.16911513 0.1610235 0.92299998 2.8015137e-39
0.14645857 0.16587847 0.92300004 3.1674054e-39
0.1494929 0.16608077 0.92299992 3.8120517e-39
0.15293185 0.1674968 0.92299998 3.4450685e-39
0.15859601 0.1674968 0.92299998 3.0770174e-39
0.16183266 0.16587847 0.92299998 3.4450713e-39
0.16541609 0.16587847 0.92299998 3.1684858e-39
0.15050437 0.16911513 0.92299998 2.5231037e-39
0.15374103 0.16992429 0.92299998 3.1684746e-39
0.15778685 0.1699243 0.92299998 3.0752139e-39
0.16183266 0.16911513 0.92299998 2.7997075e-39
0.16555481 0.17008613 0.92299998 2.7982627e-39
0.16911513 0.17073345 0.92299998 2.7053398e-39
0.16555481 0.17299911 0.92299998 2.0603389e-39
0.1553874 0.13586229 0.92799997 8.5158281e-39
0.15782803 0.13586229 0.92799997 8.5161938e-39
0.16026868 0.13586229 0.92799997 8.516547e-39
0.15050612 0.13911647 0.92799997 8.3303592e-39
0.15376031 0.13830292 0.92799997 8.8831659e-39
0.15782803 0.13830292 0.92799997 8.6076608e-39
0.16189578 0.13830292 0.92799997 7.9637375e-39
0.16569233 0.13857411 0.92799997 7.8715391e-39
0.14345539 0.14345539 0.92799997 6.8566753e-39
0.1464384 0.14237064 0.92799997 7.4091288e-39
0.15011898 0.14240013 0.92687494 8.2370832e-39
0.15408318 0.14200597 0.92714292 9.4345446e-39
0.15782803 0.14237064 0.92799997 9.2512379e-39
0.16189577 0.14237066 0.92799991 9.2508792e-39
0.1659635 0.14237064 0.92799997 8.5140316e-39
0.16982785 0.14257404 0.92799997 6.2116674e-39
0.17409897 0.1431842 0.92799997 5.0134872e-39
0.17816672 0.14399776 0.92799997 3.8185355e-39
0.14237064 0.1464384 0.92799997 7.0385456e-39
0.14620039 0.1462017 0.92649996 7.0389058e-39
0.15001959 0.145965 0.92500007 7.682836e-39
0.15419975 0.1460827 0.92575002 7.314771e-39
0.15800846 0.1463155 0.92620003 6.8541544e-39
0.16201079 0.14608529 0.92679995 7.3165702e-39
0.16623792 0.145965 0.92500007 8.32856e-39
0.1702925 0.145965 0.92500001 7.4055261e-39
0.17424785 0.1463155 0.92620003 5.0131144e-39
0.17849211 0.14627568 0.92799997 4.4624658e-39
0.14237064 0.14969258 0.92799997 6.5786409e-39
0.14620039 0.14945062 0.92649996 6.9470675e-39
0.15001959 0.15001957 0.92500007 7.0378282e-39
0.1536687 0.14961413 0.92500001 7.1300196e-39
0.15812874 0.14839777 0.92500007 7.0378268e-39
0.17434707 0.15001957 0.92500007 4.0933217e-39
0.17859453 0.15018001 0.92600006 4.4606651e-39
0.18142089 0.14969257 0.92799997 3.6291066e-39
0.14257403 0.1539637 0.92799997 6.1180158e-39
0.1464384 0.15376031 0.92799997 6.6701078e-39
0.14839776 0.15407416 0.92500001 7.129644e-39
0.17434709 0.15407416 0.92500007 3.0780978e-39
0.17840166 0.15407416 0.92500001 2.893708e-39
0.18223445 0.15376031 0.92799997 3.4450699e-39
0.18467508 0.1553874 0.92799997 2.8893681e-39
0.14269607 0.15799075 0.92799997 5.1953393e-39
0.14604345 0.15821335 0.92550004 5.4715702e-39
0.14839776 0.15650691 0.92500001 6.4828397e-39
0.17110342 0.15812874 0.92500007 2.8933492e-39
0.17434706 0.15812874 0.92500007 2.8922548e-39
0.17840168 0.15812874 0.92500007 2.9830071e-39
0.18223444 0.15782803 0.92799997 3.1663166e-39
0.18467508 0.15782803 0.92799997 2.4276683e-39
0.13586229 0.16352287 0.92799997 5.9250094e-39
0.13830292 0.16189578 0.92799997 4.4567149e-39
0.14231892 0.16183704 0.92766666 4.1819216e-39
0.1456947 0.16191302 0.92500007 4.6421725e-39
0.16785975 0.16299425 0.92500001 3.3528728e-39
0.1705628 0.16245364 0.92500007 2.8007907e-39
0.17434709 0.16218334 0.92500007 2.2479714e-39
0.17898025 0.16270933 0.92799997 2.3379978e-39
0.18223445 0.16189578 0.92799997 2.981561e-39
0.18508185 0.16230255 0.92799997 1.781936e-39
0.13586229 0.1659635 0.92799997 3.6262255e-39
0.13830292 0.1659635 0.92799997 4.0850443e-39
0.14196096 0.16629724 0.92533332 5.0063041e-39
0.14515409 0.16623792 0.92500007 4.8190304e-39
0.16785975 0.16461608 0.92500001 3.0766559e-39
0.1702925 0.165427 0.92500001 3.0759272e-39
0.17381889 0.16569525 0.92649996 2.6156721e-39
0.17816672 0.1659635 0.92799997 1.7866317e-39
0.18223444 0.1659635 0.92799997 2.3372734e-39
0.18548863 0.1659635 0.92799997 1.78158e-39
0.13586229 0.17003125 0.92799997 2.4291327e-39
0.13830292 0.17003125 0.92799997 2.7954027e-39
0.14213878 0.17056909 0.92650002 5.2800099e-39
0.145965 0.1702925 0.92500001 3.254206e-39
0.14961413 0.17069796 0.92500001 2.1535996e-39
0.16218333 0.17110342 0.92500001 2.7064314e-39
0.17110342 0.17110342 0.92500001 2.5205884e-39
0.17422435 0.17016056 0.92649996 2.5209457e-39
0.17816672 0.17003123 0.92799991 1.7848212e-39
0.18223445 0.17003125 0.92799997 2.2436344e-39
0.18467508 0.16921771 0.92799997 1.7808556e-39
0.13830292 0.17409897 0.92799997 3.8048771e-39
0.14221549 0.17391138 0.92700005 4.084331e-39
0.145965 0.17434707 0.92500007 2.4258845e-39
0.15001959 0.17434707 0.92500007 1.9684936e-39
0.15407416 0.17434709 0.92500007 1.9692167e-39
0.15812874 0.17434706 0.92500007 1.9685119e-39
0.16218334 0.17434707 0.92500007 1.9685076e-39
0.16664337 0.17556345 0.92500001 1.6911921e-39
0.1702925 0.17434709 0.92500007 1.0479849e-39
0.17348707 0.1741358 0.92560005 1.8748589e-39
0.17816672 0.17409897 0.92799997 2.0574439e-39
0.18142089 0.17409897 0.92799997 1.8723295e-39
0.13857411 0.17708199 0.92799997 4.4444857e-39
0.14237066 0.17816672 0.92799991 2.9761898e-39
0.145965 0.17840166 0.92500001 1.8716303e-39
0.15001959 0.17840168 0.92500007 1.4135206e-39
0.15407416 0.17840166 0.92500001 1.2291405e-39
0.15812874 0.17840168 0.92500007 1.045108e-39
0.16231418 0.17854697 0.92574996 1.1365834e-39
0.16623791 0.17840168 0.92500007 5.8448579e-40
0.1702925 0.17840166 0.92500001 9.5110611e-40
0.17403762 0.17826068 0.92679995 1.3177278e-39
0.17816672 0.17816673 0.92799991 1.0411451e-39
0.18142089 0.17653961 0.92799997 1.5953923e-39
0.14269607 0.18207173 0.92799997 1.774034e-39
0.14643839 0.18223444 0.92799997 1.2237385e-39
0.14969522 0.18148315 0.92500001 8.5675528e-40
0.15378538 0.18204422 0.92620003 1.6839964e-39
0.15812874 0.18164533 0.92500007 8.5495041e-40
0.16270933 0.18223444 0.92799997 3.0286824e-40
0.16623493 0.18183716 0.92679995 1.1703785e-40
0.17035668 0.18239716 0.92799997 2.0563354e-40
0.17409897 0.18223444 0.92799997 3.8750527e-40
0.17816672 0.18223445 0.92799997 8.4524782e-40
0.14399774 0.18548863 0.92799997 8.4848061e-40
0.1464384 0.18630219 0.92799997 6.6372642e-40
0.14969258 0.18630219 0.92799997 3.8642347e-40
0.15355693 0.18609878 0.92799997 1.0947084e-40
0.15810998 0.18508713 0.92679995 1.836822e-41
0.16270933 0.18467508 0.92799997 1.9805952e-41
0.1659635 0.18548863 0.92799997 1.9078679e-41
0.17003125 0.18467508 0.92799997 1.1197776e-40
0.17409897 0.18467508 0.92799997 5.6971751e-40
0.17816672 0.18467508 0.92799997 1.6670715e-39
0.14969257 0.18955636 0.92799997 3.8821853e-40
0.15213321 0.18955636 0.92799997 2.0879347e-41
0.15572229 0.13452449 0.93000001 1.0080277e-38
0.1581682 0.13452449 0.93000001 9.9884372e-39
0.16142941 0.13452449 0.93000001 8.7009396e-39
0.1418622 0.13860099 0.93000001 6.8566753e-39
0.14593869 0.13860099 0.93000001 7.3180094e-39
0.14985214 0.13745958 0.93000001 8.2392328e-39
0.1532764 0.1361551 0.93000001 9.0686319e-39
0.16305999 0.1361551 0.93000001 9.0689935e-39
0.16713649 0.13778569 0.93000001 1.0171401e-38
0.16931063 0.13887277 0.93000001 7.9619354e-39
0.17365889 0.13941631 0.93000001 7.3161989e-39
0.13941629 0.1418622 0.93000001 6.8556005e-39
0.1418622 0.1418622 0.93000001 6.9488709e-39
0.14430809 0.1410469 0.93000001 6.9495912e-39
0.17365889 0.14104691 0.93000001 6.3953356e-39
0.17746362 0.14213398 0.93000001 5.0145452e-39
0.18018129 0.1426775 0.93000001 4.092956e-39
0.13832922 0.14648223 0.93000001 6.7626832e-39
0.1410469 0.14430809 0.93000001 6.8566767e-39
0.18246412 0.14626482 0.93000001 3.1713654e-39
0.18507309 0.1475693 0.93000001 2.7996962e-39
0.13452449 0.15083049 0.93000001 6.485725e-39
0.13778569 0.15001521 0.93000001 6.4860907e-39
0.18344249 0.15001521 0.93000001 3.1699123e-39
0.18588839 0.15001521 0.93000001 2.339444e-39
0.13387226 0.15441781 0.93000001 5.9318253e-39
0.1377857 0.15409169 0.93000001 5.9325498e-39
0.1410469 0.1524611 0.93000001 6.302763e-39
0.18605146 0.15376557 0.93000001 2.4302019e-39
0.18887782 0.15517877 0.93000001 1.875226e-39
0.13370919 0.1581682 0.93000001 5.0102502e-39
0.13778569 0.1581682 0.93000001 5.1027961e-39
0.1410469 0.15735289 0.93000001 5.9311037e-39
0.1867037 0.1581682 0.93000001 2.1510982e-39
0.18963878 0.15833126 0.93000001 1.4142451e-39
0.13370919 0.16224471 0.93000001 6.2952381e-39
0.1361551 0.16142941 0.93000001 4.9162665e-39
0.1867037 0.16142941 0.93000001 1.5975657e-39
0.18976107 0.16224469 0.92999995 1.320253e-39
0.13398096 0.16604944 0.93000001 3.1641754e-39
0.18996489 0.16632119 0.93000001 5.8340539e-40
0.13452449 0.16876709 0.93000001 8.643293e-40
0.1867037 0.1695824 0.93000001 2.3308022e-39
0.18996489 0.1695824 0.93000001 1.6825615e-39
0.13452449 0.17365889 0.93000001 4.7250509e-39
0.1361551 0.17447419 0.93000001 4.9987721e-39
0.18344249 0.17447419 0.93000001 2.6974155e-39
0.18572533 0.17333278 0.93000001 1.4084801e-39
0.18955724 0.17243594 0.93000001 8.5424135e-40
0.13452449 0.17692009 0.93000001 9.0452681e-39
0.13669863 0.17800717 0.93000001 7.2045659e-39
0.18289897 0.17800717 0.93000001 1.4970856e-39
0.18507309 0.17692009 0.93000001 1.1300982e-39
0.13876405 0.18148577 0.93000001 4.4422969e-39
0.1410469 0.18344249 0.93000001 2.3246939e-39
0.1826272 0.1818119 0.93000001 1.5810038e-39
0.18507309 0.18344249 0.93000001 3.136815e-39
0.1418622 0.18588839 0.93000001 7.5700806e-40
0.16224471 0.18670371 0.93000001 1.8354207e-41
0.17365889 0.18670371 0.93000001 1.0875898e-40
0.17773539 0.1867037 0.93000001 5.632309e-40
0.18213801 0.18605146 0.93000001 1.5712872e-39
0.18507309 0.18507309 0.93000001 2.7684024e-39
0.14226985 0.18955724 0.93000001 1.0263811e-39
0.14570576 0.19043079 0.93000001 2.906251e-40
0.15001521 0.19159549 0.93000001 5.0544836e-42
0.1426775 0.1932261 0.93000001 1.2611686e-44
0.14593869 0.1932261 0.93000001 4.2038954e-45
0.15819888 0.13196902 0.93500006 7.5960326e-39
0.1421331 0.13459198 0.93500006 7.8718978e-39
0.14590362 0.13524774 0.935 8.2406705e-39
0.14984164 0.13428341 0.93400002 1.0081349e-38
0.15393566 0.13428341 0.93400002 1.0632373e-38
0.1578605 0.1333226 0.93300003 9.8965919e-39
0.16195014 0.1333226 0.93300003 8.2399601e-39
0.16571891 0.13462093 0.93350005 8.0573695e-39
0.17049412 0.13524774 0.935 7.1354258e-39
0.13953114 0.13830425 0.93350005 7.2250851e-39
0.14231983 0.13659431 0.93300003 6.9499471e-39
0.14559153 0.13659431 0.93300003 6.9503171e-39
0.14804533 0.13659431 0.93300003 7.2268857e-39
0.16685772 0.13659431 0.93300003 1.008099e-38
0.17040209 0.1371396 0.93300003 8.7909829e-39
0.17368038 0.13763273 0.93449998 7.2250991e-39
0.17753464 0.13820328 0.93466675 4.0022093e-39
0.13524774 0.14344458 0.935 6.026916e-39
0.13760862 0.14170295 0.93433332 6.6708421e-39
0.17931865 0.14083385 0.93400002 4.0025554e-39
0.18177508 0.14165267 0.93400002 3.6312604e-39
0.18524842 0.14344458 0.935 2.6167497e-39
0.13196902 0.14672332 0.935 6.4850201e-39
0.13428341 0.14574757 0.93400002 6.5793751e-39
0.1371396 0.1453189 0.93300003 6.671212e-39
0.18586999 0.14574759 0.93400002 2.2490476e-39
0.18934684 0.14672332 0.935 8.686453e-40
0.13148861 0.1503308 0.93449998 6.0251084e-39
0.13397694 0.14935403 0.93300003 6.3935335e-39
0.18730597 0.14804533 0.93300003 8.697243e-40
0.18989536 0.14978698 0.93366671 2.2450903e-39
0.13093849 0.15385281 0.93349999 5.7481613e-39
0.1333226 0.15295291 0.93300003 6.3002435e-39
0.19003241 0.1534982 0.93300003 2.059976e-39
0.19241956 0.15393478 0.93400002 1.5057148e-39
0.13096172 0.15797387 0.93366671 4.9176888e-39
0.19385438 0.15808667 0.93433332 1.5943217e-39
0.19836336 0.15901856 0.935 4.6209358e-39
0.13100818 0.16212372 0.93400002 6.5696627e-39
0.19451042 0.16239145 0.9346 1.9595015e-39
0.19754368 0.16229729 0.935 4.2514274e-39
0.13100818 0.16539894 0.93400002 4.8183101e-39
0.1333226 0.16767564 0.93300003 3.896358e-39
0.19467136 0.16585429 0.93380004 2.2324941e-39
0.19754368 0.16475634 0.935 4.7095203e-39
0.13196902 0.16967444 0.93500006 3.897437e-39
0.13386789 0.17040209 0.93300003 2.2407883e-39
0.19498074 0.16958371 0.93450004 3.5178309e-39
0.13196902 0.17295317 0.935 5.643759e-39
0.13346548 0.17358789 0.93400002 5.3639239e-39
0.18730597 0.17585494 0.93300003 1.1286716e-39
0.19003241 0.17530966 0.93300003 1.8622724e-39
0.19221355 0.17503701 0.93300003 2.6898709e-39
0.1340584 0.17774329 0.93433332 5.6397555e-39
0.18689452 0.17870937 0.93366671 1.7675572e-39
0.19006528 0.17859584 0.93449998 2.5930047e-39
0.19262558 0.17869096 0.935 3.6961167e-39
0.13495845 0.18076253 0.93300003 2.5983689e-39
0.13659431 0.18158045 0.93300003 3.7965702e-39
0.18668881 0.18177508 0.93400002 2.3146045e-39
0.19016652 0.1819697 0.935 3.4148368e-39
0.19262558 0.18115 0.935 4.7966965e-39
0.13871233 0.18535976 0.93350005 2.2303305e-39
0.18730597 0.18485218 0.93300003 3.6889084e-39
0.18934684 0.18442874 0.935 4.978564e-39
0.1582208 0.12773032 0.94 7.4105623e-39
0.14173946 0.1310266 0.94 7.4127245e-39
0.14618942 0.13036735 0.94 8.3332319e-39
0.14982058 0.13006315 0.93900001 7.871902e-39
0.15393654 0.13006315 0.93900007 7.5956697e-39
0.15805247 0.13006315 0.93900001 7.0439392e-39
0.16216843 0.13006315 0.93900007 6.7680768e-39
0.16646145 0.13020253 0.94 6.3992971e-39
0.16975772 0.1310266 0.94 6.1234305e-39
0.17387806 0.1310266 0.94 4.7394198e-39
0.17799839 0.1310266 0.94 3.9085703e-39
0.13514693 0.13514693 0.94 6.8588151e-39
0.13829564 0.1341788 0.93900001 7.4116301e-39
0.14184906 0.1328036 0.93800002 7.7807728e-39
0.14637178 0.13321476 0.93800002 8.7949205e-39
0.14966103 0.13239245 0.93800002 8.8864085e-39
0.15377259 0.13239245 0.93800008 8.4243611e-39
0.16281804 0.13239245 0.93800002 7.5949578e-39
0.1663814 0.13294065 0.93800008 7.3194499e-39
0.17021886 0.13321477 0.93800008 6.3985754e-39
0.17439267 0.13408412 0.93833339 6.1201921e-39
0.17774594 0.13413118 0.9386667 4.0011415e-39
0.18182842 0.13475244 0.93971431 3.1703004e-39
0.1310266 0.13926727 0.94 5.6617082e-39
0.1341788 0.13829564 0.93900001 6.3056441e-39
0.13787454 0.13787454 0.93800008 7.1336055e-39
0.18213837 0.13804275 0.93839997 3.2624863e-39
0.18596438 0.13871789 0.94 2.890115e-39
0.13020253 0.14173946 0.94 5.2914894e-39
0.1338315 0.14205462 0.93800008 6.1180285e-39
0.18337588 0.14061558 0.93800002 3.0773621e-39
0.18594231 0.14151284 0.93849999 2.5245681e-39
0.18912892 0.14270976 0.93880004 2.797897e-39
0.19200753 0.14256352 0.94 3.1587552e-39
0.13031159 0.14612664 0.93959999 6.0247496e-39
0.13239245 0.14554946 0.93800002 5.3833445e-39
0.18995439 0.14609769 0.93800008 2.4291229e-39
0.19386168 0.14565377 0.94 3.5253811e-39
0.12773032 0.14998013 0.94 4.7336535e-39
0.13006315 0.14982058 0.93900001 5.5644945e-39
0.19427371 0.14982057 0.93900001 2.8800173e-39
0.12686096 0.15404524 0.93966669 4.9155378e-39
0.12910321 0.15377259 0.93800008 4.6421851e-39
0.19458097 0.15344252 0.93849999 2.8803802e-39
0.19653289 0.1554172 0.93800002 2.6945498e-39
0.12677038 0.15805247 0.93900001 5.005574e-39
0.1291032 0.15788415 0.93800002 3.6298325e-39
0.19653289 0.15788415 0.93800002 1.4095717e-39
0.12690625 0.16234112 0.94 6.4738742e-39
0.12910321 0.16199574 0.93800008 5.6487812e-39
0.12690625 0.16646145 0.94 8.402421e-39
0.1291032 0.1661073 0.93800002 4.6328385e-39
0.12773032 0.16975772 0.94 7.5715785e-39
0.13008997 0.16988993 0.93800002 5.0902265e-39
0.19653289 0.17186348 0.93800002 4.2528778e-39
0.12773034 0.17387806 0.94 6.3755451e-39
0.1299262 0.17405902 0.93920004 7.388639e-39
0.13239245 0.17515273 0.93800002 6.7439703e-39
0.19488825 0.17433041 0.93800002 3.5120799e-39
0.19674242 0.1745154 0.93900001 4.7102644e-39
0.12773032 0.17717433 0.94 3.7029242e-39
0.13013284 0.17790414 0.93950003 3.7032969e-39
0.13239245 0.17761967 0.93800002 3.5196414e-39
0.19488825 0.17761967 0.93800002 5.0743652e-39
0.19653289 0.17679736 0.93800002 5.5364265e-39
0.1310266 0.18129465 0.94 2.9668109e-39
0.13368817 0.18213226 0.93885726 3.0575758e-39
0.19488825 0.18008663 0.93800002 5.6242823e-39
0.13532519 0.18583289 0.93933338 2.228527e-39
0.13814864 0.18666513 0.93800002 1.7697082e-39
0.13597099 0.18871126 0.94 1.768981e-39
0.13836913 0.18943493 0.93949997 1.7675474e-39
0.14143789 0.19077669 0.93800002 1.6746273e-39
0.13926727 0.19200753 0.94 5.6684345e-40
0.14146477 0.19310628 0.94 3.7418733e-40
0.12565789 0.1231778 0.94300002 9.0380542e-39
0.12813799 0.1231778 0.94300002 9.2260468e-39
0.12565789 0.1248312 0.94300002 8.950906e-39
0.12813799 0.1248312 0.94300002 9.3257982e-39
0.14797869 0.12648459 0.94300002 8.8831631e-39
0.15045878 0.12648459 0.94300002 7.9640934e-39
0.15293887 0.12648459 0.94300002 7.5041943e-39
0.13971174 0.13061807 0.94300002 7.965534e-39
0.14219183 0.12979138 0.94300002 8.8860526e-39
0.14632532 0.12868913 0.94300002 8.3321627e-39
0.15045878 0.12813799 0.94300002 7.7797078e-39
0.15376557 0.12813799 0.94300002 7.3198058e-39
0.15624566 0.12813799 0.94300002 6.8591976e-39
0.16203254 0.12813799 0.94300002 7.961211e-39
0.16616602 0.12813799 0.94300002 7.3172891e-39
0.1702995 0.12896469 0.94300002 6.1223375e-39
0.17388187 0.12924026 0.94300002 4.3720806e-39
0.17732644 0.12937804 0.94300002 4.0922441e-39
0.18104656 0.13061807 0.94300002 3.6309157e-39
0.13640495 0.13309816 0.94300002 6.6755056e-39
0.18269995 0.13309816 0.94300002 3.9049746e-39
0.18435335 0.13309816 0.94300002 3.4436363e-39
0.13089363 0.13805833 0.94300002 5.8446561e-39
0.13309816 0.13640495 0.94300002 5.9372189e-39
0.18600674 0.13640495 0.94300002 2.9826638e-39
0.18931353 0.13971174 0.94300002 2.5205884e-39
0.19096693 0.14136513 0.94300002 2.2432827e-39
0.19344702 0.14219183 0.94300002 3.8016092e-39
0.12868914 0.14632532 0.94300002 5.6563286e-39
0.12648459 0.15045878 0.94300002 4.2726753e-39
0.1248312 0.15376557 0.94300002 5.5580332e-39
0.1248312 0.15789907 0.94300002 6.1083343e-39
0.19923389 0.15789907 0.94300002 4.0691886e-39
0.20088728 0.15789907 0.94300002 4.6220036e-39
0.1248312 0.16203254 0.94300002 7.4840562e-39
0.12565789 0.1702995 0.94300002 9.7839051e-39
0.12565789 0.17360631 0.94300002 5.5464865e-39
0.1264846 0.17773978 0.94300002 3.3341501e-39
0.12813799 0.17939317 0.94300002 3.2419629e-39
0.12924026 0.18159769 0.94300002 2.8735419e-39
0.13144477 0.18435335 0.94300002 3.1493566e-39
0.13392484 0.18683344 0.94300002 2.9639242e-39
0.13640495 0.19096693 0.94300002 1.2244546e-41
0.13888504 0.19344702 0.94300002 8.3120541e-40
0.15541196 0.12383091 0.94800001 7.2279703e-39
0.15790519 0.12383091 0.94800001 7.5956641e-39
0.16239302 0.12316605 0.94800007 8.8817225e-39
0.166216 0.12299983 0.94800001 8.2356441e-39
0.1695403 0.12299983 0.94800001 5.6563216e-39
0.17336328 0.12316605 0.94800007 5.2864573e-39
0.17702003 0.12383091 0.94800001 5.8306488e-39
0.12715524 0.12715524 0.94800001 6.6593122e-39
0.12881739 0.12715524 0.94800001 7.4894316e-39
0.13879037 0.12715524 0.94800001 7.9637263e-39
0.14206412 0.12627944 0.94766665 8.9760832e-39
0.14611578 0.12619001 0.94700003 9.6203694e-39
0.15021273 0.12531656 0.94666666 8.4239758e-39
0.1546405 0.12586945 0.94666666 7.3194485e-39
0.15773863 0.12619001 0.94700003 7.1354188e-39
0.16188966 0.12619001 0.94700003 1.0536935e-38
0.16604066 0.12619001 0.94700003 1.0168522e-38
0.16982329 0.12632941 0.94680005 6.0283398e-39
0.17373358 0.12594473 0.94639999 4.4613896e-39
0.17797349 0.1262235 0.94600004 5.1917534e-39
0.13463496 0.13047956 0.94800001 7.132165e-39
0.13781345 0.13034075 0.94700003 7.7800525e-39
0.14181486 0.12854561 0.94599998 9.5285381e-39
0.14513217 0.12854561 0.94599998 9.7115e-39
0.17332925 0.12854561 0.94599998 4.6472242e-39
0.17913455 0.12854561 0.94599998 4.089733e-39
0.1829634 0.12985757 0.94649994 4.6371446e-39
0.18575454 0.13094071 0.94733334 5.0930795e-39
0.13117126 0.13532314 0.94700003 6.5804233e-39
0.13393918 0.13338512 0.94700003 6.6737022e-39
0.18699299 0.13380387 0.94800007 4.7264522e-39
0.18932001 0.1341363 0.94800007 4.9998021e-39
0.12957966 0.13788606 0.94749999 5.8435898e-39
0.19025099 0.13791047 0.94766665 3.8984894e-39
0.19447272 0.13879037 0.94800001 5.5447012e-39
0.12715524 0.14211467 0.94800007 5.9329127e-39
0.12863621 0.14191362 0.94666672 5.8407185e-39
0.19197948 0.14045252 0.94800001 1.875219e-39
0.19447272 0.14045252 0.94800001 4.7196167e-39
0.12651175 0.14644367 0.94733334 5.8389234e-39
0.12854561 0.14513217 0.94599998 6.5757668e-39
0.12383091 0.1495944 0.94800001 7.2186223e-39
0.12564299 0.14969346 0.94599998 5.4683473e-39
0.19820906 0.15176678 0.94599998 3.8895001e-39
0.12335006 0.15408337 0.94749999 5.9260968e-39
0.19876194 0.1545312 0.94599998 4.3479531e-39
0.12286921 0.15773863 0.94700003 5.6466415e-39
0.19986771 0.15674272 0.94599998 4.8035278e-39
0.12356966 0.1617187 0.94599998 7.48658e-39
0.12383091 0.166216 0.94800001 1.0981016e-38
0.12522832 0.16586533 0.94599998 1.0243451e-38
0.12383091 0.16954032 0.94800001 1.0243084e-38
0.12522832 0.1683533 0.94599998 1.1163958e-38
0.12383091 0.17369573 0.94800007 4.9010974e-39
0.12383091 0.17785111 0.94800001 3.5127442e-39
0.12522832 0.1774759 0.94599998 4.3425062e-39
0.12383091 0.18034436 0.94800001 2.0369162e-39
0.12594472 0.18203035 0.94640011 2.1294902e-39
0.12854561 0.18328118 0.94599998 3.1461701e-39
0.12715524 0.18533084 0.94800001 1.2071752e-39
0.13034105 0.18596554 0.94700003 3.0521472e-39
0.13366155 0.18983954 0.94700003 2.3135199e-39
0.13546604 0.19364163 0.94800001 0
0.13758582 0.19461358 0.94733334 3.685415e-43
0.14279407 0.19675818 0.94700003 9.8090893e-45
0.13589473 0.12255536 0.95099998 8.8730849e-39
0.13839585 0.12255536 0.95099998 8.4182192e-39
0.1417307 0.12172165 0.95099998 7.5906306e-39
0.14589924 0.12172165 0.95100009 7.5920655e-39
0.15006778 0.12255536 0.95099998 7.3180052e-39
0.15507005 0.12255536 0.95099998 7.5938662e-39
0.15840489 0.12172166 0.95099998 7.5009475e-39
0.16146183 0.12144375 0.95099998 7.3161933e-39
0.16507457 0.12088794 0.95099998 5.3808081e-39
0.13443571 0.12568177 0.95100009 7.4044443e-39
0.13822912 0.12555672 0.95100003 7.4087589e-39
0.1417307 0.12422278 0.95099998 7.0417742e-39
0.14589924 0.12422278 0.95099998 8.0551975e-39
0.15006778 0.12422278 0.95099998 7.7796952e-39
0.15340263 0.12422278 0.95099998 7.227606e-39
0.13381045 0.12964189 0.95099998 6.9470661e-39
0.12755762 0.13589473 0.95099998 5.2886307e-39
0.13005875 0.13422729 0.95099998 6.3024099e-39
0.13255988 0.13255988 0.95099998 6.947408e-39
0.19314282 0.13533893 0.95099998 5.6368982e-39
0.12700182 0.13867375 0.95099998 5.2886293e-39
0.19425441 0.13756214 0.95099998 6.3697927e-39
0.1258902 0.1417307 0.95099998 6.2984653e-39
0.12172166 0.14673296 0.95099998 1.0524731e-38
0.12505649 0.14589924 0.95099998 6.8494866e-39
0.12172166 0.15006778 0.95099998 8.5958086e-39
0.12172166 0.15340263 0.95099998 7.7649507e-39
0.20425893 0.15923859 0.95099998 6.362946e-39
0.12255536 0.16173974 0.95099998 7.3011335e-39
0.20425893 0.16090602 0.95099998 6.364039e-39
0.12255536 0.16590828 0.95099998 1.0246694e-38
0.12255536 0.16924311 0.95099998 9.508379e-39
0.12255536 0.17507908 0.95099998 3.6089391e-39
0.12255536 0.17841393 0.95099998 3.0453312e-39
0.12755762 0.18758473 0.95099998 2.5363502e-42
0.12922505 0.18758473 0.95099998 1.1121251e-39
0.13033666 0.18980798 0.95099998 3.7310553e-40
0.13367149 0.19314282 0.95099998 7.2166871e-43
0.14089698 0.19758925 0.95099998 1.4012985e-45
0.15054119 0.12126929 0.954 7.1314531e-39
0.15360779 0.12182686 0.954 7.1321692e-39
0.15639557 0.12126929 0.954 7.130723e-39
0.13130538 0.125451 0.954 7.3976087e-39
0.13297805 0.12796003 0.954 6.7623105e-39
0.12655209 0.13158065 0.95599997 8.4085111e-39
0.13006526 0.13030523 0.9554286 6.7583448e-39
0.1270214 0.13428019 0.95533335 6.4799572e-39
0.12893048 0.13311744 0.95499998 6.6665219e-39
0.12319972 0.13996157 0.95599997 5.8331501e-39
0.12564781 0.13821307 0.95550001 5.7456362e-39
0.11984733 0.14247586 0.95599997 8.592559e-39
0.12210564 0.14217779 0.954 7.7667612e-39
0.12461465 0.14217779 0.954 6.2062696e-39
0.11894656 0.14575152 0.95550001 1.0248486e-38
0.12210564 0.1446868 0.954 1.0894595e-38
0.12461465 0.1446868 0.954 8.2302603e-39
0.11876027 0.14970487 0.954 1.0891676e-38
0.11882207 0.15396765 0.95449996 8.2201863e-39
0.11902644 0.15786557 0.95479995 4.0778346e-39
0.1212693 0.15806827 0.954 5.5526508e-39
0.11874133 0.16195118 0.95520002 4.4419424e-39
0.12126929 0.16224995 0.954 5.8260035e-39
0.11894657 0.16585612 0.95550001 5.6361598e-39
0.12126929 0.16559532 0.954 7.7570558e-39
0.11900924 0.16845675 0.95599997 5.3592057e-39
0.12168746 0.17019518 0.954 6.5588475e-39
0.12182686 0.17367995 0.954 5.0819112e-39
0.12126929 0.17730406 0.954 1.5759465e-39
0.1296327 0.19152185 0.954 5.5606466e-40
0.13130538 0.19319452 0.954 1.8104776e-42
0.13297805 0.19486721 0.954 7.258726e-43
0.13493302 0.19695191 0.95599997 7.0064923e-45
0.13799608 0.19765501 0.954 1.1210388e-44
0.1261085 0.13031211 0.95899999 8.4031315e-39
0.12526776 0.13451573 0.95899999 7.3064711e-39
0.12302583 0.13815887 0.95899999 7.3046802e-39
0.12526776 0.1370379 0.95899999 6.4810376e-39
0.12106415 0.1404008 0.95899999 6.8419196e-39
0.11686053 0.15469308 0.95899999 7.5672289e-39
0.11686053 0.15805598 0.95899999 5.1694405e-39
0.11517908 0.16310033 0.95899999 7.0111839e-39
0.11686053 0.16225961 0.95899999 6.0892304e-39
0.11517908 0.16562249 0.95899999 7.6558344e-39
0.11686053 0.16646321 0.95899999 6.7338753e-39
0.11770125 0.16982611 0.95899999 4.8939256e-39
0.12022343 0.17066683 0.95899999 5.7294456e-39
0.11854198 0.17234828 0.95899999 4.3403468e-39
0.12022343 0.173189 0.95899999 6.5523385e-39
0.12312959 0.13493654 0.96200001 8.0347049e-39
0.12228623 0.13746659 0.96200001 7.2099651e-39
0.11722611 0.17120072 0.96200001 5.440631e-39
0.11722611 0.17288743 0.96200001 5.7157633e-39
0.17413172 0.19438738 0.96266669 1.3329151e-41
0.17626084 0.19397126 0.96200001 1.332775e-41
0.17493707 0.19775495 0.96399999 4.3075915e-42
0.17662728 0.19775495 0.96399999 1.8836394e-40
0.16276544 0.19582716 0.96700001 1.9064666e-41
0.16615638 0.19582716 0.96700001 1.9419194e-41
0.16954732 0.19582716 0.96700001 4.7823094e-40
0.17209053 0.19582716 0.96700001 7.5229549e-40
