# .PCD v0.7 - Point Cloud Data file format
VERSION 0.7
FIELDS x y z rgb
SIZE 4 4 4 4
TYPE F F F F
COUNT 1 1 1 1
WIDTH 613
HEIGHT 1
VIEWPOINT 0 0 0 1 0 0 0
POINTS 613
DATA ascii
0.12906635 0.12319972 0.95599997 5.4701325e-39
0.12906635 0.125714 0.95599997 4.0893659e-39
0.12906635 0.12822826 0.95599997 2.8936925e-39
0.12694922 0.1118162 0.95899999 1.2840744e-38
0.12863067 0.1118162 0.95899999 1.3114469e-38
0.12694922 0.11433837 0.95899999 8.5147435e-39
0.12919116 0.1146186 0.95899999 8.0526933e-39
0.12358632 0.11854198 0.95899999 7.3158374e-39
0.1261085 0.11770125 0.95899999 7.3154744e-39
0.12997583 0.1178694 0.95900005 6.7619419e-39
0.13367501 0.11854198 0.95899999 5.1020661e-39
0.11770125 0.1227456 0.95899999 5.9318239e-39
0.12211505 0.12211505 0.95900005 6.8534173e-39
0.1261085 0.12190487 0.95900005 6.9448856e-39
0.13055232 0.12142446 0.95900011 5.6555986e-39
0.13434759 0.12224116 0.95900005 4.0893589e-39
0.11517908 0.1261085 0.95899999 4.4577714e-39
0.11770125 0.12610848 0.95899999 4.7343597e-39
0.12190487 0.1261085 0.95900005 5.1035094e-39
0.1261085 0.1261085 0.95899999 4.5510601e-39
0.13199356 0.1261085 0.95899999 3.6283835e-39
0.13451573 0.1261085 0.95899999 3.1681214e-39
0.1370379 0.1261085 0.95899999 2.6153036e-39
0.11450651 0.12997583 0.95900005 2.9833644e-39
0.11770125 0.13031211 0.95900005 3.5372585e-39
0.12190486 0.1303121 0.95900005 3.3536015e-39
0.1261085 0.13031211 0.95900005 3.4436419e-39
0.13055232 0.13079253 0.95900011 3.1670368e-39
0.13451573 0.13031211 0.95900005 2.7989676e-39
0.1370379 0.12947139 0.95899999 2.3379894e-39
0.11517908 0.13367501 0.95899999 2.705337e-39
0.11770125 0.13451573 0.95899999 2.9808463e-39
0.12190487 0.13451573 0.95900005 3.5340229e-39
0.1261085 0.13451573 0.95899999 2.7975368e-39
0.13031211 0.13451573 0.95900005 2.3372776e-39
0.1342355 0.1342355 0.95899999 2.3372706e-39
0.12947139 0.1370379 0.95899999 2.0603361e-39
0.11916003 0.10310301 0.96399999 7.8719048e-39
0.12141365 0.10338472 0.96399999 7.503481e-39
0.12423067 0.10394812 0.96399999 6.6747994e-39
0.11859664 0.10676514 0.96399999 8.5158295e-39
0.12169535 0.10648343 0.96399999 8.2388923e-39
0.12592089 0.10648343 0.96399993 7.8704657e-39
0.13001141 0.1063721 0.963 7.8704531e-39
0.13338833 0.1063721 0.963 6.3964188e-39
0.13662557 0.10676514 0.96399999 4.6464843e-39
0.1152162 0.11014556 0.96399999 7.6867821e-39
0.11831493 0.10986385 0.96399999 9.5274591e-39
0.12210002 0.10994101 0.96320003 1.182696e-38
0.12610078 0.10955773 0.96280003 1.0723127e-38
0.12987641 0.10963593 0.96200001 1.0355079e-38
0.13409317 0.10963593 0.96200001 6.0272664e-39
0.13859749 0.10986386 0.96399999 3.9092864e-39
0.1411328 0.11070897 0.96399999 3.4479551e-39
0.10310301 0.1149345 0.96399999 6.0251042e-39
0.10648343 0.1157796 0.96399999 5.9321967e-39
0.11003288 0.11442744 0.96399993 5.5666539e-39
0.11403602 0.1140364 0.96355546 6.6711924e-39
0.11806946 0.1138527 0.96200001 8.0530465e-39
0.1223141 0.11387861 0.96222222 9.9866394e-39
0.12565964 0.11385269 0.96200007 1.0171388e-38
0.13071977 0.11300933 0.96200001 9.7990209e-39
0.13409317 0.11385269 0.96200001 5.4737324e-39
0.13850224 0.11400991 0.96333331 3.2639128e-39
0.1418089 0.11442744 0.96399993 2.6189077e-39
0.14451323 0.1157796 0.96399999 1.3310556e-39
0.1022579 0.11831494 0.96399993 3.9996968e-39
0.1063721 0.1181922 0.96299994 4.9212831e-39
0.10963593 0.11806947 0.96200001 5.014548e-39
0.11385269 0.11806947 0.96200001 5.4730066e-39
0.11806946 0.11806946 0.96200001 6.3949629e-39
0.12194889 0.11790079 0.96200001 6.7630279e-39
0.13451485 0.11764778 0.96200001 5.3790089e-39
0.13830994 0.11806947 0.96200001 3.5372613e-39
0.14197792 0.11831493 0.96399999 2.2490476e-39
0.14507663 0.11859664 0.96399999 2.1561317e-39
0.098877475 0.12254046 0.96399999 2.982661e-39
0.10194143 0.12220119 0.96299994 3.1677683e-39
0.10651886 0.12204988 0.96280003 3.7212952e-39
0.10963594 0.12228622 0.96200001 4.090791e-39
0.1138527 0.12228622 0.96200001 5.1035038e-39
0.11806946 0.12059952 0.96200001 6.6697449e-39
0.12059952 0.12059952 0.96200001 7.1292755e-39
0.13577989 0.12059952 0.96200001 5.0098578e-39
0.13830996 0.12228623 0.96200001 3.3521455e-39
0.14168337 0.12228623 0.96200001 2.1554044e-39
0.14515787 0.12237039 0.96266669 2.0628473e-39
0.098877475 0.12423067 0.96399999 3.1659578e-39
0.10237914 0.12625353 0.96285713 2.7971809e-39
0.10622535 0.12615374 0.96320003 3.0751971e-39
0.10963593 0.12650299 0.96200001 3.0751985e-39
0.11300933 0.12650299 0.96200001 3.4454286e-39
0.13915329 0.12650299 0.96200001 2.3390684e-39
0.14168337 0.12650299 0.96200001 2.338351e-39
0.14605296 0.12607139 0.963 1.6919067e-39
0.10259595 0.12997741 0.96399993 1.50824e-39
0.10648343 0.13014643 0.96399999 1.4160485e-39
0.10963593 0.12987641 0.96200001 2.5220304e-39
0.11216599 0.12987641 0.96200001 2.7067775e-39
0.13915329 0.12987641 0.96200001 1.878456e-39
0.14168337 0.12987642 0.96200001 1.6933459e-39
0.14451323 0.13014643 0.96399999 1.323483e-39
0.10732854 0.13352683 0.96399999 8.6143842e-40
0.10980461 0.13375585 0.96200001 1.0476233e-39
0.11337078 0.13433413 0.96200001 1.8762994e-39
0.13577989 0.13577989 0.96200001 2.7035377e-39
0.13830996 0.13409318 0.96200001 1.783738e-39
0.14183152 0.13338833 0.963 1.1380141e-39
0.14451323 0.13352683 0.96399999 8.6106988e-40
0.10732854 0.13606216 0.96399999 7.6996026e-40
0.10969484 0.13809042 0.96399993 5.8520886e-40
0.11393043 0.1384058 0.96266663 1.3213306e-39
0.11806947 0.13830994 0.96200001 2.2422065e-39
0.12228622 0.13830996 0.96200001 2.5191605e-39
0.12650299 0.13830994 0.96200001 2.1518115e-39
0.12987641 0.13915329 0.96200001 1.9674216e-39
0.13386665 0.13825698 0.96280003 1.7823031e-39
0.13803327 0.13870935 0.96359998 1.4128059e-39
0.1418089 0.13741434 0.96399993 1.1362162e-39
0.14451323 0.13606216 0.96399999 9.5182357e-40
0.10986386 0.1411328 0.96399999 4.9121537e-40
0.11442744 0.1418089 0.96399993 4.9193423e-40
0.1181922 0.14183152 0.96299994 1.4138821e-39
0.12228623 0.14168337 0.96200001 1.9656182e-39
0.12650299 0.14168337 0.96200001 1.4149667e-39
0.12987641 0.14168335 0.96200001 1.322411e-39
0.13352683 0.14197791 0.96399999 1.4131577e-39
0.13662557 0.14169621 0.96399999 6.7596536e-40
0.1152162 0.14507663 0.96399999 1.2171678e-40
0.11848395 0.14586541 0.96399993 1.1344212e-39
0.12223298 0.14587928 0.96324992 1.5031967e-39
0.12629135 0.14631592 0.96314287 8.6070835e-40
0.12992375 0.14580545 0.96359998 8.6071115e-40
0.13352683 0.14451323 0.96399999 8.6071395e-40
0.11444444 0.10257614 0.96700001 7.3201716e-39
0.11698765 0.10257614 0.96700001 7.7797106e-39
0.12546502 0.10257614 0.96700001 6.7669992e-39
0.13139917 0.10257614 0.96700001 6.8581214e-39
0.1339424 0.10257614 0.96700001 6.4886102e-39
0.1110535 0.10766255 0.96700001 6.5822506e-39
0.11376627 0.10630617 0.96700001 6.7691586e-39
0.11681811 0.10562798 0.96700001 8.2399643e-39
0.12631276 0.10427161 0.96700001 6.7662915e-39
0.1297037 0.10427161 0.96700001 6.8584816e-39
0.1339424 0.10427161 0.96700001 6.304935e-39
0.13852017 0.10562799 0.96700001 4.0936861e-39
0.14157201 0.10681482 0.96700001 3.7252637e-39
0.10257614 0.1110535 0.96700001 8.510803e-39
0.10427161 0.1110535 0.96700001 8.7877487e-39
0.11020576 0.11020575 0.96700001 6.304219e-39
0.11331414 0.10992318 0.96700001 7.2261753e-39
0.14270234 0.10992318 0.96700001 3.0798929e-39
0.099185184 0.11444444 0.96700001 5.6566916e-39
0.10144582 0.11331414 0.96700001 7.1314643e-39
0.10630619 0.11342716 0.96700001 7.0381799e-39
0.10935803 0.11274898 0.96700001 5.843601e-39
0.1432675 0.11274898 0.96700001 1.9760663e-39
0.14552812 0.11387929 0.96700001 2.0657353e-39
0.095794246 0.11953086 0.96700001 3.8163691e-39
0.098506987 0.11817449 0.96700001 3.9996842e-39
0.10088066 0.11613992 0.96700001 5.3808236e-39
0.14665844 0.11698765 0.96700001 1.6040411e-39
0.095229089 0.12235665 0.96700001 2.2483273e-39
0.098054871 0.1217915 0.96700001 2.0650235e-39
0.14835392 0.12292181 0.96700001 1.141607e-39
0.095229089 0.12518245 0.96700001 2.5209471e-39
0.098054871 0.12574761 0.96700001 2.7975354e-39
0.095794246 0.1297037 0.96700001 1.7833793e-39
0.098337442 0.1297037 0.96700001 1.691548e-39
0.10088066 0.13139917 0.96700001 1.4156828e-39
0.14665844 0.1297037 0.96700001 5.8736967e-40
0.14835392 0.12800823 0.96700001 1.047259e-39
0.099185184 0.1339424 0.96700001 1.0461814e-39
0.10172839 0.1339424 0.96700001 8.6251182e-40
0.10511934 0.1339424 0.96700001 8.6215589e-40
0.14665844 0.1339424 0.96700001 5.8269353e-40
0.099185184 0.13648559 0.96700001 4.0225393e-40
0.1017284 0.13818108 0.96700001 9.5254945e-40
0.10572488 0.13818108 0.96700007 7.6888126e-40
0.1432675 0.13987654 0.96700001 1.4099249e-39
0.14552812 0.13818108 0.96700001 9.4966417e-40
0.10766255 0.14157201 0.96700001 1.2277014e-39
0.11020576 0.1432675 0.96700001 3.0718704e-40
0.11274898 0.1432675 0.96700001 3.1319021e-41
0.1393114 0.14270234 0.96700001 7.6707919e-40
0.14241976 0.14157201 0.96700001 1.0418626e-39
0.14496297 0.14157201 0.96700001 7.6239184e-40
0.11020576 0.14496297 0.96700001 4.9013637e-40
0.11331414 0.14609328 0.96700001 2.1426414e-40
0.1339424 0.14665844 0.96700001 7.6779245e-40
0.13818108 0.14496297 0.96700001 1.5010401e-39
0.11444444 0.14835392 0.96700001 7.6311071e-40
0.1178354 0.14976682 0.96700001 8.5494761e-40
0.12207408 0.15089712 0.96700001 1.2226553e-39
0.12546502 0.15089712 0.96700001 1.5910777e-39
0.1297037 0.15033197 0.96700001 1.5917966e-39
0.13365981 0.14891908 0.96700001 1.1329736e-39
0.12546502 0.15344034 0.96700001 2.4168769e-39
0.11820097 0.0994929 0.97000003 8.7012956e-39
0.1224528 0.0994929 0.97000003 8.700218e-39
0.12585427 0.0994929 0.97000003 9.8969647e-39
0.13053128 0.099067718 0.97000003 8.9750084e-39
0.13407448 0.098925993 0.97000003 6.6751581e-39
0.13775939 0.0994929 0.97000003 5.9368616e-39
0.11054766 0.10289437 0.97000003 6.8573956e-39
0.11366569 0.10176055 0.97000003 6.6755224e-39
0.11820096 0.10119363 0.97000003 7.3201688e-39
0.12273626 0.10176055 0.97000003 6.9513849e-39
0.12585427 0.10119363 0.97000003 7.0432274e-39
0.12976596 0.10187393 0.97000009 6.9506744e-39
0.13435793 0.10119363 0.97000003 6.3982195e-39
0.13775939 0.102044 0.97000003 5.5666497e-39
0.14087741 0.10232746 0.97000003 4.6457738e-39
0.10232746 0.10742965 0.97000003 7.3158444e-39
0.10629584 0.1071462 0.97000015 7.5002314e-39
0.11037759 0.10595568 0.97000009 5.5706154e-39
0.11309877 0.1045951 0.97000003 5.9386805e-39
0.14269154 0.10561555 0.97000009 3.6334212e-39
0.1454127 0.10799656 0.97000003 2.8025703e-39
0.0994929 0.11139803 0.97000003 5.474108e-39
0.10176055 0.11026421 0.97000003 6.304226e-39
0.10663598 0.11037759 0.97000009 6.672633e-39
0.14597961 0.11083113 0.97000003 2.525273e-39
0.097792156 0.11394913 0.97000003 5.288981e-39
0.14711343 0.11309877 0.97000003 2.0653738e-39
0.14881416 0.11394913 0.97000003 1.694792e-39
0.093823791 0.1193348 0.97000003 4.0925875e-39
0.096658342 0.11706714 0.97000003 4.8290721e-39
0.14966452 0.11820096 0.97000015 1.3249319e-39
0.090422325 0.12273626 0.97000003 2.6135155e-39
0.093256883 0.12216935 0.97000003 1.8809868e-39
0.14994799 0.12216934 0.97000003 1.4149639e-39
0.090422325 0.12557082 0.97000003 2.7024559e-39
0.093256883 0.12613773 0.97000003 2.7950145e-39
0.1505149 0.12585427 0.97000003 1.7801479e-39
0.090989232 0.12925573 0.97000003 1.7790675e-39
0.093540333 0.13010609 0.97000015 1.4142423e-39
0.14711343 0.13180684 0.97000003 4.0155048e-40
0.1498346 0.13044624 0.97000009 6.7597377e-40
0.094390698 0.13435793 0.97000003 1.5964671e-39
0.096941799 0.13435793 0.97000003 1.2294867e-39
0.14966452 0.13435793 0.97000003 7.6456386e-40
0.097452007 0.13792947 0.97000009 1.2276888e-39
0.14711343 0.13860977 0.97000003 1.9584169e-39
0.14881416 0.13775939 0.97000003 1.0393445e-39
0.098472461 0.14133094 0.97000009 1.1326191e-39
0.102044 0.1428616 0.97000003 7.6671765e-40
0.10601237 0.14257815 0.97000015 5.8376833e-40
0.1428616 0.14371197 0.97000003 9.4787331e-40
0.14668824 0.14243641 0.97000003 1.3130545e-39
0.102044 0.1454127 0.97000003 1.4995925e-39
0.10629584 0.14541271 0.97000003 9.4930824e-40
0.11054766 0.14711343 0.97000003 2.1462568e-40
0.13775939 0.14711343 0.97000003 6.7415909e-40
0.14201123 0.14626306 0.97000003 1.0371851e-39
0.1454127 0.1454127 0.97000003 9.4463491e-40
0.11083113 0.14938107 0.97000003 1.2233714e-39
0.11366569 0.14994799 0.97000003 3.95417e-40
0.13520831 0.1505149 0.97000003 1.2222938e-39
0.13775939 0.14966452 0.97000003 1.2219323e-39
0.1403105 0.14881416 0.97000003 9.4498804e-40
0.11423259 0.15278256 0.97000003 7.5880452e-40
0.11798837 0.15412895 0.97000015 7.5843458e-40
0.1224528 0.15476674 0.97000003 1.4949192e-39
0.12585427 0.1556171 0.97000003 2.1395599e-39
0.13010609 0.15419984 0.97000015 1.4052431e-39
0.13407448 0.15278256 0.97000003 1.4974387e-39
0.1459612 0.090479597 0.97366667 5.097743e-39
0.11430155 0.094682626 0.97299999 9.6235994e-39
0.1179555 0.09487725 0.97500002 1.100224e-38
0.12222925 0.094877258 0.97500008 9.8061914e-39
0.12650299 0.09487725 0.97500002 8.1492008e-39
0.129922 0.09487725 0.97500002 7.8726223e-39
0.13401341 0.094747506 0.97366667 8.9753615e-39
0.1384695 0.09487725 0.97500002 7.9608508e-39
0.14103374 0.09487725 0.97500002 5.0188555e-39
0.11197225 0.098296247 0.97500002 8.2439271e-39
0.11430155 0.098094612 0.97299999 9.5314234e-39
0.11771353 0.09724161 0.97299999 1.1646514e-38
0.12197851 0.09724161 0.97299999 1.0817835e-38
0.1262435 0.097241618 0.97299999 1.0081712e-38
0.12965548 0.09724161 0.97299999 9.069355e-39
0.13434696 0.096815109 0.97299999 6.8595452e-39
0.13818544 0.097241618 0.97299999 6.4893095e-39
0.14179149 0.098227873 0.97433341 4.0043645e-39
0.14435399 0.098227859 0.97433341 3.63341e-39
0.10241175 0.10241176 0.97350001 4.6479304e-39
0.10598601 0.10188883 0.97340006 6.5836855e-39
0.10988979 0.10110709 0.97385716 7.1354202e-39
0.14245044 0.1015066 0.97299999 4.2766214e-39
0.14599192 0.10208345 0.97385722 3.1717228e-39
0.14958124 0.10257 0.97500002 1.790603e-39
0.10124745 0.10568795 0.9738 5.7517585e-39
0.10577159 0.10491858 0.97299999 7.869737e-39
0.10833057 0.10491858 0.97299999 6.8570298e-39
0.14679125 0.1058255 0.97350001 2.6185518e-39
0.15020411 0.1058255 0.97350001 2.247977e-39
0.15353939 0.10577159 0.97299999 3.6204606e-39
0.1560984 0.10662458 0.97299999 5.5493577e-39
0.09487725 0.11197225 0.97500002 6.393158e-39
0.098180026 0.1101335 0.97385716 5.6581223e-39
0.14756842 0.10918356 0.97299999 2.8929737e-39
0.15012741 0.11003655 0.97299999 1.7866317e-39
0.15353939 0.11003657 0.97299999 1.8748687e-39
0.15620536 0.11011195 0.97366667 2.792139e-39
0.094022498 0.11453649 0.97500002 5.4740884e-39
0.096388616 0.11344855 0.97299999 5.1967826e-39
0.1509804 0.11430155 0.97299999 1.876305e-39
0.15353939 0.11430154 0.97299999 1.5060834e-39
0.1560984 0.11430155 0.97299999 1.503924e-39
0.090888426 0.11824042 0.97500008 3.8152817e-39
0.093545303 0.1174292 0.97299999 4.4610098e-39
0.15353939 0.11771353 0.97299999 7.7067492e-40
0.1569514 0.11771353 0.97299999 2.603073e-39
0.087858655 0.12283151 0.97299999 2.6113631e-39
0.089655817 0.12082264 0.97399998 3.074851e-39
0.15353939 0.12197851 0.97299999 9.5218931e-40
0.15731697 0.12222223 0.97300005 3.337048e-39
0.087094203 0.12637326 0.97399998 1.7797934e-39
0.089564644 0.1270965 0.97299999 1.5049974e-39
0.15361872 0.12630883 0.97350001 1.5003254e-39
0.15796657 0.12637413 0.97399998 4.4387208e-39
0.079491749 0.129922 0.97500002 6.1810673e-39
0.082056001 0.129922 0.97500002 4.4358271e-39
0.08626955 0.12983316 0.97433341 2.60235e-39
0.089564644 0.12965548 0.97299999 1.8716233e-39
0.15361872 0.12972167 0.97350001 1.4066963e-39
0.15812875 0.12992202 0.97500002 5.9095237e-39
0.079491749 0.13248624 0.97500002 5.9026881e-39
0.082056001 0.13334098 0.97500002 4.1545585e-39
0.08519008 0.13305607 0.97500008 3.0568457e-39
0.089869067 0.13384487 0.97400004 1.8665814e-39
0.09297663 0.13477346 0.97299999 1.2273245e-39
0.15353939 0.13392048 0.97299999 1.4041669e-39
0.091458254 0.13761476 0.97500002 1.7743732e-39
0.093925186 0.13832748 0.97399998 9.4894531e-40
0.1509804 0.13818544 0.97299999 1.864401e-39
0.15361872 0.13825689 0.97350001 3.0568415e-39
0.094177663 0.14140955 0.97366667 9.4461529e-40
0.09724161 0.14245044 0.97299999 1.1308198e-39
0.15012741 0.14159745 0.97299999 1.9551813e-39
0.15300025 0.1418885 0.97500002 3.7036557e-39
0.09487725 0.14445275 0.97500002 1.4930975e-39
0.097910523 0.14572859 0.97399998 9.4497823e-40
0.10157498 0.14766954 0.97366667 1.1286506e-39
0.10577159 0.14756842 0.97299999 9.4750337e-40
0.10833057 0.14756842 0.97299999 8.5567208e-40
0.14628893 0.14714192 0.97299999 2.5958676e-39
0.15023026 0.14596353 0.97366667 3.5135107e-39
0.15289563 0.1460623 0.97433341 5.9988396e-39
0.10285492 0.15015107 0.97500008 9.4317336e-40
0.1059342 0.15035929 0.97450006 9.4425656e-40
0.10889924 0.15041174 0.97299999 1.1297338e-39
0.14188178 0.15041175 0.97299999 1.0361019e-39
0.14591298 0.15017913 0.9733333 2.6815948e-39
0.15015107 0.15015107 0.97500008 4.6130381e-39
0.11014848 0.15369749 0.97399998 9.413825e-40
0.11344855 0.15439238 0.97299999 7.5772552e-40
0.13562647 0.15439238 0.97299999 1.4038082e-39
0.13818544 0.15353939 0.97299999 9.424671e-40
0.14174384 0.15369719 0.97399998 1.121099e-39
0.1453075 0.15300025 0.97500002 2.955302e-39
0.11140241 0.15698908 0.97500008 1.5809786e-39
0.11456612 0.15759364 0.9738 6.5796148e-40
0.11783452 0.15882131 0.97400004 4.7106189e-40
0.12197851 0.15865739 0.97299999 3.8244378e-40
0.1262435 0.15865737 0.97299999 8.4594286e-40
0.12978874 0.15882131 0.97400004 8.4559955e-40
0.13381046 0.15771364 0.97375 1.2147338e-39
0.1384695 0.15727399 0.97500002 1.047891e-40
0.14160357 0.15698908 0.97500008 4.6747177e-40
0.11539125 0.16154775 0.97500002 0
0.1179555 0.16154775 0.97500002 0
0.12222925 0.16154775 0.97500008 3.6878252e-40
0.12650299 0.16154775 0.97500002 6.4896374e-40
0.12517747 0.091739655 0.97799999 1.0081334e-38
0.13032176 0.091739655 0.97799999 1.1092261e-38
0.14232507 0.090882272 0.97799999 4.9252348e-39
0.11060201 0.095169172 0.97799999 6.4003607e-39
0.11231677 0.095169172 0.97799999 8.0602421e-39
0.11831843 0.093454413 0.97799999 7.4134406e-39
0.12174796 0.093454413 0.97799999 5.2990424e-39
0.12603486 0.093454413 0.97800004 7.4130763e-39
0.13032176 0.093454413 0.97799999 9.8962416e-39
0.13289389 0.093454413 0.97799999 1.2843259e-38
0.13803819 0.093454413 0.97800004 1.063057e-38
0.14261088 0.094025999 0.97800004 4.8337496e-39
0.14575458 0.094311789 0.97799999 3.2653547e-39
0.14832674 0.093454413 0.97799999 5.9239136e-39
0.10374297 0.098598696 0.97799999 2.4384919e-39
0.10631511 0.098598696 0.97799999 4.8348567e-39
0.10974464 0.097741313 0.97799999 6.2167023e-39
0.11231677 0.096883938 0.97799999 8.0602393e-39
0.14661196 0.097741321 0.97799999 3.3568245e-39
0.14832674 0.098598696 0.97799999 3.2613961e-39
0.10202821 0.10202821 0.97799999 3.173522e-39
0.10545773 0.10031345 0.97799999 5.0196038e-39
0.1504702 0.10159952 0.97799999 2.6160337e-39
0.15432838 0.10374297 0.97799999 4.0814429e-39
0.097741321 0.1071725 0.97799999 5.2893342e-39
0.095169172 0.10974464 0.97799999 6.2087541e-39
0.096883938 0.10888726 0.97799999 5.3818927e-39
0.091168068 0.11517471 0.97800004 4.7390303e-39
0.093454413 0.11231677 0.97799999 7.4995056e-39
0.088881724 0.11803263 0.97800004 3.9989499e-39
0.086595379 0.12174796 0.97799999 2.7039105e-39
0.079736337 0.12774962 0.97799999 6.6449223e-39
0.082308471 0.12774962 0.97799999 4.0710033e-39
0.085452199 0.12603486 0.97800004 2.3300903e-39
0.086595379 0.13460866 0.97799999 2.1391956e-39
0.15775791 0.13375127 0.97799999 5.6340158e-39
0.16033006 0.13375127 0.97799999 7.8388048e-39
0.085737996 0.13632341 0.97799999 3.237993e-39
0.089596197 0.13803817 0.97799999 2.4147007e-39
0.15690053 0.13718079 0.97799999 5.6361682e-39
0.091739655 0.14146769 0.97799999 2.413256e-39
0.093454413 0.14318246 0.97799999 1.5867407e-39
0.15518576 0.14146769 0.97799999 5.8133595e-39
0.095169172 0.14661196 0.97799999 2.3192288e-39
0.095169172 0.14832674 0.97799999 1.7614182e-39
0.097741321 0.14918411 0.97799999 1.3072657e-39
0.10088505 0.15118468 0.97800004 1.3079944e-39
0.10288559 0.15432838 0.97799999 1.576657e-39
0.10631511 0.15432838 0.97799999 1.5827736e-39
0.14489721 0.15518576 0.97799999 2.8609414e-39
0.1071725 0.15690053 0.97799999 1.4724844e-41
0.10974464 0.15775791 0.97799999 1.9912311e-40
0.11317416 0.16033006 0.97799999 0
0.12946437 0.16204481 0.97799999 7.1900624e-42
0.13375127 0.16204481 0.97799999 1.8763246e-40
0.13803819 0.16033006 0.97800004 9.8322107e-41
0.126233 0.086551547 0.98400009 8.2406607e-39
0.12991358 0.086436532 0.98400003 7.3194345e-39
0.13436538 0.086993821 0.98250002 6.8573773e-39
0.13674159 0.086861007 0.98100001 6.9477737e-39
0.11386848 0.090577193 0.98400003 9.7154251e-39
0.118613 0.090145878 0.98400003 8.3332249e-39
0.12240086 0.08964552 0.98325002 8.9767922e-39
0.12575345 0.089576483 0.98250002 1.1459938e-38
0.13006008 0.089576483 0.98250002 1.0724901e-38
0.13426347 0.089508757 0.98175001 9.8033215e-39
0.1376016 0.089441031 0.98100001 9.5260186e-39
0.14018163 0.090301044 0.98100001 7.5909949e-39
0.10265416 0.095753044 0.98400003 3.6301828e-39
0.10594296 0.094744436 0.98250008 3.6381085e-39
0.10990594 0.094409987 0.98200005 7.8715321e-39
0.1136949 0.093021788 0.98250002 8.8860231e-39
0.11748011 0.092521429 0.98175001 7.6892932e-39
0.12212142 0.09202107 0.98100001 7.3215813e-39
0.12814149 0.09202107 0.98100001 1.1184466e-38
0.13444823 0.092594415 0.98100007 1.3486461e-38
0.1376016 0.09202107 0.98100001 1.2840001e-38
0.14018163 0.09202107 0.98100001 8.0479752e-39
0.14992841 0.094887763 0.98100007 5.7413104e-39
0.10249767 0.098189726 0.98250002 4.2741046e-39
0.10578123 0.097181126 0.98100007 3.6370379e-39
0.14992839 0.097754471 0.98100007 4.1804713e-39
0.15331584 0.098189734 0.98250002 6.28765e-39
0.099203601 0.10265416 0.98400003 3.2646429e-39
0.1011945 0.1011945 0.98100007 4.000389e-39
0.15336844 0.1011945 0.98100007 4.266916e-39
0.094386093 0.10731649 0.98325002 7.3147514e-39
0.098115429 0.10500078 0.98175001 5.6570307e-39
0.090577193 0.11041792 0.98400003 6.7644446e-39
0.092881083 0.11008128 0.98100001 7.3161807e-39
0.089910053 0.11403944 0.98300004 5.7524703e-39
0.09202107 0.11266131 0.98100001 7.4076855e-39
0.087126635 0.11904432 0.98400003 3.3528616e-39
0.088581026 0.11610134 0.98100001 4.7357848e-39
0.082749665 0.12584879 0.98325002 3.7976576e-39
0.085401356 0.12508281 0.98400003 2.7917859e-39
0.086000994 0.1384616 0.98100001 3.2325924e-39
0.15910184 0.1376016 0.98100001 7.4682146e-39
0.16082187 0.1376016 0.98100001 7.6522457e-39
0.086861007 0.14018163 0.98100001 2.1291119e-39
0.089508757 0.14115012 0.98175001 2.7788029e-39
0.09202107 0.14362165 0.98100001 2.872795e-39
0.15566181 0.14362165 0.98100001 6.5480407e-39
0.15824184 0.14190166 0.98100007 7.7462266e-39
0.16082187 0.14018163 0.98100001 8.757859e-39
0.093261555 0.14606319 0.98200005 1.7657145e-39
0.15613784 0.14578615 0.98400003 7.099411e-39
0.094744429 0.14986923 0.98250002 1.2975617e-39
0.097181126 0.15050174 0.98100001 8.4483864e-40
0.095753044 0.15268727 0.98400003 2.0279535e-39
0.098272577 0.15369193 0.98159999 3.7346846e-40
0.10062116 0.15480179 0.98100001 3.7417191e-40
0.099203601 0.15786313 0.98400003 9.1856516e-41
0.10187217 0.15811735 0.98200005 0
0.10563131 0.15870577 0.98280001 3.9726811e-42
0.10922126 0.15910184 0.98100001 8.3695073e-40
0.10783 0.16131368 0.98400003 8.4077908e-45
0.1103331 0.16205336 0.98325002 1.4012985e-45
0.11369358 0.16279042 0.98250002 0
0.13158153 0.16254188 0.98100001 4.6422496e-40
0.1376016 0.16254188 0.98100001 1.0155967e-39
0.14018163 0.16254188 0.98100001 1.9357579e-39
0.11473113 0.16476424 0.98400003 8.4077908e-45
0.11782136 0.16426191 0.98100007 7.0064923e-45
0.12212142 0.16426191 0.98100001 0
0.12575476 0.16451308 0.98250002 0
0.13025865 0.16476426 0.98400009 9.3277432e-41
0.12200306 0.086527005 0.98699999 8.4243471e-39
0.12546416 0.085661724 0.98699999 8.5165315e-39
0.10556294 0.090853348 0.98699999 5.5695084e-39
0.11161982 0.090853348 0.98699999 1.0083479e-38
0.11421563 0.089122802 0.98699999 9.5310338e-39
0.11767671 0.089122802 0.98699999 8.6090901e-39
0.10296712 0.094314426 0.98699999 3.2613905e-39
0.10556294 0.092583887 0.98699999 2.075473e-39
0.10988929 0.092583887 0.98699999 8.9771594e-39
0.10123658 0.097775504 0.98699999 5.1042283e-39
0.09864077 0.10210185 0.98699999 4.3699072e-39
0.094314426 0.10642821 0.98699999 9.2479757e-39
0.096044965 0.10469767 0.98699999 6.8512621e-39
0.090853348 0.10815874 0.98699999 7.3179856e-39
0.087392263 0.1150809 0.98699999 2.9901888e-39
0.089122802 0.11335036 0.98699999 6.1223192e-39
0.087392263 0.11681144 0.98699999 4.2748067e-39
0.085661732 0.12200306 0.98699999 2.9790526e-39
0.090853348 0.14450008 0.98699999 8.4449112e-40
0.092583887 0.14796115 0.98699999 8.3552141e-40
0.09344916 0.15055697 0.98699999 1.4790733e-39
0.10815874 0.16353603 0.98699999 1.4012985e-45
0.13065577 0.1669971 0.98699999 8.2759987e-40
0.13411686 0.16584341 0.98699999 6.4753442e-40
0.13757792 0.16526656 0.98699999 1.2014341e-39
0.11827284 0.082617059 0.99199998 8.2395915e-39
0.12225029 0.082367212 0.98900002 8.3307096e-39
0.12696938 0.082617059 0.99199998 8.6040581e-39
0.098840654 0.087569356 0.98900002 8.0498053e-39
0.10230875 0.086702332 0.98900002 7.4977091e-39
0.10560345 0.086182117 0.98900002 7.0435833e-39
0.11462023 0.085963748 0.99049997 8.5176232e-39
0.11809444 0.085963741 0.99049997 7.7815001e-39
0.12225029 0.08410126 0.98900002 7.6882198e-39
0.12658539 0.08410126 0.98900002 7.3183541e-39
0.12918648 0.08410126 0.98900002 7.6849926e-39
0.097973637 0.090170428 0.98900002 7.2214865e-39
0.10230875 0.090170421 0.98900002 4.1855174e-39
0.10577685 0.089303404 0.98900002 4.9295732e-39
0.10941063 0.090305865 0.99049997 8.518349e-39
0.11218527 0.089574285 0.99199998 9.7154195e-39
0.09479221 0.09479221 0.99199998 6.3027602e-39
0.098120473 0.093780987 0.99050009 6.1183844e-39
0.10201975 0.093349516 0.98900002 3.5404969e-39
0.093922555 0.097401172 0.99199998 6.7619461e-39
0.098337673 0.097904153 0.99049997 5.2904202e-39
0.08696533 0.10261908 0.99199998 6.7601511e-39
0.090443939 0.10174944 0.99200004 7.8693797e-39
0.093827002 0.10164599 0.99099994 8.789178e-39
0.096746087 0.10151735 0.98975003 5.9321883e-39
0.086965337 0.1060977 0.99199998 7.4973448e-39
0.090374902 0.10601683 0.99125004 8.0526919e-39
0.093349516 0.10548785 0.98900002 9.341986e-39
0.086181588 0.11006023 0.99050003 5.3808025e-39
0.089393698 0.11022155 0.99000001 6.488955e-39
0.082617059 0.11566389 0.99199998 5.3610176e-39
0.085384846 0.11404133 0.99050009 3.996443e-39
0.082617059 0.11827284 0.99199998 4.8096375e-39
0.085095838 0.11809401 0.99049997 3.2581745e-39
0.082450494 0.12237215 0.99000001 4.9918665e-39
0.08410126 0.12225029 0.98900002 2.5177158e-39
0.080877751 0.12523007 0.99199998 5.9113173e-39
0.08988142 0.14594893 0.98900002 5.3921965e-42
0.090307184 0.1493555 0.99049997 3.5873241e-43
0.0927715 0.15172908 0.98900002 1.4765552e-39
0.091313593 0.15218931 0.99199998 2.1219246e-39
0.09479221 0.15392864 0.99199998 1.5669768e-39
0.096239582 0.15519717 0.98900002 1.460153e-42
0.098122232 0.15803888 0.99049997 8.2761948e-40
0.10664387 0.16213337 0.98900002 1.2611686e-44
0.12957834 0.16784307 0.99199998 9.1835496e-41
0.13479626 0.16784307 0.99199998 1.5673257e-39
0.11077998 0.082866915 0.995 1.0074872e-38
0.11339682 0.082866915 0.995 9.1583234e-39
0.11601368 0.082866915 0.995 8.7920366e-39
0.11019846 0.085774526 0.99500006 8.5179791e-39
0.11252454 0.08548376 0.995 8.9768133e-39
0.10990769 0.088100612 0.995 8.2432013e-39
0.11252454 0.088100612 0.995 9.5321226e-39
0.094206601 0.094206601 0.995 7.0367393e-39
0.091589741 0.097695723 0.995 7.221125e-39
0.082866915 0.10380171 0.995 9.131333e-39
0.085047618 0.101621 0.995 6.7504246e-39
0.088100612 0.10031258 0.995 7.0363596e-39
0.082866915 0.10554628 0.995 8.4906327e-39
0.084611475 0.10641856 0.995 6.2033507e-39
0.082866915 0.11077998 0.995 7.0201872e-39
0.082866915 0.11339682 0.995 6.6499572e-39
0.095078878 0.1561387 0.995 9.4734783e-41
0.10554628 0.16311698 0.995 1.6815582e-44
0.10729085 0.16486154 0.995 3.657389e-43
0.10936416 0.08311677 0.99800003 1.03511e-38
0.10761434 0.084866591 0.99800003 8.791336e-39
0.10936416 0.084866591 0.99800003 8.4236269e-39
0.095365554 0.091865897 0.99800003 7.2222152e-39
0.091865897 0.095365554 0.99800003 6.9431102e-39
0.089532807 0.098281935 0.99800003 7.8614497e-39
0.082241856 0.10236486 0.99800003 8.7600268e-39
0.081804395 0.10630196 0.99800003 7.7523502e-39
0.08311677 0.10936416 0.99800003 7.8477815e-39
0.081366941 0.1181133 0.99800003 5.731235e-39
0.081366941 0.12161295 0.99800003 5.4542726e-39
0.093615726 0.15485966 0.99800003 1.1099447e-39
0.10411468 0.16360879 0.99800003 1.8202867e-42
0.090522408 0.094915383 1.0025001 9.6924143e-39
0.093157664 0.094037831 1.0025001 8.6869224e-39
0.081611529 0.11057046 1.001 7.3878865e-39
0.081611529 0.11408064 1.001 6.7421528e-39
0.07985644 0.11846835 1.001 8.5766991e-39
0.07985644 0.12022344 1.001 8.0246127e-39
0.090928733 0.15449058 1.007 3.1353521e-39
