# .PCD v0.7 - Point Cloud Data file format
VERSION 0.7
FIELDS x y z rgb
SIZE 4 4 4 4
TYPE F F F F
COUNT 1 1 1 1
WIDTH 964
HEIGHT 1
VIEWPOINT 0 0 0 1 0 0 0
POINTS 964
DATA ascii
-0.017599959 0.062856995 0.95599997 1.3263516e-38
-0.015085679 0.062856995 0.95599997 1.6125893e-38
-0.017599959 0.064533181 0.95599997 1.1062727e-38
-0.015085679 0.064533181 0.95599997 9.9606831e-39
0.030266037 0.058850627 0.95899999 1.8162207e-38
-0.019336635 0.063054249 0.95899999 1.464645e-38
-0.019336635 0.064735696 0.95899999 1.4658717e-38
-0.013171332 0.065856665 0.95899999 1.4656211e-38
-0.010088679 0.065576419 0.95899999 1.492811e-38
-0.0067257863 0.065576419 0.95899999 1.7418468e-38
-0.026198305 0.057467252 0.96399993 2.0553087e-38
0.027830658 0.059034731 0.96200001 1.8254791e-38
0.033804268 0.058312356 0.96399999 1.2076525e-38
-0.025860263 0.060678657 0.96399993 1.603769e-38
-0.021950856 0.063317239 0.963 1.4839213e-38
0.021927185 0.062408142 0.96200001 1.9636932e-38
0.025916606 0.061974481 0.96399993 1.6504453e-38
0.032959159 0.060002569 0.96399999 1.3918281e-38
-0.021950856 0.065005705 0.963 1.751393e-38
-0.016023712 0.06662491 0.96200001 1.6779599e-38
-0.0042167665 0.06662491 0.96200001 1.2622112e-38
-0.0016867067 0.06662491 0.96200001 1.1887806e-38
0.0016867067 0.06662491 0.96200001 1.0878654e-38
0.0050601196 0.06662491 0.96200001 1.2905125e-38
0.022817878 0.065073207 0.96399999 1.5672143e-38
0.024508093 0.065073207 0.96399999 1.6317165e-38
-0.016057026 0.06845364 0.96399999 1.8069252e-38
-0.013515132 0.069263242 0.96349996 1.769975e-38
-0.010415385 0.068969712 0.96333331 1.5210467e-38
-0.0055692876 0.069014713 0.96240008 1.3829315e-38
-0.0016890445 0.070096515 0.96333331 1.5211895e-38
0.0016878755 0.070048004 0.96266669 1.4841648e-38
0.0056965793 0.069823429 0.96249998 1.6131676e-38
0.0092961732 0.069298744 0.96399999 1.6317884e-38
0.0016902132 0.073524274 0.96399999 1.9358902e-38
0.0050706398 0.073524274 0.96399999 1.9451445e-38
-0.029670782 0.057646088 0.96700001 1.6959231e-38
-0.029670782 0.060189299 0.96700001 1.539483e-38
-0.027975308 0.061884776 0.96700001 1.8159273e-38
0.030518519 0.061884776 0.96700001 1.475201e-38
-0.018650208 0.06697119 0.96700001 1.7884858e-38
0.018650208 0.066123456 0.96700001 1.5765802e-38
0.021758575 0.066406034 0.96700001 1.6778859e-38
0.025432099 0.066123456 0.96700001 1.6685956e-38
-0.016106997 0.070362143 0.96700001 1.8068879e-38
-0.0093251029 0.070362143 0.96700001 1.7792309e-38
-0.0076296297 0.070362143 0.96700001 1.7884505e-38
-0.013563786 0.072057612 0.96700001 1.8436585e-38
-0.01017284 0.072057612 0.96700001 1.8160007e-38
-0.0055950619 0.072735801 0.96700001 1.8620986e-38
-0.0014128945 0.074318245 0.96700001 1.8989748e-38
0.0016954732 0.075448565 0.96700001 1.8712819e-38
0.0063580247 0.07417696 0.96700001 1.8713545e-38
0.0093251029 0.072905347 0.96700001 1.8345128e-38
-0.025511 0.063777499 0.97000003 1.7792662e-38
0.028912466 0.063777499 0.97000003 1.5953071e-38
0.0331643 0.06207677 0.97000003 1.2352397e-38
-0.021259166 0.067178965 0.97000003 1.8803923e-38
0.011054766 0.067178965 0.97000003 1.4842733e-38
0.013605866 0.067178965 0.97000003 1.5304441e-38
0.016156966 0.067178965 0.97000003 1.5766509e-38
0.026361367 0.067178965 0.97000003 1.677816e-38
-0.018424612 0.069446608 0.97000003 1.8160726e-38
0.011054766 0.069730058 0.97000003 1.6869977e-38
0.013605866 0.069730058 0.97000003 1.7607539e-38
0.017857701 0.069730066 0.97000015 1.8161076e-38
0.022109533 0.068879694 0.97000003 1.8069249e-38
0.024660634 0.068879694 0.97000003 1.70551e-38
-0.016156966 0.072281167 0.97000003 1.8160353e-38
-0.013605866 0.073981896 0.97000003 1.7789768e-38
-0.0099209435 0.074548811 0.97000003 1.7145133e-38
-0.0063777501 0.07525745 0.97000003 1.7975257e-38
-0.0025511 0.075682633 0.97000003 1.8436583e-38
0.0076533002 0.075682633 0.97000003 1.8436965e-38
0.010629582 0.074407078 0.97000003 1.7607192e-38
0.013322411 0.072848082 0.97000003 1.8898288e-38
0.016156966 0.072281167 0.97000003 1.8437664e-38
-0.0017007333 0.077383369 0.97000003 1.6315361e-38
0.0017007333 0.077383369 0.97000003 1.5762916e-38
0.0059525669 0.077383369 0.97000003 1.576221e-38
0.0093540326 0.077383369 0.97000003 1.5210484e-38
-0.029032569 0.063185751 0.97399998 1.5578884e-38
-0.029916249 0.064106248 0.97500002 1.4288874e-38
-0.025642499 0.065815754 0.97500002 1.7607545e-38
-0.02307825 0.067525245 0.97500002 1.8435501e-38
0.028206749 0.0666705 0.97500002 1.687107e-38
-0.021368749 0.070089497 0.97500002 1.7513189e-38
-0.019618923 0.070798725 0.97299999 1.7146221e-38
0.022223499 0.07094425 0.97500002 1.7793021e-38
0.025615323 0.070018485 0.97399998 1.6409017e-38
-0.018269559 0.073589325 0.9738 1.6131692e-38
-0.013647947 0.0759167 0.97299999 1.6590153e-38
-0.011088956 0.0759167 0.97299999 1.7328443e-38
0.013647947 0.075063705 0.97299999 1.8252905e-38
0.018277623 0.073619135 0.97420007 1.834547e-38
0.022223499 0.073508501 0.97500002 1.7331687e-38
-0.016240248 0.076072745 0.97500002 1.6312843e-38
-0.01282125 0.077782243 0.97500002 1.5762937e-38
-0.0099656545 0.078298897 0.97433329 1.7329523e-38
-0.0059771137 0.078557216 0.97399998 1.6867462e-38
-0.0017095 0.079491749 0.97500002 1.6407916e-38
0.0017059932 0.079328686 0.97299999 1.6315717e-38
0.0059832502 0.079491749 0.97500008 1.5761843e-38
0.010534319 0.078868732 0.97433329 1.5395926e-38
0.013960917 0.077212416 0.97500008 1.816072e-38
0.017522374 0.076500118 0.97500002 1.825328e-38
0.0017095 0.081201248 0.97500002 1.6406831e-38
0.035152577 0.061731353 0.97799999 1.2625363e-38
0.036867339 0.062588736 0.97799999 9.8576905e-39
-0.029150918 0.066018254 0.97799999 1.4750226e-38
-0.025721397 0.06773302 0.97799999 1.6132415e-38
0.030579885 0.066018254 0.97800004 1.7700109e-38
0.033437818 0.064303495 0.97799999 1.2259482e-38
-0.025721397 0.069447778 0.97799999 1.5212241e-38
-0.023149259 0.069447778 0.97799999 1.7881614e-38
0.026578778 0.071162537 0.97799999 1.6131717e-38
0.028293537 0.069447778 0.97799999 1.714587e-38
-0.021434499 0.073734671 0.97799999 1.6594458e-38
0.025435604 0.073448882 0.97800004 1.6315377e-38
-0.01800498 0.076878414 0.97800004 1.5853663e-38
-0.014003873 0.079164751 0.97800004 1.484204e-38
-0.011145939 0.079736337 0.97799999 1.6595188e-38
0.01371808 0.079736337 0.97799999 1.8254712e-38
0.01800498 0.078593165 0.97800004 1.7886296e-38
0.02229188 0.07630682 0.97799999 1.696327e-38
-0.0094311787 0.081451096 0.97799999 1.6960013e-38
-0.0060016601 0.081451103 0.97800004 1.6498329e-38
-0.00171476 0.081451096 0.97799999 1.6684849e-38
0.0060016601 0.081451103 0.97800004 1.622282e-38
0.010288559 0.081451096 0.97799999 1.5855485e-38
0.031820368 0.066220768 0.98100001 1.779086e-38
0.034687068 0.065647423 0.98100007 9.5836399e-39
0.036980428 0.064500742 0.98100001 9.2137952e-39
-0.02889844 0.069442518 0.98400003 1.290776e-38
-0.025800299 0.071380831 0.98100001 1.5579241e-38
-0.023220269 0.071380831 0.98100001 1.7145125e-38
0.030483276 0.070088975 0.98220009 1.6777081e-38
-0.025016559 0.073324397 0.98400003 1.6591228e-38
-0.02329128 0.07418704 0.98400003 1.6686654e-38
0.026660308 0.074820869 0.98100001 1.6777081e-38
0.029013284 0.073824972 0.98300004 1.705008e-38
-0.021566 0.077637598 0.98400003 1.5948385e-38
-0.018060211 0.078834251 0.98100007 1.6223895e-38
0.01892022 0.079980925 0.98100001 1.7977772e-38
0.022360258 0.078260913 0.98100001 1.7055096e-38
0.02583975 0.077520564 0.98250002 1.6500495e-38
-0.018460495 0.081260689 0.98400003 1.6591595e-38
-0.013781199 0.082688518 0.98250002 1.6039863e-38
-0.01060679 0.082847625 0.98100007 1.6315736e-38
-0.0060200705 0.083420962 0.98100007 1.7605039e-38
-0.00172002 0.083420962 0.98100001 1.5948045e-38
0.00172002 0.083420962 0.98100001 1.6221001e-38
0.0060200701 0.083420962 0.98100007 1.7513913e-38
0.01032012 0.083420962 0.98100001 1.7238415e-38
0.013781199 0.08268851 0.98250002 1.8621349e-38
0.017760389 0.082590938 0.98340005 1.8068527e-38
0.022428639 0.08022552 0.98400003 1.64101e-38
-0.012939599 0.085401356 0.98400003 1.521007e-38
-0.01035168 0.085401356 0.98400003 1.5854749e-38
-0.0056038722 0.08576759 0.98325002 1.8434793e-38
-0.00172265 0.086133815 0.98250002 1.6867486e-38
0.0017246226 0.086198904 0.98325002 1.5020302e-38
0.0060332203 0.086177215 0.98300004 1.871099e-38
0.01035168 0.085401356 0.98400003 1.8897213e-38
0.033745527 0.069654234 0.98699999 1.0231876e-38
-0.029130755 0.074701637 0.98699999 1.6407231e-38
-0.026246523 0.074701637 0.98699999 1.5762539e-38
0.030284448 0.075278483 0.98699999 1.4745909e-38
0.032014988 0.073547944 0.98699999 1.2997764e-38
-0.023362288 0.07700903 0.98699999 1.5763635e-38
0.028553909 0.07700903 0.98699999 1.769904e-38
-0.021631747 0.080470107 0.98699999 1.6040945e-38
-0.016440129 0.083931185 0.98699999 1.6961112e-38
0.019901209 0.083931185 0.98699999 1.806817e-38
0.022208594 0.082777493 0.98699999 1.6685966e-38
0.025958098 0.081335381 0.98699999 1.6961453e-38
-0.014709589 0.085661724 0.98699999 1.5392727e-38
-0.0060568899 0.087392263 0.98699999 1.769723e-38
0.010383239 0.087392263 0.98699999 1.8252907e-38
0.013555897 0.086238563 0.98699999 1.8436592e-38
0.016440129 0.085661724 0.98699999 1.7975624e-38
0.0069221593 0.089122802 0.98699999 1.0782187e-38
0.042613011 0.033916481 0.99199998 2.3509886e-38
0.044352319 0.033916481 0.99199998 6.6380854e-39
0.042613011 0.03739509 0.99199998 2.3509886e-38
0.044352319 0.03739509 0.99199998 5.3473465e-39
-0.032079868 0.07022889 0.98900002 1.3828952e-38
-0.030345816 0.071095914 0.98900002 1.4935688e-38
0.034969941 0.071384922 0.98900002 7.9284164e-39
0.037282001 0.071095914 0.98900002 9.1273463e-39
-0.032079864 0.073696986 0.98900002 1.4469287e-38
-0.030345816 0.073696986 0.98900002 1.6313236e-38
0.03383955 0.074621208 0.98975003 9.3099481e-39
-0.028698558 0.077399142 0.99199998 1.7236617e-38
-0.025747117 0.077822864 0.99000001 1.6225687e-38
-0.023409629 0.078899123 0.98900002 1.6502276e-38
0.029767802 0.078321114 0.98900002 1.4286718e-38
0.032177169 0.078268796 0.99199998 1.041485e-38
-0.022578111 0.081622481 0.99049997 1.6040584e-38
0.029524818 0.081623793 0.99050003 1.2720102e-38
0.032177169 0.081747405 0.99199998 8.7542436e-39
-0.021741332 0.084356368 0.99199998 1.5303386e-38
-0.01820749 0.084679276 0.98900002 1.6130632e-38
-0.013914453 0.087834984 0.99199998 1.5578169e-38
-0.01040428 0.087569356 0.98900002 1.4934242e-38
-0.0078032096 0.087569356 0.98900002 1.7239151e-38
0.014739396 0.087569356 0.98900002 1.7609e-38
0.018221296 0.086768739 0.98975003 1.7608271e-38
0.022286473 0.086546145 0.99049997 1.6501196e-38
0.02605015 0.085098475 0.99049997 1.659233e-38
0.028698558 0.084356368 0.99199998 1.4659065e-38
-0.010145955 0.090154052 0.99199998 1.5578902e-38
-0.0060801217 0.090307623 0.99050009 1.7421726e-38
-0.0017340466 0.090170428 0.98900002 8.4827294e-39
0.0017340465 0.090170421 0.98900002 9.8587485e-39
0.0056494591 0.090811044 0.99125004 9.6761411e-39
0.01042006 0.090308502 0.99049997 1.5303009e-38
0.013893412 0.090308502 0.99049997 1.8068164e-38
0.017393064 0.089574285 0.99199998 1.7699748e-38
-0.0052179196 0.093052901 0.99199998 1.6314305e-38
-0.0017393066 0.093052901 0.99199998 7.2845085e-39
0.0017393066 0.093052901 0.99199998 2.4838674e-39
0.0043482664 0.093052901 0.99199998 2.8526401e-39
0.046231017 0.034891333 0.995 3.5023409e-39
0.046231017 0.038816608 0.995 5.2522502e-39
0.046231017 0.041869603 0.995 7.1887326e-39
0.047103301 0.044486448 0.995 8.0202813e-39
0.035763618 0.075888649 0.995 8.6670927e-39
0.037508182 0.075016364 0.995 9.2195476e-39
0.034019049 0.078505501 0.995 9.9542315e-39
-0.020062516 0.086356044 0.995 1.5486683e-38
-0.018317949 0.086356044 0.995 1.5762909e-38
0.029657632 0.08548376 0.995 1.1154514e-38
-0.016573383 0.088100612 0.995 1.576114e-38
-0.01308425 0.089845181 0.995 1.5488496e-38
-0.011339683 0.091589741 0.995 1.585691e-38
0.017445665 0.091589741 0.995 1.7607558e-38
0.021458169 0.090543009 0.995 1.5948387e-38
0.026168499 0.088100612 0.995 1.5577819e-38
-0.0061059827 0.094206601 0.995 1.6776715e-38
-0.0017445666 0.095078878 0.995 9.1277233e-39
0.0017445666 0.095078878 0.995 2.7550649e-39
0.0061059827 0.094206601 0.995 8.6653004e-39
0.010467399 0.093334317 0.995 1.8345856e-38
0.013956534 0.093334317 0.995 1.788306e-38
0.041995838 0.027122313 0.99800003 2.1298279e-38
-0.038204551 0.03003869 0.99800003 2.3509886e-38
-0.035871446 0.029747054 0.99800003 2.3509886e-38
0.041995842 0.029747054 0.99800003 2.3509886e-38
0.044620581 0.029747054 0.99800003 4.7938196e-39
-0.041120928 0.034121618 0.99800003 1.4100976e-38
-0.038496189 0.033246703 0.99800003 2.3509886e-38
-0.035871446 0.032371793 0.99800003 2.3509886e-38
0.041120928 0.034121618 0.99800003 2.3509886e-38
0.041704204 0.038787827 0.99800003 2.3509886e-38
0.042870753 0.041995838 0.99800003 2.3509886e-38
0.042870753 0.044620581 0.99800003 2.3509617e-38
0.045203857 0.045787133 0.99800003 6.4478913e-39
0.048120234 0.046370406 0.99800003 9.6801754e-39
0.045495495 0.048120234 0.99800003 9.3024204e-39
-0.02887214 0.079617113 0.99800003 1.696255e-38
-0.027122313 0.079617113 0.99800003 1.6594469e-38
0.035871446 0.078742199 0.99800003 9.7727242e-39
-0.02887214 0.081366941 0.99800003 1.7329141e-38
-0.025955763 0.081950217 0.99800003 1.6500121e-38
-0.02362266 0.08311677 0.99800003 1.6040222e-38
0.034121618 0.081366941 0.99800003 1.0871133e-38
-0.022747748 0.085741505 0.99800003 1.511828e-38
0.030621966 0.086616419 0.99800003 8.3871693e-39
-0.020123007 0.088366248 0.99800003 1.5762912e-38
-0.017498266 0.089241162 0.99800003 1.5394861e-38
-0.013998613 0.09099099 0.99800003 1.6225342e-38
0.02362266 0.091865897 0.99800003 1.6961813e-38
0.026247401 0.090116076 0.99800003 1.4932448e-38
0.029747054 0.088366248 0.99800003 1.1335704e-38
-0.01049896 0.093615726 0.99800003 1.6593407e-38
0.0078742197 0.095365554 0.99800003 1.6130295e-38
0.01049896 0.095365554 0.99800003 1.8619197e-38
0.013123699 0.095365554 0.99800003 1.8066361e-38
0.016623352 0.093615726 0.99800003 1.7606476e-38
-0.0043745665 0.097115375 0.99800003 1.6961109e-38
-0.0017498266 0.097115375 0.99800003 1.3645669e-38
0.0017498266 0.097115375 0.99800003 1.1431887e-38
0.0043745665 0.097115375 0.99800003 1.2075126e-38
0.033808403 0.022245666 1.0035714 2.3509886e-38
0.037449092 0.022327997 1.0028 2.3509886e-38
0.034290817 0.026378898 1.003 2.3509886e-38
0.038611908 0.026326301 1.001 2.3509886e-38
0.041244537 0.025448756 1.001 1.9638388e-38
-0.033739977 0.030219283 1.0039999 2.3509886e-38
0.034877598 0.029603571 1.003 2.3509886e-38
0.038106948 0.03003039 1.0016001 2.3509886e-38
-0.041244537 0.035979275 1.001 1.493251e-38
-0.038611908 0.035979275 1.001 2.3509886e-38
-0.034256626 0.033964992 1.0020001 2.3509886e-38
-0.030806065 0.033446584 1.0039999 2.3509886e-38
0.034326758 0.03256641 1.0039999 2.3509886e-38
0.038337365 0.033655383 1.0015 2.3509886e-38
-0.041244537 0.038611908 1.001 1.2256659e-38
-0.038611908 0.038611908 1.001 2.3509886e-38
-0.03494674 0.038106944 1.0016 2.3509886e-38
0.03850425 0.038153231 1.0028 2.3509886e-38
-0.037789591 0.042186514 1.0025001 2.3509886e-38
-0.034877598 0.041913725 1.003 2.3509886e-38
0.03866845 0.042185199 1.0025001 2.3509886e-38
0.041244537 0.042122081 1.001 2.3509886e-38
0.038698036 0.045735478 1.0032499 2.3509886e-38
0.041829567 0.045924768 1.0010002 2.1936771e-38
0.039607797 0.048409529 1.0039999 2.3509886e-38
0.042122081 0.048264883 1.001 1.1607674e-38
-0.030714015 0.078978896 1.001 1.3273285e-38
-0.029836472 0.082489073 1.001 1.5300831e-38
-0.027203845 0.083366618 1.001 1.7330235e-38
0.035979275 0.081611529 1.001 9.6805257e-39
-0.029045718 0.085376807 1.0039999 1.6777772e-38
-0.026326301 0.085121706 1.001 1.6594488e-38
-0.02106104 0.08950942 1.001 1.5762925e-38
-0.018428411 0.090386964 1.001 1.5669645e-38
0.02895893 0.090386964 1.001 1.1336468e-38
-0.020213742 0.093160287 1.0025001 1.6037349e-38
-0.017406391 0.09371601 1.0028 1.6223906e-38
-0.014241976 0.094419099 1.0028 1.5303034e-38
-0.01053052 0.09565223 1.001 1.604239e-38
-0.0070203468 0.09565223 1.001 1.5856557e-38
0.014918236 0.09565223 1.001 1.7882708e-38
0.017861791 0.095162749 1.0020001 1.7606481e-38
0.021109035 0.094988361 1.0032499 1.5670366e-38
0.026367065 0.09228012 1.0025001 1.4197401e-38
0.029045718 0.092418194 1.0039999 8.9415117e-39
-0.013202599 0.097699232 1.0039999 1.6407926e-38
-0.010547615 0.097553268 1.0025001 1.6500839e-38
-0.0065048658 0.098638676 1.0028 1.6591965e-38
-0.0017603465 0.099459581 1.0039999 1.5676477e-38
0.0017603465 0.099459581 1.0039999 1.604239e-38
0.0065048668 0.098638676 1.0028 1.5948408e-38
0.0105463 0.098433442 1.0024999 1.6869638e-38
0.013776232 0.098188713 1.003 1.7606829e-38
0.017603464 0.097699232 1.0039999 1.769867e-38
0.020243986 0.097699232 1.0039999 1.5762909e-38
-0.030015312 0.018538868 1.007 2.3509886e-38
-0.02618983 0.017950334 1.007 2.3509886e-38
-0.023835689 0.017656066 1.007 2.3509886e-38
-0.032663722 0.021187279 1.007 2.3509886e-38
-0.03001531 0.022070084 1.007 2.3509886e-38
-0.026778366 0.020893013 1.007 2.3509886e-38
-0.023835689 0.020304475 1.007 2.3509886e-38
0.030898115 0.023835689 1.007 2.3509886e-38
-0.033546522 0.026484096 1.007 2.3509886e-38
-0.030898115 0.026484098 1.007 2.3509886e-38
0.030898115 0.025601294 1.007 2.3509886e-38
-0.032663722 0.029132508 1.007 2.3509886e-38
-0.030898115 0.030015312 1.007 2.3509886e-38
0.030898115 0.030015312 1.007 2.3509886e-38
0.032663722 0.030015312 1.007 2.3509886e-38
0.033546522 0.033546522 1.007 2.3509886e-38
0.036194935 0.034429327 1.007 2.3509886e-38
-0.032663725 0.037960541 1.007 2.3509886e-38
-0.030898115 0.037960541 1.007 2.3509886e-38
0.034429327 0.036194935 1.007 2.3509886e-38
0.036194935 0.03707774 1.007 2.3509886e-38
-0.032663722 0.041491754 1.007 2.3509886e-38
0.038843341 0.049436983 1.007 2.3509886e-38
0.041491754 0.050319787 1.007 9.1273674e-39
0.045022968 0.050319787 1.007 9.4928498e-39
-0.030015312 0.087397523 1.007 1.2259125e-38
-0.026484098 0.087397523 1.007 1.6316829e-38
-0.023835689 0.087397523 1.007 1.5302677e-38
-0.030015312 0.089163132 1.007 1.1705956e-38
-0.027366901 0.089163132 1.007 1.6593769e-38
-0.022952884 0.090045929 1.007 1.6133144e-38
-0.022070082 0.09269435 1.007 1.6132418e-38
0.023835689 0.094459943 1.007 1.7145847e-38
-0.020304475 0.09622556 1.007 1.4841326e-38
-0.017656066 0.097108364 1.007 1.6130987e-38
-0.014124852 0.098873965 1.007 1.6774561e-38
-0.01059364 0.09975677 1.007 1.5944439e-38
0.015007655 0.09975677 1.007 1.7514649e-38
0.017656066 0.09975677 1.007 1.6962191e-38
0.02207008 0.097991168 1.007 1.6223907e-38
-0.0061796228 0.10152237 1.007 1.6500505e-38
-0.0017656065 0.10152237 1.007 1.6778491e-38
0.00088280329 0.10152237 1.007 1.6963253e-38
0.0070624258 0.10152237 1.007 1.7423141e-38
0.01059364 0.10152237 1.007 1.7699378e-38
0.013242049 0.10152237 1.007 1.7422801e-38
-0.021781659 0.014344019 1.0100001 2.3509886e-38
-0.03276103 0.018594099 1.01 2.3509886e-38
-0.027448433 0.016823232 1.01 2.3509886e-38
-0.021250401 0.017708667 1.01 2.3509886e-38
0.03010473 0.018594099 1.01 2.3509886e-38
0.033646464 0.018594099 1.01 2.3509886e-38
-0.033646464 0.023906698 1.01 2.3509886e-38
-0.026267856 0.023316411 1.01 2.3509886e-38
-0.021781659 0.021427486 1.0100001 2.3509886e-38
0.029927645 0.021781659 1.0100001 2.3509886e-38
-0.029219298 0.026563 1.01 2.3509886e-38
-0.027448433 0.026563 1.01 2.3509886e-38
0.029809587 0.026858144 1.01 2.3509886e-38
-0.029219298 0.03010473 1.01 2.3509886e-38
-0.027448433 0.03010473 1.01 2.3509886e-38
-0.029219298 0.033646464 1.01 2.3509886e-38
-0.027448433 0.03276103 1.01 2.3509886e-38
0.030990165 0.03276103 1.01 2.3509886e-38
0.03276103 0.034531899 1.01 2.3509886e-38
-0.029219298 0.037188198 1.01 2.3509886e-38
0.033941612 0.038073629 1.01 2.3509886e-38
0.036302764 0.039844498 1.01 2.3509886e-38
-0.03276103 0.043386228 1.01 2.3509886e-38
-0.030990165 0.042500798 1.01 2.3509886e-38
0.036302764 0.042500798 1.01 2.3509886e-38
0.036302764 0.046042532 1.01 2.3509886e-38
0.038073633 0.050469697 1.01 2.3509886e-38
-0.029219298 0.091199629 1.01 1.5209388e-38
-0.026267854 0.090609342 1.01 1.5764005e-38
-0.023906698 0.091199629 1.01 1.5949103e-38
-0.023316411 0.094151072 1.01 1.5762908e-38
0.026563 0.094741359 1.01 1.4378536e-38
-0.021250401 0.097397663 1.01 1.5853676e-38
-0.018594099 0.098283097 1.01 1.594695e-38
0.023906698 0.098283097 1.01 1.7421381e-38
0.026563 0.09739767 1.01 1.3179958e-38
-0.014166933 0.10093939 1.01 1.6405783e-38
-0.010625199 0.10182483 1.01 1.4839913e-38
-0.0044271667 0.1035957 1.01 1.5118288e-38
-0.0017708666 0.1035957 1.01 1.6405765e-38
0.0020660111 0.10300541 1.01 1.6869628e-38
0.0057553165 0.10315298 1.01 1.6224612e-38
0.010625199 0.1035957 1.01 1.6870709e-38
0.014166933 0.10271026 1.01 1.6962553e-38
0.017708667 0.10182483 1.01 1.6869271e-38
0.021250401 0.10093939 1.01 1.6222465e-38
-0.017761268 0.011544824 1.013 2.3509886e-38
-0.0053283796 0.011544824 1.013 2.3509886e-38
-0.00266419 0.011544824 1.013 2.3509886e-38
0.023089645 0.011544824 1.013 2.3509886e-38
-0.017761268 0.014209013 1.013 2.3509886e-38
-0.0053283796 0.013320949 1.013 2.3509886e-38
-0.00266419 0.013320949 1.013 2.3509886e-38
0.023089645 0.014209013 1.013 2.3509886e-38
0.026345879 0.014505034 1.013 2.3509886e-38
-0.017761268 0.017761268 1.013 2.3509886e-38
0.023089647 0.017761268 1.013 2.3509886e-38
0.0266419 0.017761268 1.013 2.3509886e-38
0.02930609 0.016873203 1.013 2.3509886e-38
-0.022201583 0.023977708 1.013 2.3509886e-38
-0.01793888 0.021846358 1.013 2.3509886e-38
0.023089645 0.020425456 1.013 2.3509886e-38
0.026819512 0.022201583 1.013 2.3509886e-38
-0.025753837 0.0266419 1.013 2.3509886e-38
-0.023089645 0.025753837 1.013 2.3509886e-38
0.026937922 0.026345879 1.013 2.3509886e-38
-0.025753837 0.030194152 1.013 2.3509886e-38
0.02930609 0.030194152 1.013 2.3509886e-38
0.030194152 0.033746406 1.013 2.3509886e-38
-0.02930609 0.039962847 1.013 2.3509886e-38
-0.027529962 0.037298661 1.013 2.3509886e-38
0.031082217 0.036410596 1.013 2.3509886e-38
0.032858342 0.039074786 1.013 2.3509886e-38
-0.02930609 0.041738976 1.013 2.3509886e-38
0.033746406 0.042627037 1.013 2.3509886e-38
-0.032858342 0.04529123 1.013 2.3509886e-38
-0.031082217 0.04529123 1.013 2.3509886e-38
0.034042429 0.045883276 1.013 2.3509886e-38
0.034634467 0.048843481 1.013 2.3509886e-38
0.036410596 0.049731545 1.013 2.3509886e-38
-0.025753837 0.093246646 1.013 1.4845647e-38
-0.023089645 0.097686961 1.013 1.640542e-38
-0.017761268 0.10035115 1.013 1.6313572e-38
-0.014209013 0.10301535 1.013 1.5762925e-38
-0.010656759 0.10390341 1.013 1.4473995e-38
-0.0071045067 0.10390341 1.013 1.5303037e-38
0.015097077 0.10390341 1.013 1.6869282e-38
0.016873203 0.10390341 1.013 1.6869282e-38
0.023385666 0.10153525 1.013 1.6221758e-38
0.026641902 0.10123922 1.013 1.0232574e-38
-0.0044403165 0.10567953 1.013 1.5116839e-38
-0.0017761267 0.10567953 1.013 1.6129922e-38
0.0017761267 0.10567953 1.013 1.6315752e-38
0.0062164436 0.10656759 1.013 1.5855841e-38
0.010360738 0.10627158 1.013 1.7238775e-38
0.014209013 0.10567953 1.013 1.7239141e-38
-0.014293174 0.011613203 1.0190001 2.3509886e-38
-0.0098090237 0.01159041 1.0170001 2.3509886e-38
-0.0044534663 0.0097976271 1.016 2.3509886e-38
-0.001484489 0.010391423 1.016 2.3509886e-38
0.0062532634 0.0089332331 1.0190001 2.3509886e-38
0.0098055173 0.009807271 1.017 2.3509886e-38
0.014272133 0.010702785 1.0175 2.3509886e-38
0.017813867 0.01068832 1.016 2.3509886e-38
0.020485945 0.011579013 1.016 2.3509886e-38
-0.014293174 0.014293173 1.0190001 2.3509886e-38
-0.0098177902 0.014280024 1.018 2.3509886e-38
-0.0053599402 0.015186498 1.0190001 2.3509886e-38
-0.0014879957 0.014577799 1.0180001 2.3509886e-38
0.0098208589 0.014286599 1.0185001 2.3509886e-38
0.014251092 0.014251092 1.016 2.3509886e-38
0.017813867 0.014251093 1.016 2.3509886e-38
0.020485945 0.014251093 1.016 2.3509886e-38
0.029392879 0.015141787 1.016 2.3509886e-38
-0.014293174 0.017866466 1.0190001 2.3509886e-38
-0.0098090246 0.0178314 1.0170001 2.3509886e-38
-0.0053599402 0.016973143 1.0190001 2.3509886e-38
0.01071988 0.017866466 1.0190001 2.3509886e-38
0.014260956 0.017827675 1.0167501 2.3509886e-38
0.017813867 0.017813867 1.016 2.3509886e-38
0.020485945 0.017813867 1.016 2.3509886e-38
-0.015186498 0.020546436 1.0190001 2.3509886e-38
0.015186498 0.020546436 1.0190001 2.3509886e-38
0.01782636 0.021393077 1.0167501 2.3509886e-38
0.021079741 0.021673538 1.016 2.3509886e-38
0.024939414 0.022267334 1.016 2.3509886e-38
-0.02404872 0.027611492 1.016 2.3509886e-38
-0.021099906 0.027044874 1.0170001 2.3509886e-38
-0.017853975 0.025888626 1.01825 2.3509886e-38
0.018759791 0.024119729 1.0190001 2.3509886e-38
0.0214082 0.02497755 1.0175 2.3509886e-38
0.024529571 0.026314903 1.0175 2.3509886e-38
-0.02404872 0.029392879 1.016 2.3509886e-38
-0.022333084 0.029479671 1.0190001 2.3509886e-38
0.026739867 0.030306585 1.0167501 2.3509886e-38
-0.02647475 0.034209874 1.0180001 2.3509886e-38
0.027070299 0.033616077 1.0180001 2.3509886e-38
0.029392879 0.034737039 1.016 2.3509886e-38
0.027693022 0.036626257 1.0190001 2.3509886e-38
0.030015606 0.037743714 1.0170001 2.3509886e-38
-0.029392879 0.04364397 1.016 2.3509886e-38
-0.026945753 0.04158048 1.0178 2.3509886e-38
0.03032697 0.041924395 1.0175002 2.3509886e-38
0.030609403 0.046063866 1.0170001 2.3509886e-38
0.032955654 0.047206748 1.016 2.3509886e-38
0.031266317 0.050026108 1.0190001 2.3509886e-38
0.033581886 0.050225697 1.0170001 2.3509886e-38
0.034839608 0.053599402 1.0190001 2.3509886e-38
0.037409119 0.053441599 1.016 2.3325494e-38
0.042753279 0.052550904 1.016 6.176677e-39
-0.025830107 0.095304191 1.016 1.6223502e-38
-0.024939414 0.097976267 1.016 1.6405422e-38
-0.021121822 0.10144202 1.0180001 1.5944809e-38
-0.017841483 0.10258096 1.0175 1.6221746e-38
-0.017866466 0.10451883 1.0190001 1.6038438e-38
-0.014562896 0.10550304 1.0170001 1.5117562e-38
-0.0097976271 0.10599252 1.016 1.5855118e-38
-0.0056410581 0.1071801 1.016 1.6038084e-38
-0.0017813867 0.10777389 1.016 1.5668219e-38
0.0017813867 0.10777389 1.016 1.5118285e-38
0.011579013 0.10777389 1.016 1.7146224e-38
0.014251093 0.10777389 1.016 1.7238779e-38
0.018129176 0.10550304 1.0170001 1.63161e-38
0.02137664 0.10421111 1.016 1.6315022e-38
0.025830105 0.10421111 1.016 1.0876894e-38
-0.013399851 0.10809212 1.0190001 1.4746989e-38
-0.0098265568 0.10809212 1.0190001 1.6313935e-38
-0.0044666165 0.10987877 1.0190001 1.6221759e-38
-0.0014879955 0.11036649 1.0180001 1.6680199e-38
0.0017840166 0.11061035 1.0175 1.6683085e-38
0.0053441599 0.11044598 1.016 1.5948761e-38
0.0098081473 0.11055556 1.0170001 1.6593396e-38
0.0139954 0.11047432 1.0190001 1.7237693e-38
0.016973143 0.10809212 1.0190001 1.6409021e-38
0.0053599402 0.11345207 1.0190001 1.7700469e-38
0.001971097 0.010213868 1.022 2.3509886e-38
0.0049277428 0.010303463 1.022 2.3509886e-38
0.0017919065 0.014335252 1.022 2.3509886e-38
0.0053757196 0.014335251 1.022 2.3509886e-38
-0.0053757196 0.018815018 1.022 2.3509886e-38
-0.0020905577 0.017620414 1.0220001 2.3509886e-38
0.005674371 0.017620414 1.0220001 2.3509886e-38
0.0080635799 0.017919065 1.022 2.3509886e-38
-0.014036601 0.021801529 1.0220001 2.3509886e-38
-0.010303463 0.021054901 1.022 2.3509886e-38
-0.0062716729 0.020606924 1.022 2.3509886e-38
0.014335252 0.021502879 1.022 2.3509886e-38
-0.017023113 0.027774552 1.022 2.3509886e-38
-0.015231205 0.024190737 1.022 2.3509886e-38
0.015231205 0.024190737 1.022 2.3509886e-38
0.018217716 0.025982644 1.0220001 2.3509886e-38
0.021502879 0.027774552 1.022 2.3509886e-38
-0.024190737 0.031358361 1.022 2.3509886e-38
-0.021204229 0.030761061 1.0220001 2.3509886e-38
-0.017919065 0.029566457 1.022 2.3509886e-38
0.021502879 0.029566457 1.022 2.3509886e-38
0.024190737 0.029566457 1.022 2.3509886e-38
-0.024190737 0.034046225 1.022 2.3509886e-38
-0.022398831 0.033150271 1.022 2.3509886e-38
0.025982644 0.034942176 1.022 2.3509886e-38
-0.02508669 0.037630036 1.022 2.3509886e-38
0.027774552 0.038525991 1.022 2.3509886e-38
-0.02508669 0.042109802 1.022 2.3509886e-38
0.027774554 0.042109802 1.0220001 2.3509886e-38
-0.029566457 0.045693617 1.022 2.3509886e-38
-0.027774552 0.045693617 1.022 2.3509886e-38
0.029566457 0.047485523 1.022 2.3509886e-38
0.029566457 0.049277429 1.022 2.3509886e-38
0.031358361 0.05286124 1.022 2.3509886e-38
0.033150271 0.053757194 1.022 2.3509886e-38
-0.024190737 0.10124271 1.022 1.6128493e-38
-0.020606924 0.10482653 1.022 1.5483827e-38
-0.017919065 0.10661844 1.022 1.5577099e-38
0.021502879 0.10661844 1.022 1.6591609e-38
0.025982646 0.10661845 1.0220001 1.0507751e-38
-0.015231205 0.10841034 1.022 1.5483824e-38
-0.0098554865 0.11020225 1.0220001 1.5301214e-38
-0.005674371 0.11139685 1.0220001 1.5667145e-38
-0.0026878598 0.11199415 1.022 1.7417749e-38
0.015231205 0.11199415 1.022 1.7330252e-38
0.017919065 0.1093063 1.022 1.5764004e-38
-0.00089595327 0.11378606 1.022 1.566818e-38
0.0017919065 0.11468202 1.022 1.6225329e-38
0.0053757196 0.11557797 1.022 1.7793015e-38
0.0098554865 0.11378606 1.0220001 1.7330245e-38
-0.00089858327 0.018870249 1.025 2.3509886e-38
0.0017971665 0.017971667 1.025 2.3509886e-38
0.0044929166 0.018870249 1.025 2.3509886e-38
-0.0089858323 0.022464583 1.025 2.3509886e-38
-0.0050919722 0.021865528 1.025 2.3509886e-38
-0.0017971665 0.021566 1.025 2.3509886e-38
0.0017971664 0.021566 1.025 2.3509886e-38
0.0053915 0.021566 1.025 2.3509886e-38
0.0098844161 0.021566002 1.0250001 2.3509886e-38
0.013478749 0.022464583 1.025 2.3509886e-38
-0.014214448 0.02645096 1.0262001 2.3509886e-38
-0.010153553 0.025578877 1.0262858 2.3509886e-38
-0.0053993897 0.025198467 1.0265 2.3509886e-38
-0.0018004541 0.02521622 1.0272499 2.3509886e-38
0.0019805653 0.025746295 1.0268 2.3509886e-38
0.0054042116 0.026123352 1.0275 2.3509886e-38
0.0098966891 0.026094565 1.0263333 2.3509886e-38
0.014205507 0.026434654 1.0256001 2.3509886e-38
0.017073084 0.026957497 1.025 2.3509886e-38
-0.017971667 0.031450417 1.025 2.3509886e-38
-0.014419412 0.03064125 1.028 2.3509886e-38
0.0099133467 0.029740041 1.0280001 2.3509886e-38
0.014704913 0.030311918 1.027 2.3509886e-38
0.017984159 0.030574845 1.02575 2.3509886e-38
0.021566 0.031450417 1.025 2.3509886e-38
0.024261748 0.031450417 1.025 2.3509886e-38
-0.021266472 0.034445696 1.025 2.3509886e-38
-0.017971667 0.034146167 1.025 2.3509886e-38
-0.015320626 0.033344891 1.028 2.3509886e-38
0.018925479 0.033344891 1.028 2.3509886e-38
0.021929523 0.033945702 1.0280001 2.3509886e-38
0.024297254 0.03419482 1.0265 2.3509886e-38
-0.021581121 0.03776877 1.02575 2.3509886e-38
-0.018324671 0.037550554 1.0280001 2.3509886e-38
0.025160331 0.037740499 1.025 2.3509886e-38
-0.024261748 0.042233415 1.025 2.3509886e-38
-0.021885691 0.041074753 1.026 2.3509886e-38
0.025508953 0.041115958 1.027 2.3509886e-38
-0.030551832 0.047624912 1.025 2.3509886e-38
-0.025713682 0.046214011 1.0256 2.3509886e-38
-0.022530332 0.044159453 1.028 2.3509886e-38
0.026823545 0.046267658 1.0268 2.3509886e-38
-0.030551832 0.049422082 1.025 2.3509886e-38
-0.027036399 0.049566731 1.028 2.3509886e-38
0.027937612 0.050467946 1.028 2.3509886e-38
0.029653249 0.051219247 1.025 2.3509886e-38
0.027937612 0.054072797 1.028 2.3509886e-38
0.030281236 0.054268003 1.026 2.3509886e-38
0.030941656 0.057377245 1.0280001 2.3509886e-38
0.033879079 0.057266783 1.026 2.3509886e-38
0.037740499 0.056610744 1.025 1.5212279e-38
-0.024261748 0.10333708 1.025 1.8064913e-38
-0.022464583 0.10333708 1.025 1.5575631e-38
-0.021887444 0.10643668 1.026 1.6867473e-38
-0.021308552 0.10954154 1.027 1.7053654e-38
-0.017985474 0.10970803 1.02575 1.5209028e-38
-0.014377332 0.11052574 1.025 1.4656591e-38
0.018870249 0.11052574 1.025 1.5762937e-38
0.021597559 0.1097889 1.0265 1.6592301e-38
0.02609705 0.10978892 1.0265001 8.0159345e-39
-0.017123053 0.11265166 1.028 1.5120436e-38
-0.01440955 0.11347069 1.0272499 1.5302307e-38
-0.0098988814 0.11338851 1.0265001 1.4563664e-38
-0.0050919722 0.11471914 1.025 1.4931023e-38
-0.0020966944 0.11531818 1.025 1.4841303e-38
0.0098844161 0.11591724 1.025 1.7605761e-38
0.014077805 0.11471914 1.025 1.8067097e-38
0.018011775 0.11347069 1.0272501 1.6039142e-38
0.020727905 0.11265166 1.028 1.6036995e-38
-0.0090121329 0.11625651 1.028 1.5672891e-38
-0.0054072798 0.11805894 1.028 1.7052589e-38
-0.0018017691 0.11887402 1.0272501 1.7330608e-38
0.0017997965 0.11878788 1.0265 1.7514986e-38
0.0053993901 0.11878788 1.0265 1.7699023e-38
0.0099094016 0.11890273 1.0274999 1.7236619e-38
0.014719817 0.11745813 1.0280001 1.6038451e-38
0.017123053 0.11625651 1.028 1.6590897e-38
-0.0099422764 0.029826829 1.0310001 2.3509886e-38
-0.0054230597 0.028019143 1.031 2.3509886e-38
-0.0018076866 0.028019143 1.031 2.3509886e-38
0.00090384332 0.028019143 1.031 2.3509886e-38
0.0054230597 0.029826827 1.031 2.3509886e-38
0.010846119 0.031634513 1.031 2.3509886e-38
0.013557649 0.031634513 1.031 2.3509886e-38
-0.014461493 0.034346044 1.031 2.3509886e-38
-0.011749962 0.033442203 1.031 2.3509886e-38
0.014461493 0.033442203 1.031 2.3509886e-38
0.018076867 0.034346044 1.031 2.3509886e-38
0.020788398 0.035249889 1.031 2.3509886e-38
-0.017173024 0.038865261 1.031 2.3509886e-38
0.022596082 0.037961416 1.031 2.3509886e-38
-0.020788398 0.042480636 1.031 2.3509886e-38
-0.01898071 0.04067295 1.031 2.3509886e-38
0.022596082 0.04067295 1.031 2.3509886e-38
-0.02440377 0.047903694 1.031 2.3509886e-38
-0.022596082 0.046999849 1.031 2.3509886e-38
-0.029826831 0.051519074 1.031 2.3509886e-38
-0.026211455 0.05151907 1.031 2.3509886e-38
0.028922986 0.057845972 1.031 2.3509886e-38
0.035249889 0.058749814 1.031 2.3509886e-38
0.037057575 0.058749814 1.031 2.2770895e-38
0.031634513 0.060557503 1.031 2.3509886e-38
0.034346044 0.060557503 1.031 2.0283039e-38
0.037057575 0.060557503 1.031 1.4837556e-38
-0.02440377 0.10665351 1.031 1.8526992e-38
-0.02440377 0.10936504 1.031 1.7239841e-38
-0.022596082 0.11117273 1.031 1.8527654e-38
-0.020788398 0.11388426 1.031 1.7420246e-38
-0.01837815 0.11418553 1.031 1.7420261e-38
0.021993522 0.11418553 1.031 9.2184504e-39
0.025307612 0.11298041 1.031 5.0714505e-39
-0.013557649 0.11659579 1.031 1.6684522e-38
-0.010394197 0.11795155 1.031 1.7421357e-38
0.01837815 0.11780091 1.031 9.9564022e-39
0.020788398 0.11749963 1.031 6.084899e-39
-0.0081345895 0.12021116 1.031 1.8341516e-38
-0.0057243407 0.12141629 1.031 1.64072e-38
-0.0018076866 0.12201884 1.031 1.5762909e-38
0.0018076866 0.12201884 1.031 1.5762912e-38
0.0054230597 0.12201884 1.031 1.4103413e-38
0.0081345895 0.12201884 1.031 1.004687e-38
0.014461493 0.12021116 1.031 1.2172351e-38
0.017173024 0.12021116 1.031 5.078691e-39
-0.00815826 0.031726569 1.034 2.3509886e-38
-0.00543884 0.030820094 1.034 2.3509886e-38
-0.0018129466 0.029913621 1.034 2.3509886e-38
0.0018129466 0.029913621 1.034 2.3509886e-38
0.00543884 0.031726569 1.034 2.3509886e-38
0.00815826 0.031726569 1.034 2.3509886e-38
-0.0135971 0.035352457 1.034 2.3509886e-38
-0.009971207 0.034445986 1.034 2.3509886e-38
0.010333796 0.034264695 1.034 2.3509886e-38
0.014503574 0.035352457 1.034 2.3509886e-38
0.017222993 0.035352457 1.034 2.3509886e-38
-0.014805732 0.037769724 1.0340002 2.3509886e-38
0.015410047 0.037165407 1.034 2.3509886e-38
0.018431624 0.037769724 1.0340002 2.3509886e-38
0.020848887 0.038071878 1.034 2.3509886e-38
-0.01782731 0.041999932 1.0340002 2.3509886e-38
0.021453202 0.041999932 1.0340002 2.3509886e-38
0.024474779 0.042604249 1.034 2.3509886e-38
-0.020848887 0.045323662 1.034 2.3509886e-38
-0.019035939 0.044417191 1.034 2.3509886e-38
0.022057518 0.045021504 1.0340002 2.3509886e-38
0.024474779 0.045323662 1.034 2.3509886e-38
-0.024474779 0.050762504 1.034 2.3509886e-38
-0.022661833 0.050762504 1.034 2.3509886e-38
0.025381252 0.049856033 1.034 2.3509886e-38
-0.029913619 0.0543884 1.034 2.3509886e-38
-0.026287727 0.054388396 1.034 2.3509886e-38
0.026287727 0.053481925 1.034 2.3509886e-38
0.029913621 0.060733709 1.034 2.3509886e-38
-0.024474779 0.11149622 1.034 1.5023862e-38
-0.022661833 0.11330916 1.034 1.7971218e-38
0.024474779 0.11512212 1.034 6.9142869e-39
-0.020848887 0.11693506 1.034 1.3085586e-38
-0.018129466 0.11784154 1.034 1.5758188e-38
-0.014805732 0.1181437 1.0340002 1.7878728e-38
0.022661833 0.11693506 1.034 4.0543993e-39
-0.0093668913 0.12176959 1.0340002 1.4561149e-38
0.01087768 0.1223739 1.034 6.3611439e-39
0.0135971 0.1223739 1.034 3.7821242e-39
0.019035939 0.12056095 1.034 5.1603937e-39
-0.00090647332 0.12418684 1.034 1.2537141e-38
0.0018129466 0.12418684 1.034 1.2444598e-38
0.00543884 0.12418684 1.034 1.207583e-38
-0.0018199598 0.031849299 1.038 2.3509886e-38
0.0018199598 0.031849299 1.038 2.3509886e-38
-0.0081898198 0.035489216 1.038 2.3509886e-38
-0.0054598795 0.034579236 1.038 2.3509886e-38
-0.0018199598 0.034579236 1.038 2.3509886e-38
0.0015166332 0.034275912 1.038 2.3509886e-38
0.00545988 0.034579236 1.038 2.3509886e-38
0.0081898198 0.035489216 1.038 2.3509886e-38
-0.013649699 0.039129138 1.038 2.3509886e-38
-0.010373771 0.038037162 1.038 2.3509886e-38
-0.0054598795 0.038219158 1.038 2.3509886e-38
0.010373771 0.038037162 1.038 2.3509886e-38
0.014256353 0.038522486 1.038 2.3509886e-38
0.01728962 0.039129138 1.038 2.3509886e-38
-0.014559679 0.040949099 1.038 2.3509886e-38
0.015469659 0.041859075 1.038 2.3509886e-38
0.018199598 0.041859075 1.038 2.3509886e-38
-0.017896274 0.045802325 1.038 2.3509886e-38
0.015469659 0.044589017 1.038 2.3509886e-38
0.0181996 0.045498997 1.038 2.3509886e-38
0.02092954 0.046408977 1.038 2.3509886e-38
-0.02092954 0.049138919 1.038 2.3509886e-38
-0.019109579 0.049138919 1.038 2.3509886e-38
0.019109579 0.049138919 1.038 2.3509886e-38
0.02183952 0.050048899 1.0380001 2.3509886e-38
0.024569457 0.05186886 1.038 2.3509886e-38
-0.033669256 0.054598797 1.038 2.3509863e-38
-0.024569457 0.054598797 1.038 2.3509886e-38
-0.022749498 0.054598797 1.038 2.3509886e-38
0.025176112 0.054902129 1.038 2.3509886e-38
-0.033669256 0.057328735 1.038 2.3500679e-38
-0.03002934 0.058238715 1.0380001 2.3139663e-38
-0.026389418 0.057328735 1.038 2.3509886e-38
0.025479438 0.057328735 1.038 2.3509886e-38
0.028209381 0.059148699 1.038 2.3509886e-38
0.028209381 0.060968656 1.038 2.3509886e-38
-0.026389418 0.10646766 1.038 1.8432952e-38
-0.026389418 0.10919759 1.038 1.7229749e-38
-0.024569457 0.11374749 1.038 1.1333133e-38
-0.022749498 0.11556746 1.038 1.3640154e-38
0.026389418 0.11556746 1.038 7.651517e-39
-0.021839518 0.11829739 1.038 9.1225903e-39
0.022749498 0.11920737 1.038 7.0057987e-39
0.024569457 0.11738741 1.038 8.0188114e-39
-0.014559679 0.12102734 1.038 1.575823e-38
0.02092954 0.12102734 1.038 7.4656432e-39
0.0027378299 0.035591789 1.041 2.3509886e-38
-0.0082134902 0.03924223 1.041 2.3509886e-38
-0.00182522 0.03832962 1.041 2.3509886e-38
0.00182522 0.03832962 1.041 2.3509886e-38
0.0054756599 0.03832962 1.041 2.3509886e-38
0.0082134902 0.03924223 1.041 2.3509886e-38
-0.01460176 0.042892668 1.041 2.3509886e-38
-0.010495014 0.041523751 1.041 2.3509886e-38
-0.0054756599 0.041067448 1.041 2.3509886e-38
0.01003871 0.041980058 1.041 2.3509886e-38
0.013689149 0.041980058 1.041 2.3509886e-38
-0.014905963 0.045326293 1.0410001 2.3509886e-38
0.010495014 0.045174189 1.041 2.3509886e-38
0.014297556 0.045934699 1.0410001 2.3509886e-38
-0.017339589 0.049280938 1.041 2.3509886e-38
0.014905963 0.048976734 1.0410001 2.3509886e-38
0.017339589 0.049280938 1.041 2.3509886e-38
-0.020990029 0.053843986 1.0410001 2.3509886e-38
-0.019164812 0.053843986 1.0410001 2.3509886e-38
0.018556405 0.052627176 1.0410001 2.3509886e-38
0.021902639 0.054756597 1.041 2.3509886e-38
-0.025248876 0.058711242 1.0410001 2.3509886e-38
-0.021902639 0.057494428 1.041 2.3509886e-38
0.022815248 0.057494428 1.041 2.3509886e-38
0.025553079 0.059319649 1.041 2.3509886e-38
-0.024640469 0.06114487 1.041 2.3509886e-38
0.02646569 0.06114487 1.041 2.3509886e-38
0.028290909 0.062970087 1.041 2.3509886e-38
-0.02646569 0.11225102 1.041 9.9531624e-39
-0.0091523994 0.043016277 1.044 2.3509886e-38
-0.0054914402 0.043016277 1.044 2.3509886e-38
-0.0018304799 0.04210104 1.044 2.3509886e-38
0.0018304798 0.04210104 1.044 2.3509886e-38
0.0054914402 0.04210104 1.044 2.3509886e-38
-0.0137286 0.046677239 1.044 2.3509886e-38
-0.010071585 0.045784354 1.0445001 2.3509886e-38
-0.0054993303 0.045829065 1.0455 2.3509886e-38
-0.0021416969 0.045587547 1.0470002 2.3509886e-38
0.0018357401 0.044975631 1.0470001 2.3509886e-38
0.005502617 0.045861281 1.04625 2.3509886e-38
0.0091523994 0.046677239 1.044 2.3509886e-38
-0.014664881 0.049495287 1.0455 2.3509886e-38
-0.01101444 0.048647109 1.0470001 2.3509886e-38
0.00550722 0.048647109 1.0470001 2.3509886e-38
0.010080352 0.049494412 1.0455 2.3509886e-38
0.0137286 0.050338201 1.044 2.3509886e-38
-0.017406218 0.054052636 1.0450001 2.3509886e-38
-0.015603791 0.052318592 1.0470001 2.3509886e-38
0.015573984 0.054052636 1.0450001 2.3509886e-38
0.018016376 0.055272959 1.0450001 2.3509886e-38
-0.021965761 0.059490599 1.044 2.3509886e-38
-0.018644948 0.058382493 1.046 2.3509886e-38
0.01927527 0.057825811 1.0470001 2.3509886e-38
0.021680845 0.058937427 1.0450001 2.3509886e-38
-0.02471148 0.063151561 1.044 2.3509886e-38
-0.021980884 0.062281691 1.0447501 2.3509886e-38
-0.01927527 0.06149729 1.0470001 2.3509886e-38
0.022312921 0.062050469 1.046 2.3509886e-38
0.02532164 0.062541403 1.044 2.3509886e-38
-0.024746984 0.065993279 1.0455 1.5667639e-38
-0.022012442 0.066039965 1.04625 2.0923618e-38
0.025662225 0.065075405 1.0455 2.3509886e-38
-0.02845397 0.10739079 1.0470001 1.1333888e-38
-0.02845397 0.11014439 1.0470001 6.3503189e-39
-0.026541959 0.114405 1.044 5.8079716e-39
-0.00092049991 0.046945497 1.05 2.3509886e-38
0.0018409998 0.046945497 1.05 2.3509886e-38
-0.0096652489 0.050167248 1.05 2.3509886e-38
-0.0055229994 0.049706995 1.05 2.3509886e-38
-0.0018409998 0.049706995 1.05 2.3509886e-38
0.0018409998 0.049706995 1.05 2.3509886e-38
0.0055229994 0.050627496 1.05 2.3509886e-38
-0.014421165 0.053695828 1.05 2.3509886e-38
-0.011046 0.052468497 1.05 2.3509886e-38
0.005829833 0.053082164 1.05 2.3509886e-38
0.0101255 0.053388994 1.0500001 2.3509886e-38
0.013807499 0.053388998 1.05 2.3509886e-38
-0.017489498 0.059832498 1.05 2.3509886e-38
-0.015034831 0.056764163 1.05 2.3509886e-38
0.01058575 0.056610744 1.05 2.3509886e-38
0.014421165 0.057377826 1.05 2.3509886e-38
0.018103166 0.059218831 1.05 2.3509886e-38
-0.018103166 0.062900826 1.05 2.3509886e-38
0.019330498 0.062593997 1.05 2.3509886e-38
0.021171499 0.063514493 1.05 2.3509886e-38
-0.018409997 0.066275991 1.05 2.3509886e-38
0.023012497 0.065355495 1.05 2.3509886e-38
-0.012012087 0.05451639 1.054 2.3509886e-38
-0.0089320643 0.053900387 1.0540001 2.3509886e-38
-0.0055440399 0.053592384 1.054 2.3509886e-38
-0.0018480134 0.053592384 1.054 2.3509886e-38
0.0018480134 0.053592388 1.054 2.3509886e-38
0.0046200333 0.05451639 1.054 2.3509886e-38
-0.012628091 0.057596412 1.0540001 2.3509886e-38
-0.0092400666 0.056364402 1.054 2.3509886e-38
-0.0055440399 0.056364402 1.054 2.3509886e-38
-0.0018480133 0.056364402 1.054 2.3509886e-38
0.0018480134 0.057288408 1.054 2.3509886e-38
0.0055440404 0.057288408 1.054 2.3509886e-38
0.0092400666 0.058212418 1.054 2.3509886e-38
-0.01509211 0.060676437 1.0540001 2.3509886e-38
0.0055440399 0.060060434 1.054 2.3509886e-38
0.0092400666 0.06098444 1.054 2.3509886e-38
0.014124101 0.06138045 1.054 2.3509886e-38
0.017556127 0.062832452 1.054 2.3509886e-38
0.019404139 0.066528477 1.054 2.3509886e-38
0.021252153 0.066528477 1.054 2.3509886e-38
0.021252153 0.069300503 1.054 1.5027284e-38
-0.0092663672 0.058378112 1.057 2.3509886e-38
-0.0055598198 0.058378112 1.057 2.3509886e-38
-0.0018532733 0.058378112 1.057 2.3509886e-38
-0.013535732 0.062490553 1.0576001 2.3509886e-38
-0.0092795165 0.061246123 1.0585001 2.3509886e-38
-0.0055677094 0.061246123 1.0585001 2.3509886e-38
-0.0018559033 0.061246123 1.0585001 2.3509886e-38
0.0018539308 0.061202072 1.0577501 2.3509886e-38
0.0055598198 0.062084652 1.057 2.3509886e-38
0.012972914 0.063937932 1.057 2.3509886e-38
-0.013924096 0.066224568 1.059 2.3509886e-38
-0.010221933 0.064119399 1.0599999 2.3509886e-38
0.0065048658 0.064119399 1.0599999 2.3509886e-38
0.0092926659 0.065048665 1.0599999 2.3509886e-38
0.013924096 0.066844076 1.059 2.3509886e-38
0.017606096 0.066717841 1.057 2.3509886e-38
0.013924096 0.070557639 1.059 2.240498e-38
0.018223856 0.070115507 1.057 1.7519374e-38
0.0092926659 0.073412061 1.0599999 1.4657991e-38
-0.0090083349 0.065543398 1.063 2.3509886e-38
-0.0055913795 0.065232761 1.063 2.3509886e-38
-0.0018637932 0.065232761 1.063 2.3509886e-38
0.0018637932 0.065232761 1.063 2.3509886e-38
0.0052807475 0.065543398 1.063 2.3509886e-38
-0.01273592 0.069270983 1.063 2.2310252e-38
-0.0093189664 0.068960346 1.063 2.3509886e-38
-0.0055913795 0.068960346 1.063 2.3509886e-38
-0.001397845 0.069426298 1.063 2.3509886e-38
0.0018637932 0.069892243 1.063 2.3509886e-38
0.0055913795 0.069892243 1.063 2.3509886e-38
0.0093189664 0.06989225 1.063 2.3509886e-38
-0.00280621 0.070155248 1.067 2.3509886e-38
-0.0046770163 0.072026059 1.067 2.3509886e-38
-0.00280621 0.072026059 1.067 2.3509886e-38
