# .PCD v0.7 - Point Cloud Data file format
VERSION 0.7
FIELDS x y z rgb
SIZE 4 4 4 4
TYPE F F F F
COUNT 1 1 1 1
WIDTH 1006
HEIGHT 1
VIEWPOINT 0 0 0 1 0 0 0
POINTS 1006
DATA ascii
0.050265308 0.1187986 0.90600014 1.1245707e-38
0.054009676 0.11755048 0.90600002 9.126287e-39
0.056392461 0.11755048 0.90600002 1.0970924e-38
0.04296061 0.12172297 0.90750003 1.2536417e-38
0.045870122 0.12223129 0.90733337 1.0785434e-38
0.049352825 0.12179003 0.90799999 1.3456593e-38
0.054128904 0.12019801 0.90799999 1.5670739e-38
0.059832498 0.11487839 0.91000003 7.8482453e-39
0.062385347 0.11439973 0.91000003 1.144016e-38
0.064619094 0.11408063 0.91000003 1.2180975e-38
0.041217946 0.1220583 0.91000003 1.2166914e-38
0.047068235 0.12365383 0.91000003 6.3596782e-39
0.049461532 0.12365383 0.91000003 8.6638725e-39
0.043079399 0.12524937 0.91000003 5.067098e-39
0.046270467 0.12524937 0.91000003 4.6064828e-39
0.048663765 0.12524937 0.91000003 5.4369484e-39
0.017627137 0.11137699 0.91400003 2.1014666e-38
0.020833982 0.11137699 0.91400003 2.3509886e-38
0.066578448 0.11149885 0.91500002 1.254007e-38
0.068984903 0.10989454 0.91500008 1.7610086e-38
0.017627137 0.11297953 0.91400003 1.4652108e-38
0.020833982 0.11297953 0.91400003 2.3228267e-38
0.0256688 0.11470745 0.91500002 2.2030053e-38
0.066432923 0.11365633 0.91299999 8.3148833e-39
0.069466189 0.11406573 0.91500008 1.032555e-38
0.025668798 0.1171139 0.91500002 1.4561838e-38
0.029479014 0.11771551 0.91500002 1.7234092e-38
0.033529866 0.11823691 0.91500008 1.4839166e-38
0.037238169 0.11892334 0.91350007 1.1983609e-38
0.058028758 0.1172581 0.91299999 1.2913871e-38
0.061721127 0.11863229 0.91433334 1.4474338e-38
0.065739922 0.11785249 0.9145 1.3829321e-38
0.034492448 0.1219268 0.91500002 1.4472559e-38
0.037631795 0.121705 0.91333336 1.4563661e-38
0.053706061 0.12263953 0.91433334 1.5209036e-38
0.0577548 0.12112466 0.91500002 1.5208685e-38
0.034492448 0.12433324 0.91500002 1.5671092e-38
0.037917964 0.12544034 0.91471434 1.253788e-38
0.041242782 0.12613216 0.91349995 3.2282834e-39
0.04562261 0.12726305 0.91299999 3.872173e-39
0.049678072 0.12660205 0.91400003 8.387563e-39
0.052636527 0.12477742 0.91433334 1.1799236e-38
0.0449204 0.12914614 0.91500002 5.0689169e-39
0.015290819 0.11105964 0.91799998 1.778434e-38
0.016900379 0.11025485 0.91799998 2.3509886e-38
0.071625412 0.11025485 0.91799998 1.0789002e-38
0.074039757 0.11025485 0.9180001 7.0997585e-39
0.07769604 0.10995738 0.92000002 9.7720165e-39
0.015307476 0.11440412 0.91900003 1.3549144e-38
0.017705159 0.11508354 0.91799998 1.4194177e-38
0.022131447 0.11468115 0.91799998 1.7140827e-38
0.071625412 0.11347398 0.91799998 1.1241342e-38
0.074039757 0.11347398 0.91799998 9.9531483e-39
0.077427194 0.11210813 0.92000002 9.8642191e-39
0.017986862 0.11731553 0.91866672 1.5855489e-38
0.021958996 0.11784278 0.9180001 1.4656572e-38
0.025752958 0.11991221 0.91799998 1.5208675e-38
0.031386416 0.11991221 0.91799998 1.1891789e-38
0.066796735 0.11991221 0.91799998 1.1801741e-38
0.0695296 0.11785205 0.91866672 1.1153107e-38
0.022582933 0.12178653 0.92000002 1.557962e-38
0.025766546 0.12239362 0.91850001 1.5394872e-38
0.02977686 0.12232655 0.9180001 1.5119e-38
0.03299598 0.12232655 0.91799998 1.4565113e-38
0.057944156 0.12313133 0.91799998 1.4288526e-38
0.062035561 0.12246069 0.91900003 1.3274016e-38
0.066064723 0.12165415 0.91900003 1.170845e-38
0.068555333 0.12178653 0.92000002 1.0969797e-38
0.025809066 0.12501267 0.92000002 1.5670742e-38
0.029830337 0.12577391 0.91966665 1.5671093e-38
0.033556461 0.12590569 0.91866672 1.5579255e-38
0.037019879 0.12796001 0.91799998 1.3644227e-38
0.050701138 0.12796001 0.91799998 1.0692109e-38
0.055033624 0.12590569 0.91866672 1.1247131e-38
0.057263862 0.12501267 0.92000002 1.1708102e-38
0.031454798 0.1282388 0.92000002 1.5762209e-38
0.0338744 0.1282388 0.92000002 1.5854762e-38
0.037878431 0.12975776 0.9193334 1.2079069e-38
0.041848559 0.12956958 0.91799998 3.7814558e-39
0.047013298 0.13083315 0.9193334 9.4014081e-39
0.049091574 0.12956958 0.91799998 6.4522143e-39
0.052424666 0.1282388 0.92000002 1.0416696e-38
0.015374102 0.11732867 0.92299998 1.6591969e-38
0.016992429 0.11894701 0.92299998 1.6500851e-38
0.018610757 0.12056533 0.92299998 1.6499774e-38
0.020768523 0.12218365 0.92300004 1.576437e-38
0.065542229 0.12380198 0.92299998 1.2537492e-38
0.022656571 0.12542032 0.92299998 1.603988e-38
0.025893226 0.12703863 0.92299998 1.5763292e-38
0.058259755 0.12622947 0.92299998 1.1984703e-38
0.061496411 0.12542032 0.92299998 1.2536819e-38
0.029939041 0.12919641 0.92300004 1.5855125e-38
0.033984859 0.13027529 0.92299998 1.5946597e-38
0.038839839 0.1318936 0.92299998 1.3553499e-38
0.042076491 0.1318936 0.92299998 1.1065662e-38
0.044503979 0.1318936 0.92299998 9.6819887e-39
0.050437845 0.13135417 0.92300004 1.078471e-38
0.054213941 0.12865697 0.92299998 9.7713271e-39
0.013785584 0.11433925 0.92500007 1.5481994e-38
0.014618855 0.11858451 0.92649996 1.714478e-38
0.015457386 0.12121845 0.92799997 1.7235538e-38
0.017588271 0.12204017 0.926 1.6500495e-38
0.018711573 0.12447263 0.92799997 1.6684517e-38
0.021272315 0.12650493 0.92620003 1.6039519e-38
0.059196915 0.12731391 0.92500001 1.2076902e-38
0.061730918 0.12752037 0.92649996 1.2444971e-38
0.064062417 0.12569208 0.92500001 1.2720496e-38
0.022353463 0.12965614 0.92724997 1.5948033e-38
0.025991412 0.12995836 0.92649996 1.5763648e-38
0.029192999 0.13055758 0.92500001 1.5855485e-38
0.054390155 0.13015811 0.926 9.587635e-39
0.057761811 0.13016745 0.92799997 1.1985059e-38
0.061015997 0.12935391 0.92799997 1.2629344e-38
0.026847038 0.1326081 0.92799997 1.5487421e-38
0.030279625 0.13392463 0.92725003 1.5763646e-38
0.034113728 0.13320731 0.92649996 1.5672527e-38
0.037800331 0.13372125 0.92724997 1.5487067e-38
0.042304426 0.13423519 0.92799997 1.3551318e-38
0.046372157 0.13423519 0.92799997 1.2814107e-38
0.050439887 0.13423519 0.92799997 1.2166949e-38
0.052880529 0.1326081 0.92799997 1.1707046e-38
0.012229499 0.114142 0.93000001 1.5485613e-38
0.0138601 0.1198491 0.93000001 1.7144775e-38
0.0154907 0.1231103 0.93000001 1.6959311e-38
0.017936599 0.1255562 0.93000001 1.6684511e-38
0.066039301 0.12637149 0.93000001 1.2537822e-38
0.0220131 0.13126329 0.93000001 1.5581046e-38
0.059516896 0.13126329 0.93000001 1.2629357e-38
0.061962798 0.13044798 0.93000001 1.2168017e-38
0.064408697 0.12800209 0.93000001 1.2628287e-38
0.023643699 0.13289389 0.93000001 1.5395944e-38
0.026089599 0.13370919 0.93000001 1.5579614e-38
0.054081567 0.13398096 0.93000001 1.2352048e-38
0.057886295 0.13289389 0.93000001 1.2907006e-38
0.030166101 0.13724217 0.93000001 1.521155e-38
0.0342426 0.1369704 0.93000001 1.5303026e-38
0.038319096 0.1361551 0.93000001 1.5395577e-38
0.086066753 0.090984851 0.93500006 7.5585857e-39
0.082788013 0.095083266 0.935 1.8421018e-38
0.085902728 0.094083965 0.93322223 9.3059656e-39
0.08915437 0.094879881 0.93300003 1.1059143e-38
0.010655883 0.11557535 0.935 1.8067101e-38
0.010655883 0.11803439 0.935 1.7698304e-38
0.0122821 0.11790903 0.93400002 1.7145131e-38
0.010655883 0.12131313 0.935 1.4742251e-38
0.013100029 0.12200131 0.93400002 1.8155673e-38
0.015016424 0.12586859 0.93433332 1.6409732e-38
0.017176529 0.12677915 0.93300003 1.659267e-38
0.067888193 0.12596121 0.93300003 1.0601369e-38
0.06952405 0.12596121 0.93300003 1.0690364e-38
0.018292818 0.12914498 0.93433332 1.6592317e-38
0.020448251 0.13168672 0.93300003 1.5857273e-38
0.063115619 0.13196902 0.935 1.2166946e-38
0.065540031 0.13025995 0.93450004 1.1614839e-38
0.068580173 0.12923673 0.93500006 9.2173924e-39
0.02290204 0.13414052 0.93300003 1.5671801e-38
0.025355829 0.13495845 0.93300003 1.5672161e-38
0.058115691 0.13505489 0.93366671 1.2630782e-38
0.061476246 0.13360837 0.935 1.1984e-38
0.02646569 0.13723837 0.93366671 1.5763642e-38
0.02862755 0.13823016 0.93300003 1.5487777e-38
0.034353059 0.13986602 0.93300003 1.4842405e-38
0.037624776 0.13823016 0.93300003 1.5210468e-38
0.042060189 0.1376351 0.93340009 1.5395221e-38
0.045853171 0.1375604 0.93400002 1.5303387e-38
0.049947202 0.1375604 0.93400002 1.4380711e-38
0.053787883 0.13733597 0.93433332 1.2444946e-38
0.056558147 0.13688712 0.935 1.308887e-38
0.031147964 0.14016584 0.935 1.502609e-38
0.034426697 0.14180522 0.935 1.5209755e-38
0.037705433 0.14098552 0.935 1.4749487e-38
0.041475978 0.14082159 0.93500006 1.5117917e-38
0.04508258 0.14016584 0.935 1.5025723e-38
0.085520588 0.087987527 0.93800002 4.6090654e-39
-0.0047711702 0.089998603 0.93839997 7.6489919e-39
-0.0018115438 0.090075038 0.93920004 1.4742267e-38
0.0013734445 0.09092202 0.94 2.3509886e-38
0.083230734 0.090647325 0.94 2.350878e-38
0.086342901 0.089632154 0.93800008 6.7299208e-39
-0.0049338797 0.093743719 0.93800002 9.4021354e-39
-0.0016446267 0.093743719 0.93800002 1.3907826e-38
0.0013728598 0.093601704 0.93933338 2.3509518e-38
0.079764389 0.094566032 0.93800002 2.3509886e-38
0.081957221 0.09346962 0.93800008 2.2495365e-38
-0.0041115666 0.096210659 0.93800002 1.0691799e-38
-0.0016446267 0.096210659 0.93800002 6.267491e-39
0.079764389 0.096210659 0.93800002 2.3509886e-38
0.081409015 0.096210659 0.93800002 1.6595213e-38
0.00740082 0.11594618 0.93800002 1.1888452e-38
0.0090454463 0.11594618 0.93800002 1.8434342e-38
0.00740082 0.11759081 0.93800002 8.0155898e-39
0.0090454463 0.11841312 0.93800002 1.7325859e-38
0.00740082 0.12170237 0.93800002 7.3683636e-39
0.0090454463 0.12170237 0.93800002 9.8572743e-39
0.0098774033 0.12512487 0.93900001 6.4475368e-39
0.012882909 0.12581395 0.93800008 1.7603556e-38
0.015623953 0.1291032 0.93800002 1.6960013e-38
0.017268579 0.13074781 0.93800002 1.6869264e-38
0.018390713 0.13313001 0.93933338 1.6592322e-38
0.021120653 0.13522993 0.9386667 1.5764357e-38
0.062561564 0.13500403 0.93900001 1.1430822e-38
0.06592533 0.13349879 0.94 1.0692535e-38
0.068397529 0.13267472 0.94 9.309595e-39
0.023331609 0.13807091 0.93933338 1.5579611e-38
0.025491713 0.13897096 0.93800002 1.5671808e-38
0.055094991 0.13897096 0.93800002 1.235275e-38
0.057917859 0.13862029 0.93933338 1.3271468e-38
0.06002887 0.13732633 0.93800002 1.2260198e-38
0.026625535 0.14136484 0.93933338 1.548742e-38
0.029349631 0.1418131 0.9386667 1.5211192e-38
0.033714846 0.14335662 0.93800008 1.5117917e-38
0.037826415 0.14390483 0.93800002 1.4933174e-38
0.042349137 0.14349368 0.93800002 1.502536e-38
0.04632365 0.141712 0.93800008 1.4840966e-38
0.050214589 0.14158955 0.93900007 1.3919725e-38
0.054388396 0.14091539 0.94 1.2260554e-38
0.030490464 0.14421166 0.94 1.5394149e-38
0.033786729 0.14503573 0.94 1.5394148e-38
0.038154285 0.14630572 0.93933338 1.5025723e-38
0.041662704 0.14639491 0.93920004 1.4841326e-38
0.045873046 0.14476106 0.94 1.4565454e-38
0.04861993 0.14421166 0.94 1.4381051e-38
-0.0016533933 0.085976452 0.94300002 1.5210847e-38
0.083496362 0.085976452 0.94300002 2.3509516e-38
0.085700892 0.086252019 0.94300002 4.1477215e-39
-0.00082669663 0.088456541 0.94300002 2.3509886e-38
0.08266966 0.090109937 0.94300002 2.3509886e-38
0.080189571 0.093416721 0.94300002 2.3509886e-38
0.010747056 0.12813799 0.94300002 7.8261062e-39
0.014053843 0.12979138 0.94300002 1.5943311e-38
0.015707236 0.13309816 0.94300002 1.7235153e-38
0.01736063 0.13475154 0.94300002 1.6684522e-38
0.066962428 0.13475154 0.94300002 1.0599607e-38
0.068615824 0.13475154 0.94300002 8.847891e-39
0.019014023 0.13640495 0.94300002 1.6039872e-38
0.021494113 0.13888504 0.94300002 1.5763642e-38
0.062002249 0.13805833 0.94300002 1.1797442e-38
0.023974203 0.14136513 0.94300002 1.5671092e-38
0.025627596 0.14301853 0.94300002 1.5855488e-38
0.053735282 0.14301853 0.94300002 1.2536788e-38
0.05704207 0.14136513 0.94300002 1.2074751e-38
0.02728099 0.14467192 0.94300002 1.5671089e-38
0.028934384 0.14467192 0.94300002 1.5486698e-38
0.033894565 0.14687645 0.94300002 1.5394507e-38
0.037201349 0.14797869 0.94300002 1.5118271e-38
0.04381492 0.14797869 0.94300002 1.4473622e-38
0.046570577 0.14742757 0.94300002 1.4473977e-38
0.049326237 0.14632532 0.94300002 1.3459819e-38
0.052081887 0.14467192 0.94300002 1.2629691e-38
0.041334834 0.1496321 0.94300002 1.4565818e-38
-0.0014931386 0.082469083 0.94640011 1.6594146e-38
0.0014955932 0.082573935 0.94760001 2.3509886e-38
0.078952596 0.083107993 0.94800001 2.3509886e-38
0.082440853 0.082440421 0.94750005 1.9637327e-38
0.085510939 0.08301945 0.94700003 3.3151331e-39
0.0016612833 0.086341143 0.94700003 2.3509886e-38
0.078121513 0.086432323 0.94800001 2.3509886e-38
0.08127401 0.086249962 0.94599998 2.3509886e-38
0.0019386023 0.089417085 0.94733334 2.3509886e-38
0.0041554002 0.089756638 0.94800001 2.3509886e-38
0.078121513 0.089756645 0.94800001 2.3509886e-38
0.08127401 0.089567274 0.94599998 2.3509886e-38
0.078187786 0.093460731 0.94680005 2.3509886e-38
0.080444686 0.092055254 0.94599998 2.3509886e-38
0.078786023 0.097031213 0.94599998 2.3509886e-38
0.0074797203 0.12715524 0.94800001 7.7382966e-39
0.0074797203 0.12881739 0.94800001 9.4864389e-39
0.0099519193 0.12937495 0.94599998 7.7321617e-39
0.012992783 0.13131006 0.94599998 1.4463841e-38
0.010804039 0.13297279 0.94800001 7.4548181e-39
0.014112579 0.13449293 0.94700003 1.4744802e-38
0.01579052 0.13712819 0.94800001 1.6502292e-38
0.017981019 0.13804227 0.94666666 1.6223178e-38
0.06302882 0.13849755 0.94599998 1.1245345e-38
0.066416264 0.13781464 0.94699997 9.2170533e-39
0.019114841 0.14045252 0.94800001 1.6222816e-38
0.021585286 0.14196563 0.94700003 1.5854759e-38
0.024050472 0.14347349 0.94599998 1.5855488e-38
0.055564884 0.14347349 0.94599998 1.2536788e-38
0.058370806 0.14302173 0.94666672 1.1799239e-38
0.062330995 0.14128359 0.94800001 1.1982538e-38
0.066486396 0.14045252 0.94800001 8.2968822e-39
0.025749015 0.14619249 0.94749999 1.5671093e-38
0.029855758 0.14679082 0.94599998 1.5486702e-38
0.050588921 0.14679082 0.94599998 1.3183234e-38
0.054261457 0.14618944 0.94640011 1.2536792e-38
0.057898574 0.14599305 0.94800007 1.1429739e-38
0.029918879 0.14876331 0.94800001 1.5487421e-38
0.034027524 0.14910814 0.94666672 1.5395225e-38
0.038188472 0.1502668 0.94700003 1.4842045e-38
0.043954313 0.15010811 0.94599998 1.4473622e-38
0.046442293 0.15010811 0.94599998 1.4104481e-38
0.050071694 0.14966102 0.94666666 1.2536424e-38
0.053577043 0.14910039 0.94749999 1.2167285e-38
0.046540476 0.15208764 0.94800001 1.4012284e-38
0.049864799 0.15208764 0.94800001 1.244459e-38
0.081703573 0.075867608 0.95099998 1.4106292e-38
0.0025011299 0.079202451 0.95099998 2.3509886e-38
0.00416855 0.079202451 0.95099998 2.3509886e-38
0.081703573 0.078368738 0.95099998 1.7609365e-38
0.084204704 0.078368738 0.95099998 1.2129583e-39
0.0025011299 0.080869861 0.95099998 2.3509886e-38
0.00416855 0.081703573 0.95099998 2.3509886e-38
0.075867608 0.082537279 0.95099998 2.3509886e-38
0.078368738 0.081703573 0.95099998 2.3509886e-38
0.080869861 0.080869861 0.95099998 2.3509886e-38
0.0041685505 0.085872129 0.95099998 2.3509886e-38
0.075867608 0.085872129 0.95099998 2.3509886e-38
0.077535026 0.084204704 0.95099998 2.3509886e-38
0.075867608 0.090040669 0.95099998 2.3509886e-38
0.077535026 0.095876642 0.95099998 2.3509886e-38
0.077535026 0.097544067 0.95099998 2.3509886e-38
0.012505649 0.13589473 0.95099998 1.4194087e-38
0.014173069 0.13756214 0.95099998 1.5303749e-38
0.01834162 0.1417307 0.95099998 1.622317e-38
0.065863088 0.1425644 0.95099998 9.1270002e-39
0.021676458 0.14506555 0.95099998 1.5854403e-38
0.024177589 0.14756666 0.95099998 1.5671442e-38
0.059193403 0.14756666 0.95099998 1.0969109e-38
0.061694533 0.14423183 0.95099998 1.1891071e-38
0.027512427 0.14923407 0.95099998 1.5395225e-38
0.054191146 0.1509015 0.95099998 1.152228e-38
0.057525985 0.14923407 0.95099998 1.2258031e-38
0.044186629 0.15256892 0.95099998 1.4288871e-38
0.058666527 0.062856995 0.95599997 2.3509886e-38
0.061180804 0.062856995 0.95599997 2.3509886e-38
0.058945894 0.065091908 0.95600003 2.3509886e-38
0.061180804 0.065371275 0.95599997 2.3509886e-38
0.066177808 0.066178203 0.9555555 2.3509886e-38
0.070023462 0.067233317 0.95466661 2.3509886e-38
0.067885555 0.069561742 0.95599997 2.3509886e-38
0.070679203 0.070120476 0.95600003 2.3509886e-38
0.07375221 0.070399836 0.95599997 2.3509886e-38
0.076266482 0.071237922 0.95599997 2.3509886e-38
0.0067047463 0.074590303 0.95599997 2.3509886e-38
0.01005712 0.074590303 0.95599997 2.3509886e-38
0.071237922 0.07375221 0.95599997 2.3509886e-38
0.07375221 0.07375221 0.95599997 2.3509886e-38
0.077807382 0.073623352 0.95433331 2.2126951e-38
0.081124976 0.074434258 0.954 1.3001494e-38
0.0025090198 0.077779613 0.954 2.3509886e-38
0.0063425582 0.077895582 0.9554286 2.3509886e-38
0.01005712 0.077942684 0.95599997 2.3509886e-38
0.071237922 0.077104583 0.95599997 2.3509886e-38
0.073700197 0.077887736 0.95533335 2.3509886e-38
0.077779613 0.077779606 0.95400006 2.3509886e-38
0.0066907201 0.081961319 0.954 2.3509886e-38
0.010047476 0.082047224 0.95499992 2.3509886e-38
0.074434258 0.081961319 0.954 2.3509886e-38
0.076943278 0.081124976 0.954 2.3509886e-38
0.006526608 0.085844599 0.9544 2.3509886e-38
0.0097713266 0.085147128 0.95533335 2.3509886e-38
0.074434265 0.086143017 0.954 2.3509886e-38
0.0058605163 0.090420276 0.95499998 2.3509886e-38
0.074512281 0.090420276 0.95499998 2.3509886e-38
0.074590303 0.093866453 0.95599997 2.3509886e-38
0.076106936 0.093670078 0.954 2.3509886e-38
0.074590303 0.096380726 0.95599997 2.3509886e-38
0.076106936 0.096179098 0.954 2.3509886e-38
0.010895213 0.1382854 0.95600003 1.4196286e-38
0.013806184 0.1393238 0.95449996 1.5671804e-38
0.015085679 0.14163776 0.95599997 1.6314661e-38
0.01756314 0.14301413 0.954 1.5946938e-38
0.019255983 0.14567655 0.95499998 1.6038793e-38
0.020908499 0.14635949 0.954 1.5854404e-38
0.061889157 0.14635949 0.954 1.0506356e-38
0.066070855 0.14552316 0.954 9.2177665e-39
0.021766756 0.14818734 0.95499998 1.5854404e-38
0.02598089 0.15085679 0.95599997 1.5487403e-38
0.03010824 0.15137753 0.954 1.5487421e-38
0.033453599 0.15137753 0.954 1.5303031e-38
0.058186993 0.15111804 0.95499998 1.179742e-38
0.061986901 0.14910302 0.95550001 1.0411988e-38
0.066162616 0.14907716 0.95533335 9.0308375e-39
0.030171357 0.15337107 0.95599997 1.5302311e-38
0.033523731 0.15337107 0.95599997 1.5025363e-38
0.036038011 0.15337107 0.95599997 1.5118271e-38
0.053525757 0.15305021 0.954 1.1984325e-38
0.056152247 0.15337107 0.95599997 1.1247126e-38
0.046239786 0.058850627 0.95900005 2.3509886e-38
0.049602676 0.058850627 0.95899999 2.3509886e-38
0.018495914 0.063054249 0.95899999 2.3509886e-38
0.047080502 0.061372798 0.95899999 2.3509886e-38
0.049602676 0.061372798 0.95899999 2.3509886e-38
0.056328461 0.063054249 0.95899999 2.3509886e-38
0.063054249 0.063054249 0.95899999 2.3509886e-38
0.064735696 0.063054249 0.95899999 2.3509886e-38
0.015413261 0.065856665 0.95899999 2.3509886e-38
0.018495914 0.065576419 0.95899999 2.3509886e-38
0.057169184 0.065576419 0.95899999 2.3509886e-38
0.063054249 0.065576419 0.95899999 2.3509886e-38
0.010509041 0.070200399 0.95899999 2.3509886e-38
0.014292298 0.068939321 0.95900005 2.3509886e-38
0.01765519 0.06809859 0.95899999 2.3509886e-38
0.062213525 0.06809859 0.95899999 2.3509886e-38
0.065856665 0.070340522 0.95899999 2.3509886e-38
0.068939313 0.071461476 0.95899999 2.3509886e-38
0.0075665093 0.073142923 0.95899999 2.3509886e-38
0.010088679 0.073142923 0.95899999 2.3509886e-38
0.01261085 0.07482437 0.95899999 2.3509886e-38
0.068939313 0.073983647 0.95899999 2.3509886e-38
0.01261085 0.076505817 0.95899999 2.3509886e-38
0.069499806 0.078187265 0.95900005 2.3509886e-38
0.071461476 0.082390882 0.95899999 2.3509886e-38
0.073142923 0.082390882 0.95899999 2.3509886e-38
0.010929403 0.0865945 0.95899999 2.3509886e-38
0.071461476 0.085753776 0.95899999 2.3509886e-38
0.073142923 0.085753776 0.95899999 2.3509886e-38
0.0075665093 0.08911667 0.95899999 2.3509886e-38
0.0092479559 0.08911667 0.95899999 2.3509886e-38
0.073142923 0.090798117 0.95899999 2.3509886e-38
0.073142923 0.094161004 0.95899999 2.3509886e-38
0.073142923 0.096683174 0.95899999 2.3509886e-38
0.014292296 0.14292295 0.95899999 1.6131709e-38
0.01765519 0.14628585 0.95899999 1.6038793e-38
0.018495914 0.14880802 0.95899999 1.6038797e-38
0.021858806 0.15048946 0.95899999 1.5762209e-38
0.022699529 0.15217091 0.95899999 1.5854402e-38
0.02564206 0.153432 0.95899999 1.5487051e-38
0.030266037 0.15553381 0.95899999 1.5116838e-38
0.033628933 0.15553381 0.95899999 1.5208668e-38
0.038168836 0.15486123 0.95900005 1.4749482e-38
0.042036165 0.15469308 0.95899999 1.4472899e-38
0.046239786 0.15553382 0.95899999 1.4104482e-38
0.0504434 0.15553381 0.95899999 1.2628628e-38
0.052965567 0.15553381 0.95899999 1.2168359e-38
0.058850627 0.15385236 0.95899999 1.1058784e-38
0.062493768 0.1527314 0.95899999 8.0177786e-39
0.065576419 0.15301163 0.95899999 7.5593046e-39
0.051444549 0.059878085 0.96200001 2.3509886e-38
0.053131256 0.059878085 0.96200001 2.3509886e-38
0.014366813 0.063382991 0.96399999 2.3509886e-38
0.017324686 0.062115334 0.96399999 2.3509886e-38
0.021676458 0.062775761 0.96333331 2.3509886e-38
0.024508093 0.063382991 0.96399999 2.3509886e-38
0.043100435 0.060847677 0.96399999 2.3509886e-38
0.045323081 0.062776923 0.96333331 2.3509886e-38
0.050204508 0.062862694 0.96249998 2.3509886e-38
0.053974614 0.062408142 0.96200001 2.3509886e-38
0.014366813 0.065073207 0.96399999 2.3509886e-38
0.021950856 0.065849937 0.96299994 2.3509886e-38
0.024508093 0.065918311 0.96399999 2.3509886e-38
0.051551506 0.065918311 0.96399999 2.3509886e-38
0.054058336 0.06588456 0.96350002 2.3509886e-38
0.056504674 0.06662491 0.96200001 2.3509886e-38
0.013493653 0.071685031 0.96200001 2.3509886e-38
0.018279374 0.0705854 0.96233338 2.3509886e-38
0.021661848 0.068921201 0.96266669 2.3509886e-38
0.024508093 0.06845364 0.96399999 2.3509886e-38
0.057889804 0.069721296 0.96399999 2.3509886e-38
0.061377186 0.070542604 0.96285713 2.3509886e-38
0.064938203 0.071685031 0.96200001 2.3509886e-38
0.013774771 0.073933974 0.96200007 2.3509886e-38
0.017402533 0.074169852 0.96359998 2.3509886e-38
0.061978228 0.074138641 0.96320003 2.3509886e-38
0.065781556 0.074215092 0.96200001 2.3509886e-38
0.013784707 0.077923983 0.96266669 2.3509886e-38
0.016620431 0.077468112 0.96399999 2.3509886e-38
0.062819593 0.077468112 0.96399999 2.3509886e-38
0.065815307 0.077629268 0.96250004 2.3509886e-38
0.013092578 0.081511147 0.96350002 2.3509886e-38
0.063382991 0.080285132 0.96399999 2.3509886e-38
0.066059642 0.081603989 0.96359998 2.3509886e-38
0.069014713 0.082177334 0.96240008 2.3509886e-38
0.012676599 0.086200878 0.96399999 2.3509886e-38
0.069580451 0.085919172 0.96399999 2.3509886e-38
0.0075901798 0.091925509 0.96200001 2.3509886e-38
0.010401359 0.090238802 0.96200007 2.3509886e-38
0.071759552 0.089489251 0.963 2.3509886e-38
0.073371738 0.088552095 0.96200001 2.3509886e-38
0.071834072 0.093806833 0.96399999 2.3509886e-38
0.071834065 0.097187266 0.96399999 2.3509886e-38
0.074215092 0.098672338 0.96200001 2.3509886e-38
0.076745152 0.098672338 0.96200001 2.3509886e-38
0.074414968 0.10175154 0.96239996 2.3509886e-38
0.077548876 0.10255422 0.96359998 2.3509886e-38
0.077749804 0.10563833 0.96399999 2.3509886e-38
0.013936808 0.14570594 0.96349996 1.6223543e-38
0.016023712 0.14674348 0.96200001 1.5763293e-38
0.017727075 0.15027204 0.963 1.5763292e-38
0.019437451 0.15296429 0.96399999 1.5671089e-38
0.021660678 0.15387838 0.96266669 1.5670729e-38
0.061564788 0.15433365 0.96200001 9.6776517e-39
0.026160901 0.1561285 0.96266669 1.5210834e-38
0.030423837 0.15803494 0.96399999 1.4841338e-38
0.033769201 0.15871611 0.963 1.4841327e-38
0.03799035 0.15871613 0.963 1.4564738e-38
0.042211499 0.15871611 0.96299994 1.4288508e-38
0.045354061 0.15859835 0.96399999 1.3920441e-38
0.049861293 0.15803495 0.96399999 1.2075816e-38
0.058191381 0.15602037 0.96200007 1.0506693e-38
0.061692785 0.15634473 0.96399999 9.1208681e-39
0.014411522 0.061884776 0.96700001 1.971365e-38
0.016954733 0.060189299 0.96700001 2.3508451e-38
0.02288889 0.061884776 0.96700001 2.3509886e-38
0.026279835 0.06273251 0.96700001 2.3509886e-38
0.038995884 0.061884776 0.96700001 2.3509886e-38
0.041962966 0.062308643 0.96700001 2.3509886e-38
0.026844993 0.065840885 0.96700001 2.3509886e-38
0.039278463 0.065840885 0.96700001 2.3509886e-38
0.04238683 0.066123456 0.96700001 2.3509886e-38
0.045777783 0.066123456 0.96700001 2.3509886e-38
0.049168725 0.066123456 0.96700001 2.3509886e-38
0.02288889 0.070362143 0.96700001 2.3509886e-38
0.025714679 0.069796994 0.96700001 2.3509886e-38
0.043234568 0.068666667 0.96700001 2.3509886e-38
0.045777779 0.068666667 0.96700001 2.3509886e-38
0.05044033 0.069090538 0.96700001 2.3509886e-38
0.054255143 0.069514409 0.96700001 2.3509886e-38
0.056798354 0.070362143 0.96700001 2.3509886e-38
0.019497944 0.075448565 0.96700001 2.3509886e-38
0.022041153 0.073753089 0.96700001 2.3509886e-38
0.025432099 0.072905347 0.96700001 2.3509886e-38
0.055102881 0.072905347 0.96700001 2.3509886e-38
0.057476547 0.074092187 0.96700001 2.3509886e-38
0.060189299 0.075448565 0.96700001 2.3509886e-38
0.018932788 0.078274354 0.96700001 2.3509886e-38
0.021193415 0.077144034 0.96700001 2.3509886e-38
0.058493827 0.077144034 0.96700001 2.3509886e-38
0.060754459 0.078274354 0.96700001 2.3509886e-38
0.014411522 0.083078191 0.96700001 2.3509886e-38
0.016672155 0.081100143 0.96700001 2.3509886e-38
0.06222387 0.081891358 0.96700001 2.3509886e-38
0.065275721 0.083925925 0.96700001 2.3509886e-38
0.014411522 0.085621402 0.96700001 2.3509886e-38
0.06697119 0.086469136 0.96700001 2.3509886e-38
0.068666667 0.087316871 0.96700001 2.3509886e-38
0.012716049 0.089860082 0.96700001 2.3509886e-38
0.069514409 0.089860082 0.96700001 2.3509886e-38
0.0059341565 0.094946504 0.96700001 2.3509886e-38
0.01017284 0.093251027 0.96700001 2.3509886e-38
0.070362143 0.094098769 0.96700001 2.3509886e-38
0.072057612 0.099185184 0.96700001 2.3509886e-38
0.075448565 0.10596708 0.96700001 2.3509886e-38
0.077991769 0.10766255 0.96700001 2.3509886e-38
0.011020577 0.11444444 0.96700001 1.5574726e-38
0.012716049 0.11444444 0.96700001 2.0092294e-38
0.011020577 0.11613992 0.96700001 1.3274276e-38
0.012716049 0.11613992 0.96700001 1.2444157e-38
0.012716049 0.14665844 0.96700001 1.613279e-38
0.013281207 0.14948422 0.96700001 1.6407574e-38
0.016954733 0.15174486 0.96700001 1.594768e-38
0.018650208 0.15428807 0.96700001 1.5302304e-38
0.022041153 0.15683128 0.96700001 1.5303386e-38
0.026279835 0.15852675 0.96700001 1.5118285e-38
0.055102881 0.15683128 0.96700001 1.1709183e-38
0.063580252 0.15683128 0.96700001 7.1847599e-39
0.030518519 0.16022222 0.96700001 1.474914e-38
0.034192041 0.16248286 0.96700001 1.4932081e-38
0.03814815 0.16276544 0.96700001 1.4471819e-38
0.042386834 0.16276544 0.96700001 1.3827171e-38
0.045777779 0.16106996 0.96700001 1.3643493e-38
0.049677368 0.16090041 0.96700001 1.2076183e-38
0.026361367 0.060376033 0.97000003 2.3509886e-38
0.029975425 0.061864182 0.97000015 2.3509886e-38
0.034014668 0.06207677 0.97000015 2.3509886e-38
0.036565773 0.06207677 0.97000003 2.3509886e-38
0.030102981 0.066498674 0.97000009 2.3509886e-38
0.034014665 0.0663286 0.97000003 2.3509886e-38
0.03713268 0.066612057 0.97000003 2.3509886e-38
0.029422689 0.069559984 0.97000009 2.3509886e-38
0.034014665 0.068879694 0.97000003 2.3509886e-38
0.038691685 0.069304876 0.97000003 2.3509886e-38
0.042234879 0.070013516 0.97000003 2.3509886e-38
0.045919798 0.07058043 0.97000003 2.3509886e-38
0.049321264 0.07058043 0.97000003 2.3509886e-38
0.025511 0.075682633 0.97000003 2.3509886e-38
0.028062101 0.073131531 0.97000003 2.3509886e-38
0.042518333 0.072281167 0.97000003 2.3509886e-38
0.045919798 0.072281167 0.97000003 2.3509886e-38
0.050171636 0.073131531 0.97000015 2.3509886e-38
0.05399828 0.074407086 0.97000003 2.3509886e-38
0.022392988 0.078517191 0.97000003 2.3509886e-38
0.025227545 0.077950284 0.97000003 2.3509886e-38
0.054706924 0.077950284 0.97000003 2.3509886e-38
0.057541482 0.078517191 0.97000003 2.3509886e-38
0.018991522 0.081918649 0.97000003 2.3509886e-38
0.021259166 0.081635192 0.97000003 2.3509886e-38
0.055273835 0.080784827 0.97000003 2.3509886e-38
0.057824932 0.081635192 0.97000003 2.3509886e-38
0.060376033 0.082485564 0.97000003 2.3509886e-38
0.014456232 0.087587766 0.97000003 2.3509886e-38
0.016723879 0.084753215 0.97000003 2.3509886e-38
0.062416911 0.085546888 0.97000009 2.3509886e-38
0.065478235 0.086737394 0.97000003 2.3509886e-38
0.014456232 0.089288503 0.97000003 2.3509886e-38
0.063777499 0.089288503 0.97000003 2.3509886e-38
0.066612057 0.089855418 0.97000003 2.3509886e-38
0.011054766 0.094390698 0.97000003 2.3509886e-38
0.012755499 0.092689969 0.97000003 2.3509886e-38
0.068879694 0.093540333 0.97000003 2.3509886e-38
0.0093540326 0.096091427 0.97000003 2.3509886e-38
0.069730058 0.096941799 0.97000003 2.3509886e-38
0.072281167 0.10119363 0.97000003 2.3509886e-38
0.074548811 0.10629584 0.97000003 2.3509886e-38
0.075682633 0.1096973 0.97000003 2.3509886e-38
0.077383369 0.1096973 0.97000003 2.3509886e-38
0.011054766 0.11820097 0.97000003 1.751355e-38
0.014456232 0.11650023 0.97000003 1.9157199e-38
0.011054766 0.14711343 0.97000003 1.5395225e-38
0.011054766 0.14881416 0.97000003 1.5669992e-38
0.013889322 0.15278254 0.97000003 1.613172e-38
0.016723877 0.1550502 0.97000003 1.5854752e-38
0.019558433 0.15731783 0.97000003 1.5762209e-38
0.022959899 0.15901856 0.97000003 1.5671092e-38
0.053573098 0.15901856 0.97000003 1.1523718e-38
0.026361367 0.16156965 0.97000003 1.4934607e-38
0.029337648 0.16199484 0.97000003 1.4933173e-38
0.046770167 0.16242003 0.97000003 1.3090318e-38
0.051872365 0.16242003 0.97000003 1.2905924e-38
0.029762832 0.16412076 0.97000003 1.4748784e-38
0.034014665 0.16497114 0.97000003 1.4379278e-38
0.038266502 0.16582152 0.97000003 1.4287073e-38
0.042518333 0.16582151 0.97000003 1.3735687e-38
0.045919798 0.16412076 0.97000003 1.3642047e-38
0.049321264 0.16412076 0.97000003 1.3089612e-38
0.031560875 0.070798725 0.97299999 2.3509886e-38
0.034119867 0.070798725 0.97299999 2.3509886e-38
0.037531853 0.070798725 0.97299999 2.3509886e-38
0.030150026 0.074236125 0.97333336 2.3509886e-38
0.034189999 0.073508501 0.97500002 2.3509886e-38
0.037589274 0.073471248 0.97449994 2.3509886e-38
0.041434772 0.073898621 0.97449994 2.3509886e-38
0.046061821 0.074210711 0.97299999 2.3509886e-38
0.050326798 0.0759167 0.97299999 2.3509886e-38
0.052032795 0.0759167 0.97299999 2.3509886e-38
0.026442895 0.079328686 0.97299999 2.3509886e-38
0.030152198 0.078247882 0.97471434 2.3509886e-38
0.034189999 0.076072745 0.97500002 2.3509886e-38
0.037608996 0.076072745 0.97500002 2.3509886e-38
0.041882753 0.076072745 0.97500008 2.3509886e-38
0.0461565 0.076072745 0.97500002 2.3509886e-38
0.0495755 0.077782243 0.97500002 2.3509886e-38
0.052672766 0.078867562 0.97433329 2.3509886e-38
0.023030909 0.081887677 0.97299999 2.3509886e-38
0.025617076 0.081971839 0.97399998 2.3509886e-38
0.029574348 0.081885055 0.97500002 2.3509886e-38
0.054307453 0.082172006 0.97299999 2.3509886e-38
0.01834951 0.086196937 0.97350001 2.3509886e-38
0.022212539 0.085431606 0.97450006 2.3509886e-38
0.02478775 0.084620245 0.97500002 2.3509886e-38
0.05495093 0.085132226 0.97433329 2.3509886e-38
0.058063388 0.085388206 0.97400004 2.3509886e-38
0.061415754 0.08700566 0.97299999 2.3509886e-38
0.014500943 0.09127064 0.97299999 2.3509886e-38
0.017607849 0.089406848 0.97500002 2.3509886e-38
0.058977749 0.088039249 0.97500002 2.3509886e-38
0.061541997 0.088893995 0.97500002 2.3509886e-38
0.064893492 0.091364443 0.97399998 2.3509886e-38
0.013676 0.094022498 0.97500002 2.3509886e-38
0.066601247 0.093926065 0.97399998 2.3509886e-38
0.0068239728 0.098094612 0.97299999 2.3509886e-38
0.010527889 0.097593158 0.97366667 2.3509886e-38
0.01282125 0.096586749 0.97500002 2.3509886e-38
0.066601247 0.096487686 0.97399998 2.3509886e-38
0.069945723 0.098947607 0.97299999 2.3509886e-38
0.070089497 0.1008605 0.97500002 2.3509886e-38
0.072504714 0.10321259 0.97299999 2.3509886e-38
0.072579235 0.10588117 0.97399998 2.3509886e-38
0.074210711 0.10918356 0.97299999 2.3509886e-38
0.01279495 0.15439238 0.97299999 1.6957512e-38
0.013950981 0.15688214 0.97433341 1.6591622e-38
0.017922133 0.15873934 0.97350001 1.6038435e-38
0.021324914 0.15951037 0.97299999 1.5486342e-38
0.055444781 0.15951037 0.97299999 1.1524066e-38
0.058003772 0.15951037 0.97299999 1.1245696e-38
0.061415754 0.15951037 0.97299999 7.9252088e-39
0.022508418 0.16211759 0.97500008 1.5578878e-38
0.024762325 0.16223681 0.97399998 1.5211553e-38
0.054647893 0.16223681 0.97400004 1.1983598e-38
0.058063384 0.16223681 0.97399998 1.1430438e-38
0.061215587 0.16200712 0.97433341 5.7117906e-39
0.02307825 0.16496675 0.97500002 1.5945506e-38
0.025628909 0.1657369 0.97449994 1.5118277e-38
0.029874168 0.16644832 0.97366667 1.4932456e-38
0.033266868 0.16633435 0.97299999 1.4655139e-38
0.046061821 0.16633435 0.97299999 1.3459451e-38
0.0494738 0.16633435 0.97299999 1.3182518e-38
0.053395137 0.16530952 0.97450006 1.2996337e-38
0.058123 0.16496675 0.97500002 9.9546001e-39
0.030770998 0.16838576 0.97500002 1.5024288e-38
0.034172028 0.16915414 0.97450006 1.4564382e-38
0.037570424 0.1690678 0.97399998 1.4380348e-38
0.041390941 0.16855407 0.97350001 1.3827533e-38
0.0461565 0.16838576 0.97500002 1.3459117e-38
0.0495755 0.16838576 0.97500002 1.3458394e-38
0.034295198 0.078878962 0.97799999 2.3509886e-38
0.037724718 0.078878954 0.97799999 2.3509886e-38
0.042011619 0.078878962 0.97800004 2.3509886e-38
0.046298519 0.078878954 0.97799999 2.3509886e-38
0.048870657 0.079736337 0.97799999 2.3509886e-38
0.03172306 0.083165854 0.97799999 2.3509886e-38
0.034295198 0.082308471 0.97799999 2.3509886e-38
0.037438925 0.082022682 0.97800004 2.3509886e-38
0.042011619 0.081451103 0.97800004 2.3509886e-38
0.047155898 0.081451096 0.97799999 2.3509886e-38
0.050013833 0.082022682 0.97800004 2.3509886e-38
0.052300178 0.082308471 0.97799999 2.3509886e-38
0.02600719 0.086023793 0.97800004 2.3509886e-38
0.030008299 0.085737996 0.97800004 2.3509886e-38
0.034009404 0.085452199 0.97800004 2.3509886e-38
0.050585419 0.084880613 0.97799999 2.3509886e-38
0.053157557 0.085737996 0.97799999 2.3509886e-38
0.019148152 0.091168068 0.97800004 2.3509886e-38
0.02229188 0.089167506 0.97799999 2.3509886e-38
0.024864018 0.088310137 0.97799999 2.3509886e-38
0.055729698 0.088310137 0.97799999 2.3509886e-38
0.058016043 0.089453302 0.97800004 2.3509886e-38
0.061445564 0.091168068 0.97800004 2.3509886e-38
0.014575459 0.095169172 0.97799999 2.3509886e-38
0.016861806 0.094025999 0.97800004 2.3509886e-38
0.064303495 0.094311789 0.97799999 2.3509886e-38
0.014003873 0.09802711 0.97800004 2.3509886e-38
0.016290218 0.096883938 0.97799999 2.3509886e-38
0.066018254 0.097741321 0.97799999 2.3509886e-38
0.0077164196 0.10031345 0.97799999 2.3509886e-38
0.010288559 0.10031345 0.97799999 2.3509886e-38
0.0128607 0.10031345 0.97799999 2.3509886e-38
0.070305154 0.10288559 0.97799999 2.3509886e-38
0.071162537 0.10631511 0.97799999 2.3509886e-38
0.071162537 0.10888726 0.97799999 2.3509886e-38
0.072877295 0.10974464 0.97799999 2.3509886e-38
0.073734671 0.11317416 0.97799999 2.3509886e-38
0.076878414 0.11345994 0.97800004 2.046743e-38
0.0128607 0.15861529 0.97799999 1.7417724e-38
0.01800498 0.16147324 0.97800004 1.6497979e-38
0.021434499 0.16375957 0.97799999 1.5762544e-38
0.022006087 0.16661751 0.97800004 1.6221369e-38
0.054872319 0.16718909 0.97799999 1.1614114e-38
0.058301836 0.16718909 0.97799999 4.7005212e-39
0.060873974 0.16547433 0.97799999 4.1477271e-39
0.025721397 0.16890386 0.97799999 1.5118985e-38
0.030008299 0.17004703 0.97800004 1.5209028e-38
0.042868998 0.17061861 0.97799999 1.3735697e-38
0.046298519 0.17061861 0.97799999 1.3274006e-38
0.049728036 0.17061861 0.97799999 1.1061655e-38
0.054014936 0.16890387 0.97800004 1.0234076e-38
0.03172306 0.17233337 0.97799999 1.4838792e-38
0.034295198 0.17233337 0.97799999 1.4746965e-38
0.037724718 0.17233337 0.97799999 1.419524e-38
0.042011619 0.17233339 0.97800004 1.3735348e-38
0.046298519 0.17233337 0.97799999 1.235136e-38
0.03870045 0.083420962 0.98100001 2.3509886e-38
0.042140491 0.083420962 0.98100007 2.3509886e-38
0.046153873 0.082847625 0.98100007 2.3509886e-38
0.049020566 0.083420962 0.98100001 2.3509886e-38
0.035260409 0.086861007 0.98100001 2.3509886e-38
0.037840441 0.086000994 0.98100001 2.3509886e-38
0.042161088 0.086045265 0.98150009 2.3509886e-38
0.046511553 0.086133815 0.98250002 2.3509886e-38
0.049593907 0.08628767 0.98100007 2.3509886e-38
0.052460607 0.086861007 0.98100001 2.3509886e-38
0.026086969 0.0897277 0.98100007 2.3509886e-38
0.030116566 0.089487061 0.98150003 2.3509886e-38
0.034452997 0.089579105 0.98250002 2.3509886e-38
0.037668616 0.089427017 0.98400009 2.3509886e-38
0.04226936 0.088851921 0.98400009 2.3509886e-38
0.046582557 0.088851921 0.98400003 2.3509886e-38
0.049956851 0.089579105 0.98250002 2.3509886e-38
0.053836625 0.089613035 0.98100007 2.3509886e-38
0.019206889 0.094887763 0.98100007 2.3509886e-38
0.022372093 0.093789749 0.98150009 2.3509886e-38
0.025566231 0.092783771 0.98300004 2.3509886e-38
0.02932976 0.092302479 0.98400003 2.3509886e-38
0.050895758 0.092302479 0.98400003 2.3509886e-38
0.05348368 0.092302479 0.98400003 2.3509886e-38
0.058341727 0.093405768 0.98350012 2.3509886e-38
0.061920717 0.094601102 0.98100001 2.3509886e-38
0.0025879201 0.099203601 0.98400003 2.3509886e-38
0.0043131998 0.099203601 0.98400003 2.3509886e-38
0.01841631 0.098273635 0.98159999 2.3509886e-38
0.021566 0.098340958 0.98400003 2.3509886e-38
0.062271383 0.097855292 0.98200005 2.3509886e-38
0.065459386 0.09905237 0.98250002 2.3509886e-38
0.0060325623 0.10171328 0.98325002 2.3509886e-38
0.01032012 0.10234118 0.98100001 2.3509886e-38
0.014046829 0.10176784 0.98100007 2.3509886e-38
0.017760389 0.10155745 0.98340005 2.3509886e-38
0.066644728 0.1014333 0.98220009 2.3509886e-38
0.0077637597 0.10437944 0.98400003 2.3509886e-38
0.01035168 0.10437944 0.98400003 2.3509886e-38
0.01380224 0.10437944 0.98400003 2.3509886e-38
0.01639016 0.10437944 0.98400003 2.3509886e-38
0.066929117 0.10484846 0.98300004 2.3509886e-38
0.069055907 0.10625569 0.98220009 2.3509886e-38
0.069399916 0.11038794 0.98220009 2.3509886e-38
0.070627332 0.11369491 0.98250002 2.3509886e-38
0.070951268 0.11691314 0.98300004 2.3509886e-38
0.014620169 0.16082187 0.98100001 1.6312143e-38
0.01639016 0.16303895 0.98400003 1.6957114e-38
0.019114314 0.16583991 0.98220009 1.6493268e-38
0.061920717 0.16598192 0.98100001 4.5161383e-39
0.01897808 0.16907744 0.98400003 1.1977782e-38
0.022394449 0.17054367 0.98250002 1.2068941e-38
0.025800299 0.17114198 0.98100001 1.3363658e-38
0.028380331 0.17114198 0.98100001 1.5484878e-38
0.053320616 0.17114198 0.98100001 5.6225265e-39
0.057677656 0.17016977 0.98200005 2.3985045e-39
0.02613957 0.17378953 0.98300004 9.3970935e-39
0.029773703 0.17400078 0.98159999 9.2159434e-39
0.034400396 0.17458203 0.98100001 9.9538812e-39
0.037840441 0.17458203 0.98100001 1.0046433e-38
0.042140491 0.17458205 0.98100007 9.1255667e-39
0.046440542 0.17458203 0.98100001 4.3289767e-39
0.049919371 0.17385548 0.98175001 6.4518808e-39
0.052460607 0.17286201 0.98100001 4.5240725e-39
0.038937148 0.090853348 0.98699999 2.3509886e-38
0.041532956 0.090853348 0.98699999 2.3509886e-38
0.045859307 0.090853356 0.98699999 2.3509886e-38
0.02682337 0.094314426 0.98699999 2.3509886e-38
0.028553909 0.094314426 0.98699999 2.3509886e-38
0.033745527 0.092583887 0.98699999 2.3509886e-38
0.038071878 0.092583887 0.98699999 2.3509886e-38
0.041532956 0.092583887 0.98699999 2.3509886e-38
0.045859307 0.092583887 0.98699999 2.3509886e-38
0.049897235 0.093737587 0.98699999 2.3509886e-38
0.05364674 0.094314426 0.98699999 2.3509886e-38
0.056242548 0.094314426 0.98699999 2.3509886e-38
0.023362288 0.097775504 0.98699999 2.3509886e-38
0.05364674 0.096044965 0.98699999 2.3509886e-38
0.057107817 0.096044965 0.98699999 2.3509886e-38
0.061434165 0.099506043 0.98699999 2.3509886e-38
0.019901209 0.10296712 0.98699999 2.3509886e-38
0.021631747 0.10123658 0.98699999 2.3509886e-38
0.063164711 0.10210185 0.98699999 2.3509886e-38
0.06489525 0.10296712 0.98699999 2.3509886e-38
0.0060568894 0.10556294 0.98699999 2.3509883e-38
0.010383239 0.10642821 0.98699999 2.3509886e-38
0.01384432 0.10642821 0.98699999 2.3509886e-38
0.01817067 0.10527452 0.98699999 2.3509886e-38
0.063164711 0.10469767 0.98699999 2.3509886e-38
0.06489525 0.10556294 0.98699999 2.3509886e-38
0.010383239 0.10815874 0.98699999 2.3509886e-38
0.01297905 0.10815874 0.98699999 2.3509886e-38
0.066193156 0.10945665 0.98699999 2.3509886e-38
0.068356328 0.11335036 0.98699999 2.3509886e-38
0.070086867 0.11854198 0.98699999 2.3509886e-38
0.070086867 0.12027252 0.98699999 2.2220601e-38
0.016440129 0.16613182 0.98699999 1.5200997e-38
0.057973087 0.17218871 0.98699999 3.4126452e-39
0.030345816 0.094505541 0.98900002 2.3509886e-38
0.033813909 0.094505541 0.98900002 2.3509886e-38
0.038149025 0.094505541 0.98900002 2.3509886e-38
0.041617118 0.094505541 0.98900002 2.3509886e-38
0.045952238 0.094505541 0.98900002 2.3509886e-38
0.023409629 0.099707678 0.98900002 2.3509886e-38
0.025837293 0.097626828 0.98900002 2.3509886e-38
0.029546514 0.097328186 0.99125004 2.3509886e-38
0.033894911 0.097168855 0.99139994 2.3509886e-38
0.038206883 0.097255208 0.99049997 2.3509886e-38
0.041680243 0.0972552 0.99050003 2.3509886e-38
0.046021931 0.0972552 0.99049997 2.3509886e-38
0.050324827 0.097180903 0.98975003 2.3509886e-38
0.053755447 0.097973637 0.98900002 2.3509886e-38
0.058524076 0.098407149 0.98900002 2.3509886e-38
0.022831615 0.10259777 0.98900002 2.3509886e-38
0.025799714 0.10174944 0.99199998 2.3509886e-38
0.028698558 0.10001013 0.99199998 2.3509886e-38
0.042033248 0.1005899 0.99199998 2.3509886e-38
0.04574376 0.10070585 0.99200004 2.3509886e-38
0.05043989 0.10001013 0.99199998 2.3509886e-38
0.053918503 0.10001013 0.99199998 2.3509886e-38
0.057882614 0.10099217 0.99140006 2.3509886e-38
0.061041128 0.10270208 0.99000001 2.3509886e-38
0.019074513 0.10664387 0.98900002 2.3509886e-38
0.022594549 0.10601814 0.99125004 2.3509886e-38
0.025219945 0.10522804 0.99199998 2.3509886e-38
0.061284434 0.10607859 0.99019998 2.3509886e-38
0.0064222845 0.10955194 0.99020004 2.1110957e-38
0.01040428 0.11011196 0.98900002 2.3509886e-38
0.014161381 0.10953395 0.98900002 2.3509886e-38
0.017366767 0.10941194 0.99050003 2.3509886e-38
0.02087168 0.10870666 0.99199998 2.3509886e-38
0.062519044 0.10941062 0.99049997 2.3509886e-38
0.065026753 0.11097898 0.98900002 2.3509886e-38
0.0060875728 0.11218527 0.99199998 1.7976252e-38
0.010435839 0.11218527 0.99199998 2.3509886e-38
0.013914453 0.11218527 0.99199998 2.3509886e-38
0.063484691 0.11305492 0.99199998 2.3509886e-38
0.0659924 0.11462066 0.99050003 2.3509886e-38
0.068494841 0.1153141 0.98900002 2.3509886e-38
0.066862047 0.11809532 0.99049997 2.3509886e-38
0.068494841 0.11791517 0.98900002 2.3509886e-38
0.0669633 0.12088181 0.99199998 2.3509886e-38
0.068494841 0.12051625 0.98900002 2.3509886e-38
0.014784106 0.16523412 0.99199998 1.1978148e-38
0.034019049 0.098568007 0.995 2.3509886e-38
0.027040781 0.10292943 0.995 2.3509886e-38
0.029657632 0.10118486 0.995 2.3509886e-38
0.035763618 0.10031258 0.995 2.3509886e-38
0.038671229 0.10089411 0.99500006 2.3509886e-38
0.040997315 0.10205714 0.995 2.3509886e-38
0.047975581 0.10205714 0.995 2.3509886e-38
0.050592434 0.10205714 0.995 2.3509886e-38
0.054372326 0.10263866 0.99500006 2.3509886e-38
0.057570696 0.10380171 0.995 2.3509886e-38
0.02645926 0.10670932 0.99500006 2.3509886e-38
0.05844298 0.10554628 0.995 2.3509886e-38
0.021807082 0.11019846 0.99500006 2.3509886e-38
0.060187545 0.10990769 0.995 2.3509886e-38
0.0061059832 0.11426912 0.99500006 1.4563206e-38
0.010467399 0.11426912 0.995 2.3509738e-38
0.013956534 0.11426912 0.995 2.3509886e-38
0.017445665 0.11252454 0.995 2.3509886e-38
0.020934798 0.11252454 0.995 2.3509886e-38
0.0069782659 0.11601368 0.995 1.5578825e-38
0.0095951157 0.11601368 0.995 1.807347e-38
0.065421246 0.11775824 0.995 2.3509886e-38
0.067165814 0.12299194 0.995 2.3509886e-38
0.030621966 0.10236486 0.99800003 2.3509886e-38
0.033771653 0.10166492 0.99800009 2.3509886e-38
0.037621275 0.10236486 0.99800003 2.3509886e-38
0.029747052 0.10586451 0.99800009 2.3509886e-38
0.039371099 0.10411468 0.99800003 2.3509886e-38
0.041995838 0.10411468 0.99800003 2.3509886e-38
0.045495495 0.10411468 0.99800003 2.3509886e-38
0.049870059 0.10411468 0.99800003 2.3509886e-38
0.054244623 0.10586451 0.99800003 2.3509886e-38
0.057452641 0.10703107 0.99800003 2.3509886e-38
0.02362266 0.11111399 0.99800003 2.3509886e-38
0.026247399 0.11023907 0.99800003 2.3509886e-38
0.05774428 0.11023907 0.99800003 2.3509886e-38
0.017498266 0.11461364 0.99800003 2.3509886e-38
0.02231029 0.11417618 0.99800003 2.3509886e-38
0.025372487 0.11286382 0.99800003 2.3509886e-38
0.061243933 0.11373873 0.99800003 2.3509886e-38
0.011373873 0.11636347 0.99800003 2.2308098e-38
0.013998613 0.11636347 0.99800003 2.3509886e-38
0.017498266 0.11636347 0.99800003 2.3509886e-38
0.020997919 0.11636347 0.99800003 2.3509886e-38
0.063285396 0.11694675 0.99800003 2.3509886e-38
0.065618493 0.11986312 0.99800003 2.3509886e-38
0.065618493 0.12248787 0.99800003 2.3509886e-38
0.03422419 0.10618273 1.001 2.3509886e-38
0.038319394 0.10559772 1.0010002 2.3509886e-38
0.042122081 0.10618274 1.001 2.3509886e-38
0.045632251 0.10618274 1.001 2.3509886e-38
0.050019972 0.10706028 1.001 2.3509886e-38
0.053530145 0.10793784 1.001 2.3509886e-38
0.029836472 0.11057046 1.001 2.3509886e-38
0.033346646 0.11057046 1.001 2.3509886e-38
0.038067494 0.1102417 1.0039998 2.3509886e-38
0.042248316 0.10914148 1.0039999 2.3509886e-38
0.045945045 0.10966959 1.0039999 2.3509886e-38
0.050119035 0.11079225 1.003 2.3509886e-38
0.054407686 0.11057046 1.001 2.3509886e-38
0.026618816 0.11437315 1.0010002 2.3509886e-38
0.029836472 0.11408064 1.001 2.3509886e-38
0.033422258 0.1143377 1.0032499 2.3509886e-38
0.036087103 0.11354235 1.0039999 2.3509886e-38
0.051343441 0.11412913 1.0039999 2.3509886e-38
0.05452932 0.11433771 1.00325 2.3509886e-38
0.057917859 0.11408064 1.001 2.3509886e-38
0.0096529769 0.11846835 1.001 1.4102278e-38
0.014918236 0.11846835 1.001 2.3506619e-38
0.017550867 0.11846835 1.001 2.3509886e-38
0.022377355 0.11802958 1.001 2.3509886e-38
0.026346682 0.11767957 1.00175 2.3509886e-38
0.029632499 0.11764982 1.0039999 2.3509886e-38
0.03256641 0.11706305 1.0039999 2.3509886e-38
0.054570742 0.11794321 1.0039999 2.3509886e-38
0.05804738 0.11785577 1.00325 2.3509886e-38
0.061135523 0.11788332 1.0010002 2.3509886e-38
0.021962253 0.12034354 1.0020001 2.3509886e-38
0.025525024 0.12058374 1.0039999 2.3509886e-38
0.05897161 0.12146391 1.0039999 2.3509886e-38
0.061518766 0.12128244 1.0024999 2.3509886e-38
0.064060673 0.12197852 1.0010002 2.3509886e-38
0.061612125 0.1249846 1.0039999 2.3509886e-38
0.064060666 0.1254887 1.001 1.3922045e-38
0.037960541 0.11476442 1.007 2.3509886e-38
0.042080291 0.11270455 1.007 2.3509886e-38
0.046200037 0.11388162 1.007 2.3509886e-38
0.049142715 0.11505869 1.007 2.3509886e-38
0.030898115 0.11917844 1.007 2.3509886e-38
0.034429327 0.11741284 1.007 2.3509886e-38
0.050319787 0.11741284 1.007 2.3509886e-38
0.052085392 0.11829564 1.007 2.3509886e-38
0.026484098 0.12182686 1.007 2.3509886e-38
0.029132508 0.12094405 1.007 2.3509886e-38
0.055616606 0.12094405 1.007 2.3509886e-38
0.057382215 0.12182686 1.007 2.3509886e-38
0.058559284 0.12506381 1.007 2.3509886e-38
0.059147816 0.12800647 1.007 2.3509886e-38
0.060913429 0.12800647 1.007 2.1486635e-38
0.039844498 0.11599176 1.01 2.3509886e-38
0.043386228 0.11422089 1.01 2.3509886e-38
0.045157097 0.11510632 1.01 2.3509886e-38
0.033646464 0.1195335 1.01 2.3509886e-38
0.038073629 0.11864807 1.0100001 2.3509886e-38
0.042500794 0.11864807 1.01 2.3509886e-38
0.045747392 0.11835292 1.01 2.3509886e-38
0.049584262 0.11864807 1.01 2.3509886e-38
0.027448433 0.12307522 1.01 2.3509886e-38
0.03010473 0.12218979 1.01 2.3509886e-38
0.050469697 0.12130436 1.01 2.3509886e-38
0.054011434 0.12218979 1.01 2.3509886e-38
0.027448433 0.1248461 1.01 2.3509886e-38
0.054896865 0.12573153 1.01 2.3509886e-38
0.057553165 0.12661695 1.01 2.3509886e-38
0.055782299 0.12927327 1.01 1.6963271e-38
0.057553165 0.12838782 1.01 2.3509886e-38
0.042627037 0.11633629 1.013 2.3509886e-38
0.047067355 0.11988855 1.013 2.3509886e-38
0.048843481 0.11988855 1.013 2.3509886e-38
0.031082217 0.1234408 1.013 2.3509886e-38
