# .PCD v0.7 - Point Cloud Data file format
VERSION 0.7
FIELDS x y z rgb
SIZE 4 4 4 4
TYPE F F F F
COUNT 1 1 1 1
WIDTH 984
HEIGHT 1
VIEWPOINT 0 0 0 1 0 0 0
POINTS 984
DATA ascii
-0.023024773 0.087987527 0.93800002 1.4010488e-38
-0.040379267 0.088999197 0.94 1.3910701e-38
-0.038181752 0.088724516 0.94 1.5200725e-38
-0.029666398 0.088999197 0.94 1.4193791e-38
-0.022217071 0.089969382 0.9386667 1.5117548e-38
-0.018953534 0.088999197 0.94 1.4932445e-38
-0.023024773 0.092921406 0.93800002 1.788234e-38
-0.041334834 0.086803146 0.94300002 2.1284192e-38
-0.041610401 0.090109937 0.94300002 1.5295803e-38
-0.038854741 0.091763332 0.94300002 1.6867812e-38
-0.033658367 0.090582334 0.94300002 1.4839884e-38
-0.02976108 0.091763332 0.94300002 1.6223551e-38
-0.025627596 0.090109944 0.94300002 1.5026076e-38
-0.020667417 0.091763332 0.94300002 1.8343315e-38
-0.017911762 0.090109944 0.94300002 1.6499774e-38
-0.015707236 0.089283243 0.94300002 1.6317536e-38
-0.040508136 0.093416721 0.94300002 1.6871435e-38
-0.038854741 0.093416721 0.94300002 1.6777784e-38
-0.033894565 0.093416721 0.94300002 1.6500486e-38
-0.02976108 0.094243415 0.94300002 1.6869628e-38
-0.026178729 0.094518982 0.94300002 1.7882693e-38
-0.022320811 0.094518982 0.94300002 1.7883777e-38
-0.019014023 0.093416721 0.94300002 1.8251498e-38
-0.028934384 0.096723504 0.94300002 1.742245e-38
-0.026454292 0.096723504 0.94300002 1.7883424e-38
-0.023147505 0.096723504 0.94300002 1.7793385e-38
0.0066486401 0.070641801 0.94800001 2.3509886e-38
0.0096959341 0.070087746 0.94800007 1.0501649e-38
0.0024932399 0.075628273 0.94800001 2.3509886e-38
0.0060253297 0.07417389 0.94800001 1.8254352e-38
0.0091418801 0.073966116 0.94800007 7.0057566e-39
-0.00083107996 0.078952596 0.94800001 2.2772321e-38
0.0016621599 0.078121521 0.94800001 1.9360415e-38
0.0058175605 0.078121513 0.94800007 1.0510624e-38
0.0099729598 0.078121513 0.94800001 9.9545987e-39
0.0124662 0.077290438 0.94800001 1.0232989e-38
-0.054227967 0.082484685 0.94800001 1.760391e-38
-0.0055695889 0.082601532 0.94628584 1.7525107e-38
-0.00166216 0.082276918 0.94800007 1.6411889e-38
0.00166216 0.082276918 0.94800007 1.5580697e-38
0.0041554002 0.082276925 0.94800007 1.4934197e-38
-0.049759593 0.086249962 0.94599998 1.1985041e-38
-0.046718739 0.086526409 0.94599998 1.1800264e-38
-0.0099519193 0.08624997 0.94599998 1.2997455e-38
-0.0058175605 0.086432323 0.94800007 1.557888e-38
-0.0016621599 0.08560124 0.94800001 1.6962532e-38
-0.049517639 0.089354537 0.94666672 1.7055103e-38
-0.046467274 0.089615062 0.94650006 1.668596e-38
-0.043954313 0.089567274 0.94599998 1.3550588e-38
-0.037319697 0.090396598 0.94599998 1.5021011e-38
-0.027367778 0.089567274 0.94599998 1.4562572e-38
-0.013269225 0.089567274 0.94599998 1.6779593e-38
-0.0099624395 0.089662835 0.94700003 1.4567966e-38
-0.0074797203 0.088925563 0.94800001 1.594801e-38
-0.046170529 0.09412168 0.94771433 1.7237685e-38
-0.042572103 0.093713909 0.94600004 1.7330611e-38
-0.03773436 0.094128571 0.94599998 1.7146211e-38
-0.034002393 0.095372573 0.94599998 1.7238765e-38
-0.027367778 0.092884578 0.94599998 1.6684152e-38
-0.020733165 0.095372565 0.94599998 1.659449e-38
-0.017830523 0.094128571 0.94599998 1.1799966e-38
-0.014594246 0.093618982 0.94742858 7.743714e-39
-0.010804039 0.092249878 0.94800001 5.440631e-39
-0.044878319 0.097236358 0.94800001 1.751355e-38
-0.041511044 0.097133785 0.94700003 1.7607923e-38
-0.038188472 0.097133785 0.94700003 1.724021e-38
-0.033604823 0.097498037 0.94650006 1.7516431e-38
-0.030132201 0.098136984 0.94599998 1.7607919e-38
-0.025709126 0.098689876 0.94599998 1.779159e-38
-0.020777 0.097236358 0.94800001 1.5583212e-38
-0.01828376 0.097236358 0.94800001 5.6332885e-39
-0.032412119 0.10056067 0.94800001 1.8067451e-38
-0.029918879 0.10056067 0.94800001 1.769903e-38
0.010838229 0.074200183 0.95099998 8.4805476e-39
0.012505649 0.075033896 0.95099998 1.0693248e-38
-0.058359694 0.081703573 0.95099998 1.5116053e-38
0.0066696797 0.081703573 0.95099998 8.757468e-39
0.0091708088 0.081703573 0.95099998 1.0047875e-38
-0.057525985 0.084204704 0.95099998 1.6588341e-38
-0.052523725 0.085872121 0.95099998 1.5394149e-38
-0.050856307 0.084204704 0.95099998 2.3503262e-38
-0.0016674199 0.087539546 0.95099998 1.7789068e-38
0.0013895165 0.086427927 0.95099998 1.576112e-38
0.0058359695 0.085038409 0.95099998 9.7701822e-39
-0.050856307 0.090874381 0.95099998 1.779086e-38
-0.0058359699 0.08976277 0.95099998 1.5026435e-38
-0.04918889 0.094209224 0.95099998 1.797453e-38
-0.012505649 0.095042929 0.95099998 6.0830787e-39
-0.010004519 0.094209224 0.95099998 6.3603956e-39
-0.0075033898 0.092541806 0.95099998 1.161524e-38
-0.045854047 0.098655686 0.95099998 1.7972716e-38
-0.041685499 0.099211484 0.95099998 1.7422801e-38
-0.038350657 0.099211484 0.95099998 1.7239841e-38
-0.035015814 0.099211484 0.95099998 1.7515355e-38
-0.021676458 0.099211484 0.95099998 1.6964699e-38
-0.01834162 0.099211484 0.95099998 1.1159324e-38
-0.015006779 0.097544067 0.95099998 4.9731284e-39
-0.041685499 0.1008789 0.95099998 1.7053658e-38
-0.038350657 0.1008789 0.95099998 1.7423154e-38
-0.034182109 0.10143471 0.95099998 1.7790499e-38
-0.030013558 0.10254633 0.95099998 1.7514269e-38
-0.027512427 0.1008789 0.95099998 1.7607197e-38
-0.064398177 0.079452291 0.954 8.8478882e-39
-0.062056422 0.078114152 0.954 1.7510903e-38
-0.05882258 0.078894734 0.954 2.2033131e-38
-0.064533181 0.082133144 0.95599997 7.6511415e-39
-0.061889157 0.081961311 0.954 1.3912118e-38
-0.061739534 0.085206151 0.95600003 1.1792709e-38
-0.05776795 0.086513266 0.95499992 1.7693206e-38
-0.053804539 0.087258145 0.954 1.7053658e-38
0.0025090198 0.087815695 0.954 1.2628638e-38
0.0050180396 0.087815695 0.954 9.8652603e-39
-0.056152247 0.090514079 0.95599997 1.4006443e-38
-0.053582743 0.090419397 0.95499992 1.8803175e-38
-0.0050180396 0.091161057 0.954 1.4561136e-38
-0.0016748717 0.090467177 0.95550001 1.5394141e-38
0.0013968222 0.090234719 0.95600003 1.4934581e-38
-0.052799877 0.093866453 0.95599997 1.7879059e-38
-0.051016737 0.093670078 0.954 1.8893211e-38
-0.0058666533 0.093587086 0.95600003 1.2811932e-38
-0.050432529 0.098351121 0.95559996 1.740977e-38
-0.047671378 0.099524453 0.954 1.9351256e-38
-0.013806185 0.099158436 0.95449996 9.7719899e-39
-0.0098810857 0.098310798 0.95520002 1.0600306e-38
-0.045722026 0.10199491 0.95520002 1.8249275e-38
-0.041816995 0.10286982 0.954 1.6869264e-38
-0.038471639 0.10286982 0.954 1.705473e-38
-0.035126276 0.10286982 0.954 1.7513554e-38
-0.025602171 0.10224388 0.9544 1.7699385e-38
-0.021756673 0.10208739 0.95449996 1.7516426e-38
-0.018408684 0.10208739 0.95449996 1.6224273e-38
-0.014658304 0.10177529 0.95550001 1.4930999e-38
-0.010895212 0.10140929 0.95599997 1.5944417e-38
-0.044418946 0.10476166 0.95599997 1.7147643e-38
-0.041816995 0.10454249 0.954 1.6685961e-38
-0.037295152 0.10518071 0.95599997 1.7054727e-38
-0.033780303 0.10524734 0.95533335 1.7238762e-38
-0.030138921 0.10465208 0.95499998 1.7422436e-38
-0.02598089 0.10476166 0.95600003 1.7515358e-38
-0.021790426 0.10476166 0.95599997 1.7517147e-38
-0.019276146 0.10476166 0.95599997 1.7516804e-38
0.010929403 0.066417143 0.95899999 2.3509869e-38
0.014712658 0.065996781 0.95899999 7.92735e-39
0.018495914 0.065576419 0.95899999 1.0414859e-38
0.010929403 0.068939313 0.95899999 1.7878367e-38
0.014292298 0.068939321 0.95900005 8.3858268e-39
0.01765519 0.06809859 0.95899999 1.0691802e-38
-0.063054249 0.0865945 0.95899999 1.087078e-38
-0.058850627 0.089957394 0.95899999 1.1973847e-38
0.0025221698 0.091638841 0.95899999 1.0417358e-38
0.0050443397 0.089957394 0.95899999 9.7720109e-39
-0.054647014 0.09332028 0.95899999 1.8149145e-38
-0.0050443397 0.095001727 0.95899999 1.483771e-38
-0.0025221698 0.09332028 0.95899999 1.4747315e-38
-0.052965567 0.097523898 0.95899999 1.0399652e-38
-0.0075665093 0.096683174 0.95899999 9.7720207e-39
0.0025221698 0.097523898 0.95899999 9.7680256e-39
0.0047640987 0.097243659 0.95899999 9.8616884e-39
-0.047921225 0.10340896 0.95899999 1.7960763e-38
-0.013451573 0.10340896 0.95899999 1.788342e-38
-0.010088679 0.10256824 0.95899999 1.7236258e-38
-0.045399059 0.10593113 0.95899999 1.7053991e-38
-0.042036165 0.10677186 0.95899999 1.7054745e-38
-0.03867327 0.10677186 0.95899999 1.6870686e-38
-0.03278821 0.10677186 0.95899999 1.6962544e-38
-0.030266037 0.10677186 0.95899999 1.7331325e-38
-0.026062422 0.10677186 0.95899999 1.7607558e-38
-0.021858806 0.10677186 0.95899999 1.7608617e-38
-0.018215671 0.10621138 0.95899999 1.7515715e-38
-0.015413261 0.10565089 0.95899999 1.7976689e-38
-0.024380974 0.1084533 0.95899999 1.733169e-38
-0.021858806 0.1084533 0.95899999 1.7607179e-38
-0.018495914 0.1084533 0.95899999 1.7330958e-38
-0.015973743 0.1084533 0.95899999 1.7239839e-38
0.017747238 0.063382998 0.96399999 1.0044652e-38
0.013506803 0.065005705 0.963 4.9785388e-39
-0.06662491 0.083491974 0.96200001 9.3099453e-39
-0.065816179 0.086067185 0.96249998 9.8623932e-39
-0.06563662 0.089299604 0.96399999 9.7698459e-39
-0.062473014 0.089489251 0.96299994 1.1331758e-38
-0.059878085 0.091925509 0.96200001 1.1978923e-38
0.0050601196 0.091925509 0.96200001 1.0963702e-38
-0.060847677 0.092961729 0.96399999 1.1977501e-38
-0.05740764 0.094554633 0.963 7.0889489e-39
-0.054817967 0.095298924 0.96200001 1.4365156e-38
-0.0014079267 0.094868772 0.96333331 1.5944436e-38
0.00168846 0.094554633 0.963 1.2719723e-38
0.0050653797 0.094554633 0.963 9.4014319e-39
-0.054931931 0.09803237 0.96399999 5.3372362e-39
-0.0055678855 0.098038688 0.96239996 1.2998108e-38
-0.0016902132 0.097187266 0.96399999 1.5575676e-38
0.00084510661 0.09803237 0.96399999 1.4470003e-38
-0.053131256 0.10035904 0.96200001 5.6030415e-39
-0.050601199 0.10204575 0.96200001 1.1236605e-38
-0.0092961732 0.10394812 0.96399999 1.7329902e-38
-0.0067608529 0.10056768 0.96399999 1.5394487e-38
-0.046384431 0.10710587 0.96200001 1.5024233e-38
-0.013221303 0.10661786 0.96266669 1.7699389e-38
-0.010422982 0.10620173 0.96399999 1.7514653e-38
-0.044697724 0.10879257 0.96200001 1.7788329e-38
-0.042167664 0.10879257 0.96200001 1.6962551e-38
-0.037548073 0.10927167 0.96249998 1.6871056e-38
-0.033769201 0.10975076 0.963 1.6869984e-38
-0.030392278 0.10975076 0.963 1.705474e-38
-0.026513904 0.1099424 0.96320003 1.7146574e-38
-0.021972772 0.11070897 0.96399999 1.7237676e-38
-0.018592345 0.11070897 0.96399999 1.7514984e-38
-0.021972772 0.11239918 0.96399999 1.7329515e-38
-0.057467248 0.11916003 0.96399999 7.5589276e-39
-0.057467248 0.12169535 0.96399999 7.6507673e-39
-0.054931931 0.12085025 0.96399999 1.3275061e-38
0.017802471 0.057646092 0.96700001 1.0506703e-38
0.011020577 0.063580252 0.96700001 2.3509886e-38
0.013987653 0.062308647 0.96700001 8.1928274e-39
0.017802471 0.061037041 0.96700001 1.0503466e-38
0.021193415 0.060189299 0.96700001 1.0785066e-38
0.01017284 0.065275721 0.96700001 2.3509886e-38
-0.06697119 0.090707824 0.96700001 9.7709221e-39
-0.066123456 0.092403293 0.96700001 9.6783705e-39
-0.062308647 0.094098762 0.96700001 1.0321582e-38
-0.056798354 0.098337449 0.96700001 1.0407994e-38
-0.0016954732 0.099185184 0.96700001 1.5852253e-38
-0.055102881 0.10088066 0.96700001 3.5913192e-39
-0.0059341565 0.10201098 0.96700001 1.5393779e-38
-0.0025432098 0.10088066 0.96700001 1.5669291e-38
0.0016954732 0.10088066 0.96700001 1.1889583e-38
-0.049677368 0.10562798 0.96700001 1.1600023e-38
-0.0076296297 0.10427161 0.96700001 1.4564393e-38
-0.041539095 0.1110535 0.96700001 1.6869277e-38
-0.038995884 0.1110535 0.96700001 1.7054374e-38
-0.013563786 0.10935803 0.96700001 1.7239487e-38
-0.03814815 0.11274898 0.96700001 1.6870347e-38
-0.033909462 0.11274898 0.96700001 1.7330608e-38
-0.030518519 0.11274898 0.96700001 1.7146577e-38
-0.026279835 0.11274898 0.96700001 1.6777787e-38
-0.018650208 0.11274898 0.96700001 1.7514984e-38
0.014456232 0.051872365 0.97000003 1.0210267e-39
0.016156966 0.051872365 0.97000003 7.2906897e-39
0.013889322 0.054706924 0.97000003 9.4947318e-39
0.017007332 0.054423466 0.97000003 8.664241e-39
0.011054766 0.058675297 0.97000003 2.3509886e-38
0.013605866 0.057824932 0.97000003 1.4378223e-38
0.011054766 0.061226401 0.97000003 2.3509886e-38
0.012755499 0.061226401 0.97000003 1.392154e-38
-0.068879694 0.090989232 0.97000003 9.8627674e-39
-0.068879694 0.092689969 0.97000003 9.5872693e-39
-0.0663286 0.094390698 0.97000003 1.0047512e-38
-0.061651584 0.097366981 0.97000003 9.770206e-39
-0.058675297 0.098642528 0.97000003 1.1058413e-38
-0.0042518335 0.10289437 0.97000003 1.5578525e-38
-0.0014172777 0.10232746 0.97000003 1.4655867e-38
0.00085036666 0.10289437 0.97000003 1.1892128e-38
-0.050171632 0.10799656 0.97000003 7.9125607e-39
-0.0059525664 0.1045951 0.97000003 1.4747338e-38
-0.045919798 0.11054766 0.97000003 1.5761133e-38
-0.043368701 0.11139803 0.97000003 1.7330255e-38
-0.016156966 0.11139803 0.97000003 1.7330235e-38
-0.041667968 0.11309877 0.97000003 1.6869632e-38
-0.038266502 0.11479949 0.97000003 1.686963e-38
-0.034014665 0.11479949 0.97000003 1.7330257e-38
-0.029762834 0.11479949 0.97000003 1.7146574e-38
-0.025511 0.11479949 0.97000003 1.7238416e-38
0.011111749 0.050430249 0.97500002 2.3509886e-38
0.013676 0.050430249 0.97500002 3.4144837e-39
0.0076927501 0.054703999 0.97500002 2.3509886e-38
0.010249401 0.053811848 0.97433329 2.3509886e-38
0.01279495 0.052885793 0.97299999 1.1801041e-38
0.0076927501 0.058123 0.97500002 2.3509886e-38
0.0099644847 0.05779893 0.97433329 2.3509886e-38
0.0076822299 0.062310249 0.97366667 2.3509886e-38
0.0093893921 0.062310249 0.97366667 2.3509886e-38
-0.066390835 0.097793743 0.97340006 9.3110454e-39
-0.063121751 0.0989476 0.97299999 8.9411824e-39
-0.065388374 0.10171524 0.97500002 1.0047157e-38
-0.061541997 0.10257 0.97500002 1.0232269e-38
-0.058063384 0.10246567 0.97399998 5.3476969e-39
-0.054591782 0.10321259 0.97299999 2.1172387e-39
-0.057268251 0.10598899 0.97500002 8.1924603e-39
-0.054124873 0.10602985 0.9738 8.4657779e-39
-0.0059750676 0.10612898 0.97366667 1.5023932e-38
-0.0017059932 0.10491858 0.97299999 1.4471117e-38
0.0008529966 0.10491858 0.97299999 1.1522268e-38
-0.05384925 0.10855325 0.97500008 8.5590343e-39
-0.049257271 0.11075719 0.97433341 1.2984402e-38
-0.046914816 0.11174256 0.97299999 1.5301979e-38
-0.013676 0.11197225 0.97500002 1.7422792e-38
-0.0099656545 0.10961869 0.97433329 1.6409733e-38
-0.0076927501 0.10855325 0.97500002 1.4934596e-38
-0.060687248 0.11539125 0.97500002 9.1252024e-39
-0.058977749 0.11539125 0.97500002 9.032648e-39
-0.04530175 0.11368175 0.97500002 1.7331684e-38
-0.042963974 0.11466479 0.97366667 1.6869627e-38
-0.022177912 0.11515454 0.97299999 1.7147296e-38
-0.017949749 0.11453649 0.97500002 1.7147283e-38
-0.01453075 0.11368175 0.97500002 1.742351e-38
-0.060687248 0.1179555 0.97500002 9.034799e-39
-0.058407918 0.11824042 0.97500008 7.7437028e-39
-0.0410074 0.11789544 0.97449994 1.6685597e-38
-0.037570424 0.11783539 0.97399998 1.6777434e-38
-0.034154937 0.11783539 0.97399998 1.696219e-38
-0.029885568 0.1178354 0.97399998 1.7238408e-38
-0.025927415 0.11767058 0.97500008 1.7239131e-38
-0.022223499 0.11710075 0.97500002 1.7239494e-38
-0.06056276 0.12112552 0.97299999 9.3113859e-39
0.0077164196 0.050585419 0.97799999 2.3509886e-38
0.010002766 0.049442243 0.97800004 2.3509886e-38
0.0128607 0.048870657 0.97799999 6.0849116e-39
-0.066875637 0.054872315 0.97799999 2.3509886e-38
0.0064303493 0.053586248 0.97799999 2.3509886e-38
0.0060016597 0.058301836 0.97799999 2.3509886e-38
0.0060016597 0.061731353 0.97799999 2.3509886e-38
-0.060873974 0.10545773 0.97799999 1.087586e-38
-0.059159219 0.10631511 0.97799999 9.4911206e-39
-0.057444457 0.10888726 0.97799999 1.1793134e-38
-0.054014944 0.11060201 0.97800004 8.6541306e-39
-0.052300178 0.11231677 0.97799999 7.9176838e-39
-0.050013833 0.11345994 0.97800004 1.1517908e-38
-0.046584316 0.11517471 0.97800004 1.6870695e-38
-0.017147599 0.1157463 0.97799999 1.7147283e-38
-0.013432287 0.11517471 0.97800004 1.7238411e-38
-0.010574352 0.11288836 0.97800004 1.5855475e-38
-0.043726377 0.11831843 0.97799999 1.6409732e-38
-0.024864018 0.11917581 0.97799999 1.7422803e-38
-0.02229188 0.11917581 0.97799999 1.7514649e-38
-0.019719739 0.11746105 0.97799999 1.7330958e-38
-0.042011619 0.12089058 0.97800004 1.6501923e-38
-0.037724718 0.12089057 0.97799999 1.6778151e-38
-0.034295198 0.12174796 0.97799999 1.7053661e-38
-0.030008299 0.12089058 0.97800004 1.7238768e-38
-0.026578778 0.12089057 0.97799999 1.7330608e-38
-0.012939599 0.02932976 0.98400003 2.3509886e-38
-0.010153904 0.029775808 0.98159999 2.2037281e-38
-0.0071886666 0.031342588 0.98400009 2.3509886e-38
-0.0060384795 0.033642959 0.98400009 2.3509886e-38
-0.065560639 0.043132 0.98400003 2.3509886e-38
-0.062110074 0.043994639 0.98400003 2.3509886e-38
-0.068148561 0.045719918 0.98400003 2.3509886e-38
-0.065560639 0.046582557 0.98400003 2.3509886e-38
-0.062110074 0.046582557 0.98400003 2.3509886e-38
0.0068892851 0.046511553 0.98250002 2.3509886e-38
0.01032012 0.046440542 0.98100001 1.9361109e-38
0.012900149 0.047300551 0.98100001 4.5175831e-39
-0.065560639 0.050033115 0.98400003 2.3509886e-38
-0.062110078 0.050033119 0.98400003 2.3509886e-38
0.0065934099 0.049593907 0.98100007 2.3509886e-38
-0.065273099 0.053196132 0.98400009 2.3509886e-38
-0.062972717 0.05348368 0.98400003 2.3509886e-38
0.00430005 0.055040639 0.98100001 2.3509886e-38
-0.065388113 0.058141936 0.98400003 2.3509886e-38
-0.062972717 0.056071602 0.98400003 2.3509886e-38
0.0043066246 0.058571413 0.98250002 2.3509886e-38
-0.065560639 0.061247434 0.98400003 2.3509886e-38
0.0043131998 0.062110074 0.98400003 2.3509886e-38
0.0060200701 0.064500742 0.98100001 2.3509886e-38
-0.00430005 0.10750125 0.98100001 1.5391626e-38
-0.00172002 0.10750125 0.98100001 1.4191293e-38
-0.058571413 0.11111093 0.98250002 1.2351702e-38
-0.005676066 0.11025329 0.98100007 1.4657304e-38
-0.0025879201 0.11041792 0.98400003 1.4656937e-38
-0.057796881 0.11386849 0.98400009 1.31793e-38
-0.053607285 0.11380799 0.98100007 1.3267893e-38
-0.0094601102 0.11438133 0.98100001 1.5486327e-38
-0.0060275225 0.11369534 0.98250002 1.5210829e-38
-0.056691229 0.11769354 0.98280001 1.4102324e-38
-0.05348368 0.11731903 0.98400003 1.71455e-38
-0.049956847 0.1171415 0.98250002 1.7054722e-38
-0.046512865 0.11886285 0.98250002 1.6593036e-38
-0.017716205 0.11885338 0.98100007 1.7054378e-38
-0.013781199 0.11886416 0.98250002 1.687035e-38
-0.010341161 0.11806333 0.98300004 1.548669e-38
-0.0060384804 0.11645639 0.98400009 1.4933161e-38
-0.045719918 0.12163224 0.98400003 1.6409725e-38
-0.042185199 0.1231068 0.98200005 1.6409723e-38
-0.037840441 0.12298143 0.98100001 1.6869267e-38
-0.030100351 0.12298143 0.98100007 1.705402e-38
-0.02551363 0.12240809 0.98100007 1.7422438e-38
-0.02239445 0.12230946 0.98250002 1.7791578e-38
-0.017770384 0.12232236 0.98400003 1.7238416e-38
-0.01466488 0.12163224 0.98400003 1.696255e-38
-0.040544078 0.12508281 0.98400003 1.613385e-38
-0.03795616 0.12508281 0.98400003 1.6594112e-38
-0.034505598 0.12508281 0.98400003 1.6869986e-38
-0.030192401 0.12508282 0.98400009 1.6869631e-38
-0.025879201 0.12508281 0.98400003 1.686963e-38
-0.022428639 0.12508281 0.98400003 1.7238046e-38
-0.010383239 0.032880258 0.98699999 2.3509886e-38
-0.0060568894 0.035476066 0.98699999 2.3509886e-38
-0.062299438 0.041532956 0.98699999 2.3509886e-38
-0.057973087 0.041532956 0.98699999 2.3509886e-38
0.0069221593 0.042398226 0.98699999 2.3509886e-38
-0.058467526 0.045612086 0.98700005 2.3509886e-38
0.0056242547 0.045426674 0.98699999 2.3509886e-38
-0.058838353 0.050185658 0.98699999 2.3509886e-38
0.0043263496 0.050185658 0.98699999 2.3509886e-38
-0.061434165 0.05364674 0.98699999 2.3509886e-38
-0.059703626 0.05278147 0.98699999 2.3509886e-38
0.0043263496 0.05278147 0.98699999 2.3509886e-38
-0.062299438 0.057973087 0.98699999 2.3509886e-38
-0.065760523 0.063164711 0.98699999 2.3509886e-38
-0.063164711 0.061434165 0.98699999 2.3509886e-38
0.0043263496 0.06489525 0.98699999 2.3509886e-38
-0.00086526998 0.11075455 0.98699999 1.0600328e-38
-0.0017305398 0.11421563 0.98699999 1.1708821e-38
-0.0077874293 0.11854198 0.98699999 1.5301212e-38
-0.0025958098 0.11681144 0.98699999 1.3827121e-38
-0.056242548 0.12200306 0.98699999 1.4380663e-38
-0.053935163 0.12084936 0.98699999 1.585476e-38
-0.050185658 0.12113778 0.98699999 1.6224975e-38
-0.047013 0.12315675 0.98699999 1.6502278e-38
-0.019901209 0.1237336 0.98699999 1.7422803e-38
-0.01384432 0.12286833 0.98699999 1.6685608e-38
-0.011248509 0.12200306 0.98699999 1.5118636e-38
-0.044128768 0.12546416 0.98699999 1.6224613e-38
-0.041532956 0.12632942 0.98699999 1.6224604e-38
-0.038071878 0.12719469 0.98699999 1.6685222e-38
-0.033745527 0.12719469 0.98699999 1.7053651e-38
-0.029419178 0.12719469 0.98699999 1.6685594e-38
-0.025958098 0.12719469 0.98699999 1.6869632e-38
-0.022497017 0.12719469 0.98699999 1.7329163e-38
-0.04174336 0.030437866 0.99199998 2.3509886e-38
-0.038264744 0.030437866 0.99199998 2.3509886e-38
-0.034786131 0.030437866 0.99199998 2.3509886e-38
-0.02087168 0.029568212 0.99199998 2.3509886e-38
-0.017393064 0.029568212 0.99199998 2.3509886e-38
-0.014739396 0.029478792 0.98900002 2.3509886e-38
-0.053918503 0.035655785 0.99199998 2.3509886e-38
-0.051309545 0.035655785 0.99199998 2.3509886e-38
-0.04174336 0.032177169 0.99199998 2.3509886e-38
-0.038264744 0.032177169 0.99199998 2.3509886e-38
-0.034786131 0.032177169 0.99199998 2.3509886e-38
-0.02087168 0.032177169 0.99199998 2.3509886e-38
-0.016523411 0.033046823 0.99199998 2.3509886e-38
-0.013893852 0.033866946 0.99050009 2.3509886e-38
-0.010704684 0.035005882 0.99000001 2.3509886e-38
-0.057657052 0.038582537 0.98900002 2.3509886e-38
-0.053755447 0.038149025 0.98900002 2.3509886e-38
-0.050362304 0.038206887 0.99049997 2.3509886e-38
-0.010435839 0.03739509 0.99199998 2.3509886e-38
-0.0060805599 0.038227051 0.99100006 2.3509886e-38
-0.0017386491 0.038235158 0.99125004 2.3509886e-38
0.00086702331 0.039016049 0.98900002 2.3509886e-38
-0.053755447 0.041617118 0.98900002 2.3509886e-38
-0.05062633 0.041369319 0.99000001 2.3509886e-38
-0.0057397117 0.04156943 0.99200004 2.3509886e-38
-0.0017379916 0.041680239 0.99050003 2.3509886e-38
0.0017340465 0.041617122 0.98900002 2.3509886e-38
0.0043351166 0.041617118 0.98900002 2.3509886e-38
-0.056356516 0.046819258 0.98900002 2.3509886e-38
-0.053755447 0.045952238 0.98900002 2.3509886e-38
-0.051309548 0.046091627 0.99199998 2.3509886e-38
-0.0043482664 0.045221969 0.99199998 2.3509886e-38
-0.0017388682 0.046069272 0.99150008 2.3509886e-38
0.0017340465 0.045952238 0.98900002 2.3509886e-38
0.0043351166 0.04421819 0.98900002 2.3509886e-38
-0.056356516 0.050287351 0.98900002 2.3509886e-38
-0.053877082 0.050402414 0.99124998 2.3509886e-38
-0.0017393066 0.05043989 0.99199998 2.3509886e-38
0.0017340465 0.050287351 0.98900002 2.3509886e-38
-0.057777941 0.053961992 0.9896 2.3509886e-38
-0.054788157 0.053048849 0.99199998 2.3509886e-38
-0.0008696533 0.053918503 0.99199998 2.3509886e-38
0.0017340465 0.053755447 0.98900002 2.3509886e-38
-0.061558656 0.059824612 0.98900002 2.3509886e-38
-0.058726441 0.057570409 0.98999995 2.3509886e-38
0.0019085031 0.057813186 0.99019998 2.3509886e-38
-0.061650708 0.062520355 0.99050003 2.3509886e-38
-0.058266766 0.060875729 0.99199998 2.3509886e-38
0.0017373341 0.061698705 0.99124998 2.3509886e-38
-0.065893769 0.065026753 0.98900002 2.3509886e-38
0.0026089598 0.066093653 0.99199998 2.3509886e-38
0.0043482664 0.0669633 0.99199998 2.3509886e-38
-0.0052021397 0.11878219 0.98900002 1.4378925e-38
-0.0026010699 0.11878219 0.98900002 1.2166538e-38
-0.052888423 0.12225029 0.98900002 1.6498702e-38
-0.050287351 0.12398433 0.98900002 1.6869264e-38
-0.01300535 0.12398433 0.98900002 1.6317884e-38
-0.01040428 0.12311731 0.98900002 1.474876e-38
-0.0060783681 0.12156868 0.99050009 1.3456253e-38
-0.053918503 0.12436043 0.99199998 1.7052229e-38
-0.05043989 0.12609972 0.99199998 1.6315384e-38
-0.046327975 0.12683614 0.9896 1.631573e-38
-0.042484142 0.12745243 0.98900002 1.6131696e-38
-0.018225024 0.12671426 0.99000001 1.6961828e-38
-0.013892097 0.12590905 0.99049997 1.6225348e-38
-0.009566186 0.12436043 0.99199998 1.4564743e-38
-0.0052179196 0.12436043 0.99199998 1.2625783e-38
-0.045221969 0.12957834 0.99199998 1.6224263e-38
-0.041617118 0.12918648 0.98900002 1.6223177e-38
-0.037897717 0.12989688 0.99000001 1.6315373e-38
-0.033865191 0.13025206 0.99049997 1.6592318e-38
-0.029523503 0.13025206 0.99050003 1.6409006e-38
-0.0260107 0.13005349 0.98900002 1.6591964e-38
-0.022047641 0.1300379 0.99019998 1.6775631e-38
-0.018262718 0.12957834 0.99199998 1.6868188e-38
-0.026089597 0.13305695 0.99199998 1.6684522e-38
-0.022610985 0.13305695 0.99199998 1.659232e-38
-0.044486448 0.030529916 0.995 2.3509886e-38
-0.032274481 0.030529916 0.995 2.3509886e-38
-0.030529916 0.030529916 0.995 2.3509886e-38
-0.026168499 0.030529916 0.995 2.3509886e-38
-0.023551648 0.030529916 0.995 2.3509886e-38
-0.049720149 0.035763618 0.995 2.3509886e-38
-0.045649495 0.034600575 0.995 2.3509886e-38
-0.041869599 0.034891333 0.995 2.3509886e-38
-0.038380466 0.034891333 0.995 2.3509886e-38
-0.033769827 0.034517501 0.995 2.3509886e-38
-0.030529916 0.033146765 0.995 2.3509886e-38
-0.026168499 0.034019053 0.995 2.3509886e-38
-0.022056308 0.034517501 0.995 2.3509886e-38
-0.017736427 0.034019049 0.99500006 2.3509886e-38
-0.046231017 0.03838047 0.995 2.3509886e-38
-0.042160362 0.038089707 0.99500006 2.3509886e-38
-0.037508182 0.037508182 0.995 2.3509886e-38
-0.035763618 0.037508182 0.995 2.3509886e-38
-0.026168499 0.037508182 0.995 2.3509886e-38
-0.021807082 0.03838047 0.995 2.3509886e-38
-0.013665772 0.038089707 0.99500006 2.3509886e-38
-0.010467399 0.039252751 0.995 2.3509886e-38
-0.049720149 0.042741884 0.995 2.3509886e-38
-0.046231017 0.041869603 0.995 2.3509886e-38
-0.021807082 0.040997319 0.99500006 2.3509886e-38
-0.010176638 0.04157884 0.99500006 2.3509886e-38
-0.0078505492 0.042741884 0.995 2.3509886e-38
-0.049720149 0.046231017 0.99500006 2.3509886e-38
-0.046928845 0.045533191 0.995 2.3509886e-38
-0.0061059832 0.046231013 0.995 2.3509886e-38
-0.050592434 0.049720149 0.995 2.3509886e-38
-0.0043614162 0.050592434 0.995 2.3509886e-38
-0.054081567 0.054081567 0.995 2.3509886e-38
-0.0043614162 0.053209282 0.995 2.3509886e-38
-0.00261685 0.054081567 0.995 2.3509886e-38
-0.056698415 0.05844298 0.995 2.3509886e-38
-0.054953847 0.056698415 0.995 2.3509886e-38
-0.0008722833 0.057570696 0.995 2.3509886e-38
-0.060187545 0.063676685 0.995 2.3509886e-38
-0.056698415 0.060187545 0.995 2.3509886e-38
0.0008722833 0.063676685 0.995 2.3509886e-38
-0.065421246 0.067165814 0.995 2.3509886e-38
-0.063095167 0.066002771 0.99500006 2.3509886e-38
0.0069782659 0.067165814 0.995 2.3509886e-38
0.0061059832 0.068910383 0.99500006 2.3509886e-38
0.0095951157 0.068910383 0.995 2.3509886e-38
-0.010467399 0.12648107 0.995 1.4750206e-38
-0.0078505492 0.12473652 0.995 1.5671089e-38
-0.049720149 0.12822564 0.995 1.6222818e-38
-0.046231017 0.13084251 0.995 1.613171e-38
-0.041869599 0.13171478 0.995 1.6131347e-38
-0.039252751 0.13171478 0.995 1.6131343e-38
-0.020062516 0.13171478 0.995 1.6499771e-38
-0.017445665 0.13084251 0.995 1.6500132e-38
-0.014247295 0.12880717 0.99500006 1.6224623e-38
-0.037508182 0.13345934 0.995 1.6132418e-38
-0.034019049 0.13345936 0.99500006 1.6316806e-38
-0.029366871 0.13404088 0.99500006 1.6224616e-38
-0.026168499 0.13520391 0.995 1.6039872e-38
-0.022679366 0.13520391 0.995 1.6592673e-38
-0.02887214 0.030621966 0.99800003 2.3509886e-38
-0.029309597 0.034559075 0.99800003 2.3509886e-38
-0.01837318 0.035871446 0.99800003 2.3509886e-38
-0.041120928 0.039371099 0.99800003 2.3509886e-38
-0.038787827 0.038787827 0.99800003 2.3509886e-38
-0.033771653 0.038671173 0.99800009 2.3509886e-38
-0.029747054 0.038496189 0.99800003 2.3509886e-38
-0.026247401 0.039371099 0.99800003 2.3509886e-38
-0.017498266 0.038496189 0.99800003 2.3509886e-38
-0.014873526 0.039371099 0.99800003 2.3509886e-38
-0.041995842 0.041995838 0.99800003 2.3509886e-38
-0.038496189 0.041995842 0.99800003 2.3509886e-38
-0.034121621 0.041995846 0.99800009 2.3509886e-38
-0.029747054 0.041995838 0.99800003 2.3509886e-38
-0.026247401 0.041995838 0.99800003 2.3509886e-38
-0.021872833 0.042870753 0.99800003 2.3509886e-38
-0.017498266 0.041120928 0.99800003 2.3509886e-38
-0.013998613 0.041995838 0.99800003 2.3509886e-38
-0.011373873 0.042870753 0.99800003 2.3509886e-38
-0.045495495 0.046370406 0.99800003 2.3509886e-38
-0.041995838 0.045495491 0.99800003 2.3509886e-38
-0.038496189 0.044620581 0.99800003 2.3509886e-38
-0.035871446 0.044620581 0.99800003 2.3509886e-38
-0.025955763 0.045203857 0.99800003 2.3509886e-38
-0.021872833 0.045495491 0.99800009 2.3509886e-38
-0.01049896 0.044620581 0.99800003 2.3509886e-38
-0.0078742197 0.046370406 0.99800003 2.3509886e-38
-0.049870059 0.050744973 0.99800003 2.3509886e-38
-0.045495495 0.048120234 0.99800003 2.3509886e-38
-0.042870753 0.048120234 0.99800003 2.3509886e-38
-0.0067076683 0.049870059 0.99800003 2.3509886e-38
-0.053369712 0.055119537 0.99800003 2.3509886e-38
-0.051619884 0.053369712 0.99800003 2.3509886e-38
-0.0052494798 0.054244623 0.99800003 2.3509886e-38
-0.054244623 0.05774428 0.99800003 2.3509886e-38
-0.0026247399 0.05774428 0.99800003 2.3509886e-38
-0.05774428 0.062993757 0.99800003 2.3509886e-38
-0.055119537 0.060369018 0.99800003 2.3509886e-38
-0.0008749133 0.062118843 0.99800003 2.3509886e-38
-0.060952298 0.066785052 0.99800003 2.3509886e-38
-0.058619194 0.066493407 0.99800003 2.3509886e-38
0.0008749133 0.066493407 0.99800003 2.3509886e-38
-0.065618493 0.069993064 0.99800003 2.3509886e-38
-0.062556304 0.069555603 0.99800003 2.3509886e-38
0.0026247399 0.069993064 0.99800003 2.3509886e-38
0.0061243935 0.070867978 0.99800003 2.3509886e-38
-0.053369712 0.12686244 0.99800003 1.6869261e-38
-0.0069993064 0.12686244 0.99800003 1.5670007e-38
-0.050744973 0.12948719 0.99800003 1.6408289e-38
-0.013123699 0.13036209 0.99800003 1.6317528e-38
-0.010790598 0.12919556 0.99800003 1.6593752e-38
-0.0069993064 0.12861226 0.99800003 1.585508e-38
-0.045495495 0.13298681 0.99800003 1.6222469e-38
-0.041995838 0.13386174 0.99800003 1.5947675e-38
-0.038787827 0.1350283 0.99800003 1.6040222e-38
-0.034121618 0.13561156 0.99800003 1.6132415e-38
-0.030621966 0.13561156 0.99800003 1.5855482e-38
-0.020123007 0.13473666 0.99800003 1.6408642e-38
-0.017498266 0.13298681 0.99800003 1.631681e-38
-0.029747054 0.13736139 0.99800003 1.5764005e-38
-0.026247401 0.13736139 0.99800003 1.6039516e-38
-0.022747748 0.13736139 0.99800003 1.6133146e-38
-0.017550867 0.042999625 1.001 2.3509886e-38
-0.038611908 0.046509795 1.001 2.3509886e-38
-0.033873171 0.04580776 1.001 2.3509886e-38
-0.029836472 0.045632254 1.001 2.3509886e-38
-0.027203845 0.046509795 1.001 2.3509886e-38
-0.017564673 0.045667101 1.00175 2.3509886e-38
-0.014040694 0.045632251 1.001 2.3509886e-38
-0.01053052 0.046509795 1.001 2.3509886e-38
-0.049142428 0.051775057 1.001 2.3509886e-38
-0.045632251 0.050897513 1.001 2.3509886e-38
-0.041997068 0.050433058 1.0022 2.3509886e-38
-0.038284283 0.050337203 1.0022857 2.3509886e-38
-0.034267396 0.049583517 1.0022857 2.3509886e-38
-0.02992589 0.0492897 1.0039999 2.3509886e-38
-0.026365748 0.049217381 1.0024999 2.3509886e-38
-0.021971457 0.049217384 1.0025001 2.3509886e-38
-0.017310074 0.048996311 1.0039999 2.3509886e-38
-0.014068747 0.050121661 1.003 2.3509886e-38
-0.010546738 0.050096676 1.0025001 2.3509886e-38
-0.0078978902 0.050897516 1.001 2.3509886e-38
-0.049726814 0.054648418 1.0022 2.3509886e-38
-0.04576901 0.053690568 1.0039999 2.3509886e-38
-0.013202599 0.053690568 1.0039999 2.3509886e-38
-0.010268688 0.054277353 1.0039999 2.3509886e-38
-0.0073128617 0.054700203 1.0010002 2.3509886e-38
-0.053530145 0.058795404 1.001 2.3509886e-38
-0.051291719 0.057741061 1.003 2.3509886e-38
-0.005800202 0.057811778 1.0022 2.3509886e-38
-0.054168649 0.061782792 1.0020001 2.3509886e-38
-0.051930223 0.060731951 1.0039999 2.3509886e-38
-0.0044008661 0.061612125 1.0039999 2.3509886e-38
-0.0026326301 0.061428033 1.001 2.3509886e-38
-0.057040315 0.065815747 1.0010002 2.3509886e-38
-0.054969404 0.065524913 1.0032499 2.3509886e-38
-0.0017570591 0.065865062 1.00175 2.3509886e-38
-0.061428033 0.071081005 1.001 2.3509886e-38
-0.058267355 0.069980204 1.0020001 2.3509886e-38
-0.00087885826 0.070309982 1.0025001 2.3509886e-38
0.00087754335 0.070203468 1.001 2.3509886e-38
-0.06493821 0.073713645 1.001 2.3509886e-38
-0.061520081 0.073825411 1.0025001 2.3509886e-38
-0.05897161 0.073054381 1.0039999 2.3509886e-38
-0.00088017323 0.073054381 1.0039999 2.3509886e-38
0.0017564016 0.0738241 1.0025001 2.3509886e-38
0.0057040323 0.073274873 1.001 2.3509886e-38
-0.06493821 0.077223815 1.001 2.3509886e-38
-0.061612125 0.076575071 1.0039999 2.3509886e-38
0.0026405198 0.076575071 1.0039999 2.3509886e-38
0.0044008661 0.076575071 1.0039999 2.3509886e-38
-0.053530145 0.12899886 1.001 1.7420591e-38
-0.051775057 0.13075395 1.001 1.6594119e-38
-0.0096529769 0.13075395 1.001 1.6962181e-38
-0.0070203468 0.13075395 1.001 1.4011201e-38
-0.050096676 0.1335869 1.0025001 1.6589057e-38
-0.046509795 0.13426413 1.001 1.640506e-38
-0.016673323 0.13426413 1.001 1.6133146e-38
-0.014061732 0.13358778 1.0025001 1.6409365e-38
-0.010844074 0.13336056 1.003 1.668523e-38
-0.049289703 0.13642685 1.0039999 1.6678323e-38
-0.045538273 0.1376721 1.0028 1.6496146e-38
-0.042185634 0.13798252 1.0024999 1.6222811e-38
-0.038153231 0.13907824 1.0028 1.5670743e-38
-0.033873174 0.13847634 1.001 1.5856561e-38
-0.029836472 0.13952939 1.001 1.6224613e-38
-0.026326301 0.13952939 1.001 1.6132067e-38
-0.021514934 0.13919516 1.00175 1.6317542e-38
-0.017577166 0.13710321 1.0025001 1.6685597e-38
-0.014082773 0.13730703 1.0039999 1.5671805e-38
-0.011442252 0.13642685 1.0039999 1.2444948e-38
-0.041368142 0.1417079 1.0039999 1.5114316e-38
-0.037495382 0.14241205 1.0039999 1.3733909e-38
-0.033446584 0.14258808 1.0039999 1.3642788e-38
-0.02992589 0.14258808 1.0039999 1.4104131e-38
-0.026405197 0.1417079 1.0039999 1.5671818e-38
-0.022884503 0.1417079 1.0039999 1.613209e-38
-0.018538868 0.050319787 1.007 2.3509886e-38
-0.045905769 0.055616606 1.007 2.3509886e-38
-0.042668827 0.054439537 1.007 2.3509886e-38
-0.037960541 0.053851001 1.007 2.3509886e-38
-0.033252254 0.053262465 1.007 2.3509886e-38
-0.030015312 0.052085392 1.007 2.3509886e-38
-0.026484098 0.052085392 1.007 2.3509886e-38
-0.021716962 0.052791636 1.007 2.3509886e-38
-0.017361797 0.052673928 1.007 2.3509886e-38
-0.01441912 0.055028073 1.007 2.3509886e-38
-0.011476442 0.055616606 1.007 2.3509886e-38
-0.049142715 0.058559284 1.007 2.3509886e-38
-0.045905769 0.057382215 1.007 2.3509886e-38
-0.043257359 0.057382215 1.007 2.3509886e-38
-0.0097108362 0.057382215 1.007 2.3509886e-38
-0.0079452293 0.059147816 1.007 2.3509886e-38
-0.052085392 0.06267903 1.007 2.3509886e-38
-0.050319787 0.061796229 1.007 2.3509886e-38
-0.0061796228 0.061796229 1.007 2.3509886e-38
-0.052968197 0.06621024 1.007 2.3509886e-38
-0.0044140164 0.06621024 1.007 2.3509886e-38
-0.0026484097 0.067975856 1.007 2.3509886e-38
-0.057382215 0.071507066 1.007 2.3509886e-38
-0.055616606 0.069741458 1.007 2.3509886e-38
-0.0026484097 0.070624262 1.007 2.3509886e-38
-0.058265015 0.07415548 1.007 2.3509886e-38
-0.0017656065 0.07415548 1.007 2.3509886e-38
-0.061796229 0.078569494 1.007 2.3509886e-38
-0.059147816 0.076803878 1.007 2.3509886e-38
0.0017656065 0.077686682 1.007 2.3509886e-38
-0.053851001 0.13153769 1.007 1.7880092e-38
-0.053851001 0.13330328 1.007 1.5757451e-38
-0.0097108362 0.13506891 1.007 1.5947306e-38
-0.0079452293 0.13330328 1.007 1.0323377e-38
-0.052085392 0.1368345 1.007 1.1053622e-38
-0.049436983 0.13860011 1.007 1.4094359e-38
-0.01059364 0.13771731 1.007 9.9560238e-39
-0.046788573 0.14036572 1.007 1.3081228e-38
-0.042374559 0.14301413 1.007 1.1239194e-38
-0.039726146 0.14389692 1.007 1.1426105e-38
-0.027366901 0.14389692 1.007 1.1615577e-38
-0.03707774 0.14566255 1.007 8.1974797e-39
-0.033546522 0.14566255 1.007 1.1332484e-38
-0.030898115 0.14566255 1.007 1.0696132e-38
-0.041615367 0.055782299 1.01 2.3509886e-38
-0.038073633 0.055782299 1.01 2.3509886e-38
-0.033646464 0.055782299 1.01 2.3509886e-38
-0.03010473 0.054011431 1.01 2.3509886e-38
-0.026563 0.054011431 1.01 2.3509886e-38
-0.022135831 0.055192009 1.01 2.3509886e-38
-0.017708667 0.054896865 1.01 2.3509886e-38
-0.046042532 0.05932403 1.01 2.3509886e-38
-0.042205654 0.058733743 1.01 2.3509886e-38
-0.038073629 0.058438599 1.0100001 2.3509886e-38
-0.034531899 0.057553165 1.01 2.3509886e-38
-0.010625199 0.058438599 1.01 2.3509886e-38
-0.048698831 0.061980329 1.01 2.3509886e-38
-0.046337675 0.061685186 1.01 2.3509886e-38
-0.0079688998 0.061980329 1.01 2.3509886e-38
-0.049584262 0.06552206 1.01 2.3509886e-38
-0.0061980328 0.06552206 1.01 2.3509886e-38
-0.05365726 0.070303403 1.0100001 2.3509886e-38
-0.049879409 0.06876865 1.01 2.3509886e-38
-0.0050174557 0.069949232 1.01 2.3509886e-38
-0.057553165 0.075261831 1.01 2.3509886e-38
-0.055192009 0.074081257 1.01 2.3509886e-38
-0.0044271667 0.073490962 1.01 2.3509886e-38
-0.0026562999 0.075261831 1.01 2.3509886e-38
-0.058438599 0.077918127 1.01 2.3509886e-38
-0.00088543328 0.0770327 1.01 2.3509886e-38
0.00088543328 0.078803562 1.01 2.3509886e-38
0.00088543328 0.080574423 1.01 2.3509886e-38
-0.055782299 0.13104412 1.01 1.2533844e-38
-0.054011431 0.1354713 1.01 1.3446815e-38
-0.048698831 0.14078389 1.01 8.7484072e-39
-0.046042532 0.14255476 1.01 9.3045083e-39
-0.017708667 0.14078389 1.01 1.4565105e-38
-0.042500798 0.14521106 1.01 5.6167027e-39
-0.039844498 0.14609648 1.01 6.4493178e-39
-0.03010473 0.14698192 1.01 7.8366243e-39
-0.026267854 0.1455062 1.01 1.0693978e-38
-0.023021266 0.14432563 1.01 8.9433671e-39
-0.030194152 0.055947989 1.013 2.3509886e-38
-0.0266419 0.055947989 1.013 2.3509886e-38
-0.023977708 0.055947989 1.013 2.3509886e-38
-0.01864933 0.055947989 1.013 2.3509886e-38
-0.033450387 0.058908202 1.013 2.3509886e-38
-0.030194152 0.058612179 1.013 2.3509886e-38
-0.026641902 0.058612179 1.013 2.3509886e-38
-0.02255681 0.058434565 1.013 2.3509886e-38
-0.013320949 0.057724115 1.013 2.3509886e-38
-0.011544824 0.059500244 1.013 2.3509886e-38
-0.04529123 0.063052498 1.013 2.3509886e-38
-0.042627037 0.062164433 1.013 2.3509886e-38
-0.038630754 0.061720401 1.013 2.3509886e-38
-0.034634467 0.061276369 1.013 2.3509886e-38
-0.010656759 0.062164433 1.013 2.3509886e-38
-0.046179295 0.065716684 1.013 2.3509886e-38
-0.043515101 0.065716684 1.013 2.3509886e-38
-0.0097686956 0.065716684 1.013 2.3509886e-38
-0.0079925703 0.065716684 1.013 2.3509886e-38
-0.052395735 0.071933128 1.013 2.3509886e-38
-0.049435526 0.07134109 1.013 2.3509886e-38
-0.046475317 0.068972915 1.013 2.3509886e-38
-0.0072821202 0.070512228 1.013 2.3509886e-38
-0.052987777 0.074893348 1.013 2.3509886e-38
-0.050027572 0.074301302 1.013 2.3509886e-38
-0.0053283796 0.074597321 1.013 2.3509886e-38
-0.057724115 0.079037629 1.013 2.3509886e-38
-0.054527085 0.077971958 1.013 2.3509886e-38
-0.0044403165 0.077261508 1.013 2.3509886e-38
-0.0017761267 0.078149572 1.013 2.3509886e-38
-0.064828619 0.080813758 1.013 2.3509615e-38
-0.062164433 0.080813758 1.013 2.3509886e-38
-0.058612179 0.080813758 1.013 2.3509886e-38
-0.00088806328 0.080813758 1.013 2.3509886e-38
-0.052395735 0.13942593 1.013 6.2577281e-39
-0.05061961 0.14120206 1.013 4.4185785e-39
-0.020425456 0.14297819 1.013 1.5394891e-38
-0.017761268 0.14297819 1.013 1.2264908e-38
-0.014209013 0.14120206 1.013 7.651901e-39
-0.011544824 0.14120206 1.013 3.5949639e-39
-0.020485945 0.05967645 1.016 2.3509886e-38
-0.017813867 0.058785759 1.016 2.3509886e-38
-0.014547992 0.059082657 1.016 2.3509886e-38
-0.037409119 0.063239224 1.016 2.3509886e-38
-0.03354945 0.062645435 1.016 2.3509886e-38
-0.030283574 0.06234853 1.016 2.3509886e-38
-0.025830105 0.062348537 1.016 2.3509886e-38
-0.02137664 0.06234853 1.016 2.3509886e-38
-0.017827675 0.062395215 1.0167501 2.3509886e-38
-0.014251092 0.062348533 1.016 2.3509886e-38
-0.04100148 0.065960623 1.0167501 2.3509886e-38
-0.037817355 0.065808147 1.0190001 2.3509886e-38
-0.029479671 0.0652126 1.0190001 2.3509886e-38
-0.025459714 0.065659262 1.0190001 2.3509886e-38
-0.021439761 0.066105925 1.0190001 2.3509886e-38
-0.017866466 0.066105925 1.0190001 2.3509886e-38
-0.014251092 0.065911308 1.016 2.3509886e-38
-0.011579013 0.065911308 1.016 2.3509886e-38
-0.045425359 0.070364773 1.016 2.3509886e-38
-0.042815082 0.069576651 1.0175 2.3509886e-38
-0.016973143 0.068785898 1.0190001 2.3509886e-38
-0.014293173 0.069679223 1.0190001 2.3509886e-38
-0.010696867 0.069526024 1.0167501 2.3509886e-38
-0.048988134 0.075708933 1.016 2.3509886e-38
-0.046575721 0.073702239 1.0178001 2.3509886e-38
-0.043772843 0.073252514 1.0190001 2.3509886e-38
-0.0098138452 0.073738925 1.0175002 2.3509886e-38
-0.0062348535 0.075708933 1.016 2.3509886e-38
-0.052550904 0.079271704 1.016 2.3509886e-38
-0.05027391 0.078238413 1.0180001 2.3509886e-38
-0.0080399103 0.07771913 1.0190001 2.3509886e-38
-0.005647195 0.078755938 1.0170001 2.3509886e-38
-0.00267208 0.079271704 1.016 2.3509886e-38
-0.056113679 0.081053093 1.016 2.3509886e-38
-0.053599402 0.081292421 1.0190001 2.3509886e-38
-0.0050577819 0.081808195 1.0180001 2.3509886e-38
-0.0020782845 0.082240686 1.016 2.3509886e-38
-0.056113679 0.086397253 1.016 2.3509886e-38
-0.054332294 0.086397253 1.016 2.3509886e-38
-0.0044666165 0.084865719 1.0190001 2.3509886e-38
-0.00267208 0.084615864 1.016 2.3509886e-38
-0.054332294 0.088178635 1.016 2.3509778e-38
-0.0089069335 0.13805747 1.016 6.5451484e-39
-0.036734082 0.067196488 1.022 2.3509886e-38
-0.034046225 0.066300541 1.022 2.3509886e-38
-0.030761061 0.06659919 1.0220001 2.3509886e-38
-0.026878599 0.067196488 1.022 2.3509886e-38
-0.040317897 0.06988436 1.022 2.3509886e-38
-0.037928689 0.069585711 1.0220001 2.3509886e-38
-0.03046241 0.068988405 1.022 2.3509886e-38
-0.025982644 0.06988436 1.022 2.3509886e-38
-0.021502877 0.06988436 1.022 2.3509886e-38
-0.018217716 0.070183009 1.0220001 2.3509886e-38
-0.0415125 0.073169522 1.0220001 2.3509886e-38
-0.021502879 0.072572216 1.022 2.3509886e-38
-0.017023113 0.072572216 1.022 2.3509886e-38
-0.014335252 0.073468164 1.022 2.3509886e-38
-0.049277429 0.079739839 1.022 2.3509886e-38
-0.046589568 0.07794793 1.022 2.3509886e-38
-0.0098554865 0.077499956 1.022 2.3509886e-38
-0.060924821 0.083323658 1.022 2.3509886e-38
-0.057341009 0.083323658 1.022 2.3509886e-38
-0.053757194 0.083323658 1.022 2.3509886e-38
-0.051069334 0.081531748 1.022 2.3509886e-38
-0.0080635799 0.081531748 1.022 2.3509886e-38
-0.0062716729 0.083323658 1.022 2.3509886e-38
-0.06002887 0.085115559 1.022 2.3509886e-38
-0.057341009 0.085115559 1.022 2.3509886e-38
-0.053757194 0.085115559 1.022 2.3509886e-38
-0.0062716729 0.086011514 1.022 2.3509886e-38
-0.056445051 0.13528894 1.022 7.5516801e-39
-0.036841914 0.070988081 1.025 2.3509886e-38
-0.034146167 0.070089497 1.025 2.3509886e-38
-0.030551832 0.070988081 1.025 2.3509886e-38
-0.040436249 0.074582413 1.025 2.3509886e-38
-0.037740499 0.073683828 1.025 2.3509886e-38
-0.034146167 0.073683828 1.025 2.3509886e-38
-0.030574847 0.073738404 1.02575 2.3509886e-38
-0.026058916 0.073683828 1.0250001 2.3509886e-38
-0.021566 0.074582413 1.025 2.3509886e-38
-0.018271195 0.073983356 1.025 2.3509886e-38
-0.044479873 0.078626037 1.025 2.3509886e-38
-0.041364416 0.077335365 1.0257499 2.3509886e-38
-0.037795726 0.077392563 1.0265 2.3509886e-38
-0.034220461 0.077448457 1.0272499 2.3509886e-38
-0.03064125 0.077504337 1.028 2.3509886e-38
-0.026135188 0.077504337 1.028 2.3509886e-38
-0.021566 0.077278167 1.025 2.3509886e-38
-0.017997967 0.077392571 1.0265 2.3509886e-38
-0.014377332 0.07727816 1.025 2.3509886e-38
-0.011082528 0.079374865 1.025 2.3509886e-38
-0.050069354 0.08305072 1.026 2.3509886e-38
-0.046828248 0.082851782 1.0272499 2.3509886e-38
-0.041455813 0.080207981 1.028 2.3509886e-38
-0.037850957 0.080207981 1.028 2.3509886e-38
-0.035147317 0.080207981 1.028 2.3509886e-38
-0.02433276 0.080207981 1.028 2.3509886e-38
-0.021629117 0.081109196 1.028 2.3509886e-38
-0.017723862 0.080808789 1.0280001 2.3509886e-38
-0.014419413 0.082010403 1.028 2.3509886e-38
-0.010257526 0.082946159 1.0262001 2.3509886e-38
-0.053016413 0.087162577 1.025 2.3509886e-38
-0.050718378 0.086132787 1.027 2.3509886e-38
-0.013518199 0.085615262 1.028 2.3509886e-38
-0.0099006351 0.086390674 1.0265 2.3509886e-38
-0.053016413 0.089858323 1.025 2.3509886e-38
-0.051369157 0.089220122 1.028 2.3509886e-38
-0.0099133458 0.090121329 1.028 2.3509886e-38
-0.044288322 0.082249738 1.031 2.3509886e-38
-0.041576795 0.082249738 1.031 2.3509886e-38
-0.037961416 0.082249738 1.031 2.3509886e-38
-0.034044765 0.08164718 1.031 2.3509886e-38
-0.029826827 0.081345893 1.0310001 2.3509886e-38
-0.025608893 0.08164718 1.031 2.3509886e-38
-0.01898071 0.082249738 1.031 2.3509886e-38
-0.049711384 0.0876728 1.031 2.3509886e-38
-0.046547927 0.08586511 1.031 2.3509886e-38
-0.041576795 0.084057428 1.031 2.3509886e-38
-0.037961416 0.084057428 1.031 2.3509886e-38
-0.035249889 0.084057428 1.031 2.3509886e-38
-0.02440377 0.084057428 1.031 2.3509886e-38
-0.021692239 0.084057428 1.031 2.3509886e-38
-0.017775586 0.084659986 1.031 2.3509886e-38
-0.014762774 0.087070242 1.031 2.3509886e-38
-0.050615229 0.090384334 1.031 2.3509886e-38
-0.013557649 0.089480489 1.031 2.3509886e-38
-0.011749962 0.090384334 1.031 2.3509886e-38
-0.045021504 0.087323599 1.0340002 2.3509886e-38
-0.041697774 0.08702144 1.034 2.3509886e-38
-0.038071878 0.08702144 1.034 2.3509886e-38
-0.034445986 0.086114965 1.034 2.3509886e-38
-0.02965463 0.085596986 1.034 2.3509886e-38
-0.025562549 0.086477563 1.034 2.3509886e-38
-0.02175536 0.08702144 1.034 2.3509886e-38
-0.018431624 0.087323599 1.0340002 2.3509886e-38
-0.048647404 0.090949498 1.0340002 2.3509886e-38
-0.045323662 0.09064734 1.034 2.3509886e-38
-0.041697774 0.089740857 1.034 2.3509886e-38
-0.014805732 0.090949498 1.0340002 2.3509886e-38
-0.048949562 0.093366757 1.034 1.8525967e-38
-0.014503574 0.094273232 1.034 1.6597419e-38
-0.041859075 0.091907971 1.038 2.3509886e-38
-0.038522486 0.090694666 1.038 2.3509886e-38
-0.034579236 0.089178041 1.038 2.3509886e-38
-0.030939318 0.088268057 1.038 2.3509886e-38
-0.025176112 0.090694666 1.038 2.3509886e-38
-0.021839518 0.090997994 1.038 2.3509886e-38
-0.0181996 0.090997994 1.038 2.3509886e-38
-0.048228938 0.095547892 1.038 1.207686e-38
-0.045498997 0.093727939 1.038 2.3509879e-38
-0.042162403 0.094334595 1.038 2.3509886e-38
-0.039129138 0.093727939 1.038 2.3509886e-38
-0.024569457 0.094637915 1.038 2.3509886e-38
-0.021839518 0.094637915 1.038 2.3509886e-38
-0.01728962 0.094637915 1.038 2.1024941e-38
-0.033766571 0.090348385 1.041 2.3509886e-38
-0.030116132 0.090348385 1.0410001 2.3509886e-38
-0.041067448 0.095824048 1.041 2.3509886e-38
-0.037873313 0.09445513 1.041 2.3509886e-38
-0.035591789 0.093998834 1.0410001 2.3509886e-38
-0.028290909 0.093998834 1.0410001 2.3509886e-38
-0.02646569 0.093998834 1.0410001 2.3509886e-38
-0.01916481 0.094911441 1.041 2.3509886e-38
-0.037417009 0.097649269 1.041 1.5206126e-38
-0.032948639 0.093354478 1.044 2.3509886e-38
-0.030202918 0.093354478 1.044 2.3509886e-38
-0.039355319 0.097930677 1.044 1.5298321e-38
-0.032948639 0.096100196 1.044 2.3509886e-38
-0.030202918 0.096100196 1.044 2.3509886e-38
