# .PCD v0.7 - Point Cloud Data file format
VERSION 0.7
FIELDS x y z rgb
SIZE 4 4 4 4
TYPE F F F F
COUNT 1 1 1 1
WIDTH 980
HEIGHT 1
VIEWPOINT 0 0 0 1 0 0 0
POINTS 980
DATA ascii
-0.013185065 0.08652699 0.94 1.9353138e-38
-0.0098887999 0.08652699 0.94 1.9723729e-38
-0.0054304237 0.087037571 0.93839997 1.5484157e-38
-0.0019193155 0.08695247 0.9386667 1.2721548e-38
-0.013185065 0.088175133 0.94 1.0689982e-38
-0.0096141119 0.088724516 0.94 1.1244568e-38
-0.0061783083 0.089363456 0.93950003 1.3089937e-38
-0.0013716912 0.089210182 0.93933338 1.6683425e-38
0.0016533933 0.086803146 0.94300002 8.3962791e-39
-0.01736063 0.089283243 0.94300002 1.4563626e-38
-0.014467191 0.089696594 0.94300002 1.2998125e-38
-0.0099203596 0.090936631 0.94300002 1.4842738e-38
-0.0057868771 0.09176334 0.94300002 1.7792652e-38
-0.0024800899 0.091763332 0.94300002 1.8068176e-38
0.0016533933 0.088456541 0.94300002 1.7148333e-38
-0.049033716 0.073966116 0.94800001 8.75318e-39
-0.045946851 0.074441016 0.94800007 1.4555695e-38
0.0058105467 0.083821021 0.94666672 2.0749789e-38
0.0099729598 0.083939075 0.94800001 1.3284825e-38
0.014128361 0.082276925 0.94800007 1.6041311e-38
-0.029087799 0.086432323 0.94800001 1.2722613e-38
-0.026051028 0.086452655 0.94640011 1.0789034e-38
0.0058125923 0.086341433 0.94700003 1.2444927e-38
0.0099729598 0.08560124 0.94800001 1.6320026e-38
0.0124662 0.08560124 0.94800001 1.6871785e-38
-0.029087799 0.089756638 0.94800001 1.8069246e-38
-0.025727829 0.089630991 0.94666666 1.7239854e-38
-0.021562491 0.089567274 0.94599998 1.5578884e-38
-0.019074513 0.089567274 0.94599998 1.51168e-38
0.0016586533 0.090396598 0.94599998 1.834475e-38
0.005814638 0.089693531 0.94733334 1.8068163e-38
-0.025209425 0.09335798 0.94800007 1.6857695e-38
-0.02202362 0.093496494 0.94800001 1.5944052e-38
-0.018102115 0.093501762 0.9472 1.779048e-38
-0.014118425 0.093847156 0.94733334 1.8159987e-38
-0.010130759 0.094165921 0.9472 1.7976693e-38
-0.0058114231 0.094644055 0.94699997 1.7884489e-38
-0.0014945413 0.094165921 0.9472 1.7791954e-38
0.0014945412 0.093501762 0.9472 1.7791586e-38
0.0041554002 0.093080953 0.94800001 1.7699749e-38
-0.0049864799 0.097236358 0.94800001 1.7884142e-38
-0.041963406 0.075311802 0.95099998 2.350687e-38
-0.044742435 0.078090839 0.95099998 1.5485982e-38
-0.041963406 0.078090839 0.95099998 1.8897126e-38
-0.038350657 0.079202451 0.95099998 1.8066689e-38
-0.035849527 0.079202451 0.95099998 2.3508809e-38
-0.044742435 0.081425667 0.95099998 1.57622e-38
-0.042519208 0.081703573 0.95099998 1.7883417e-38
-0.038350657 0.080869861 0.95099998 1.3002022e-38
-0.034182109 0.081981473 0.95099998 1.6214863e-38
0.018063717 0.081425667 0.95099998 1.5302286e-38
-0.033348396 0.084204704 0.95099998 1.1613339e-38
-0.030847268 0.086705834 0.95099998 1.4012297e-38
0.010004519 0.087539546 0.95099998 1.7790494e-38
0.014506553 0.086205617 0.95100003 1.7422796e-38
-0.030847268 0.090040669 0.95099998 1.8068505e-38
0.010004519 0.089206964 0.95099998 1.7699764e-38
0.013339359 0.089206964 0.95099998 1.7330253e-38
-0.029179849 0.093375519 0.95099998 1.3902376e-38
-0.026956623 0.095320836 0.95099998 9.9329486e-39
-0.02084275 0.095042929 0.95099998 1.6403219e-38
-0.019175328 0.095876642 0.95099998 1.6219123e-38
0.0025011299 0.095876642 0.95099998 1.7699749e-38
0.00416855 0.095876642 0.95099998 1.7700097e-38
-0.024177589 0.097544067 0.95099998 5.7031278e-39
-0.022510169 0.097544067 0.95099998 6.2480423e-39
-0.010004519 0.097544067 0.95099998 1.8528766e-38
-0.0058359699 0.098655686 0.95099998 1.8895759e-38
-0.0016674199 0.097544067 0.95099998 1.7699759e-38
0.00083370996 0.097544067 0.95099998 1.7607197e-38
-0.0459987 0.079452291 0.954 1.1982946e-38
-0.040980656 0.079452291 0.954 1.5116105e-38
-0.039307978 0.077779613 0.954 2.3509886e-38
-0.040980656 0.081961319 0.954 1.6685233e-38
-0.038471639 0.082797654 0.954 1.585763e-38
-0.035126276 0.081961319 0.954 1.9448563e-38
0.01923582 0.082797654 0.954 1.474948e-38
0.02146606 0.08168254 0.954 1.078506e-38
-0.044418946 0.084647425 0.95599997 1.8430829e-38
-0.041904662 0.084647425 0.95599997 1.7240213e-38
-0.037421685 0.0862941 0.95566666 1.7608261e-38
-0.033955406 0.086477555 0.954 1.6870351e-38
0.015890459 0.087815695 0.954 1.7975607e-38
0.018412923 0.086203799 0.95466661 1.5302304e-38
0.021614039 0.086623423 0.95559996 1.0230823e-38
-0.03348954 0.090419397 0.95499998 1.8248922e-38
0.010036079 0.091161057 0.954 1.7423532e-38
0.014217779 0.090603501 0.954 1.7422803e-38
0.018438052 0.089675985 0.95599997 1.4931376e-38
0.021790426 0.089675985 0.95599997 8.7557108e-39
-0.032685637 0.093028352 0.95599997 7.7278135e-39
-0.030944578 0.093670078 0.954 1.1132941e-38
0.006701678 0.0938178 0.95550001 1.7607911e-38
0.01005712 0.093028352 0.95599997 1.7423527e-38
-0.030156016 0.097168416 0.95550001 7.3651841e-39
-0.025952838 0.098792441 0.95499998 8.8435652e-39
-0.021511063 0.099174373 0.95600003 1.0034483e-38
-0.018418767 0.098792434 0.95499992 1.0956069e-38
-0.014243203 0.098860823 0.95566666 1.2989101e-38
-0.010036079 0.099524453 0.954 1.6309926e-38
-0.0075270599 0.099524453 0.954 1.9262673e-38
-0.0016726799 0.099524453 0.954 1.7975257e-38
0.0019537979 0.099105999 0.95533335 1.7515005e-38
0.0058637308 0.096871078 0.95533335 1.7516428e-38
-0.018438052 0.10140929 0.95599997 5.2486391e-39
-0.014247585 0.10140929 0.95600003 5.3286112e-39
-0.01005712 0.10140929 0.95599997 1.2888223e-38
-0.0058596395 0.10126786 0.95466661 1.796763e-38
-0.0016761866 0.10140929 0.95599997 1.7881989e-38
-0.044558335 0.0865945 0.95899999 1.5209388e-38
-0.042036165 0.0865945 0.95899999 1.7975611e-38
-0.039513994 0.0865945 0.95899999 1.7701169e-38
-0.036991823 0.090798117 0.95899999 1.5199962e-38
-0.03278821 0.095001727 0.95899999 7.9000051e-39
0.010088679 0.095001727 0.95899999 1.7331327e-38
0.013451573 0.09332028 0.95899999 1.7606472e-38
0.019336635 0.094161004 0.95899999 8.2946892e-39
0.021578565 0.093880765 0.95899999 8.7560541e-39
0.0067257863 0.098364621 0.95899999 1.7331685e-38
0.0092479559 0.096683174 0.95899999 1.7240195e-38
0.018495914 0.097523898 0.95899999 1.1428224e-38
0.021018082 0.097523898 0.95899999 8.5738278e-39
-0.027743869 0.10004608 0.95899999 1.1705977e-38
-0.021578565 0.102288 0.95899999 1.3638408e-38
-0.018495914 0.10340896 0.95899999 1.2902292e-38
-0.014292296 0.10340896 0.95899999 7.5467139e-39
-0.010088679 0.10340896 0.95899999 7.9104083e-39
-0.0058850627 0.10340896 0.95899999 1.2064204e-38
0.0016814466 0.10172752 0.95899999 1.7422803e-38
0.0042036166 0.10004608 0.95899999 1.7054394e-38
0.018495914 0.10004608 0.95899999 1.1244236e-38
-0.042212375 0.088644147 0.963 1.7608286e-38
-0.039678808 0.089489251 0.963 1.5762134e-38
0.017710418 0.091925517 0.96200007 1.4655491e-38
0.021927185 0.091925509 0.96200001 1.0132496e-38
-0.036339585 0.093806833 0.96399999 7.9046686e-39
-0.034577485 0.09445557 0.96200001 8.3627699e-39
0.013508556 0.095397986 0.963 1.6961106e-38
0.017159289 0.094239324 0.96266669 1.6130962e-38
-0.033499774 0.097683452 0.96333331 1.0403657e-38
0.010415385 0.098246858 0.96333331 1.6870347e-38
0.012676599 0.097187266 0.96399999 1.6501207e-38
-0.032959159 0.10056768 0.96399999 1.152404e-38
-0.030100059 0.10099199 0.96266669 9.8634792e-39
-0.026189834 0.10306765 0.96366662 1.4100518e-38
-0.022770539 0.10373246 0.96200001 1.5574167e-38
-0.0016867067 0.10373246 0.96200001 1.7602917e-38
0.0016902132 0.10394812 0.96399999 1.7239488e-38
0.0059116553 0.10106155 0.96333331 1.6869995e-38
0.0092961732 0.10056768 0.96399999 1.6869632e-38
-0.024508093 0.10563833 0.96399999 1.4198814e-38
-0.021972772 0.10563833 0.96399999 1.5944787e-38
-0.017717142 0.10629963 0.96233338 1.1333916e-38
-0.013500229 0.10631818 0.96249998 8.1927784e-39
-0.010130759 0.10637385 0.963 7.9107726e-39
-0.0059157461 0.10563833 0.96399999 9.4798948e-39
-0.053407408 0.058493827 0.96700001 2.0556379e-38
-0.051711936 0.058493827 0.96700001 2.3509886e-38
-0.053407408 0.060189299 0.96700001 1.4099893e-38
-0.051711936 0.060189299 0.96700001 2.3509886e-38
0.027127571 0.062732518 0.96700001 2.3509886e-38
0.030518519 0.063580252 0.96700001 6.8141935e-39
-0.041539095 0.090707824 0.96700001 1.3733927e-38
-0.037300412 0.094946504 0.96700001 5.9718184e-39
0.016106997 0.095794246 0.96700001 1.7328087e-38
-0.034757201 0.099185184 0.96700001 1.2148128e-38
0.013563786 0.098337449 0.96700001 1.7145852e-38
0.016106997 0.097489715 0.96700001 1.5761121e-38
-0.033909462 0.10172839 0.96700001 8.2921893e-39
-0.031366255 0.10257614 0.96700001 8.0242596e-39
0.0067818929 0.10257614 0.96700001 1.6594123e-38
0.01017284 0.10172839 0.96700001 1.6777789e-38
-0.029670782 0.10511935 0.96700001 1.1243187e-38
-0.026279837 0.10681482 0.96700001 1.0049652e-38
-0.022041153 0.10766255 0.96700001 1.2991318e-38
-0.0059341565 0.10766255 0.96700001 1.0495818e-38
-0.0016954733 0.10681482 0.96700001 1.6866021e-38
0.0016954732 0.10596708 0.96700001 1.7423875e-38
0.0059341565 0.10427161 0.96700001 1.6961821e-38
-0.024584362 0.10935803 0.96700001 4.6111492e-39
-0.02288889 0.10935803 0.96700001 1.160583e-38
-0.017802471 0.10935804 0.96700001 1.1148448e-38
-0.013563786 0.10935803 0.96700001 5.2389309e-39
-0.01017284 0.10935803 0.96700001 1.0760564e-38
-0.0076296297 0.10935803 0.96700001 1.1225841e-38
-0.050171632 0.058675297 0.97000003 2.3509886e-38
0.029762834 0.0586753 0.97000003 2.0652187e-38
0.0331643 0.058675297 0.97000003 5.7172235e-39
-0.050171632 0.060376033 0.97000003 2.3509886e-38
0.026361367 0.060376033 0.97000003 2.3509886e-38
0.030102981 0.061056327 0.97000009 1.6676609e-38
0.0331643 0.060376033 0.97000003 8.5595108e-39
-0.039967231 0.092689969 0.97000003 8.5485933e-39
-0.036565769 0.097792163 0.97000003 8.921675e-39
0.014456232 0.0994929 0.97000003 1.7697227e-38
0.016156966 0.0994929 0.97000003 1.4654411e-38
-0.034865033 0.10289437 0.97000003 3.041011e-39
0.011054766 0.10289437 0.97000003 1.6869261e-38
0.012755499 0.10119363 0.97000003 1.7330238e-38
-0.034014665 0.1045951 0.97000003 4.61265e-39
-0.029762834 0.10686275 0.97000003 1.0415262e-38
0.0017007333 0.10799656 0.97000003 1.7699022e-38
0.0055273836 0.10672101 0.97000003 1.7238042e-38
0.0093540326 0.1045951 0.97000003 1.6777081e-38
-0.025794458 0.11083113 0.97000003 8.3010679e-40
-0.021259166 0.1096973 0.97000003 1.2711819e-38
-0.017857701 0.11139803 0.97000003 1.197817e-38
-0.013605866 0.11139803 0.97000003 3.3986308e-39
-0.010204399 0.11139803 0.97000003 1.0579051e-38
-0.0059525669 0.11054766 0.97000003 1.0217062e-38
-0.0017007333 0.1096973 0.97000003 1.5945133e-38
0.00085036666 0.1096973 0.97000003 1.7977056e-38
-0.017007332 0.11309877 0.97000003 8.4725672e-39
-0.010204399 0.11309877 0.97000003 1.0307458e-38
0.0290615 0.050430249 0.97500002 2.1850364e-38
-0.052994501 0.05384925 0.97500002 2.1940783e-38
-0.050430249 0.054703999 0.97500002 2.3509886e-38
0.026497249 0.055558749 0.97500002 2.3509886e-38
0.029916251 0.053849246 0.97499996 2.0007555e-38
-0.052139752 0.057268251 0.97500002 2.3509886e-38
-0.0495755 0.058123 0.97500002 2.3509886e-38
0.026470073 0.058062509 0.97399998 2.3509886e-38
0.029916249 0.057268254 0.97500008 2.1295404e-38
-0.048720747 0.060687248 0.97500002 2.3509886e-38
0.02478775 0.06239675 0.97500002 2.3509886e-38
0.02478775 0.064106248 0.97500002 2.3509886e-38
-0.043592252 0.091458254 0.97500002 1.557784e-38
-0.048720747 0.094022498 0.97500002 8.7582149e-39
-0.046156503 0.094022498 0.97500002 1.1248207e-38
-0.042190988 0.0941163 0.97419995 1.0229391e-38
-0.0495755 0.097441494 0.97500002 1.0417024e-38
-0.04530175 0.096586749 0.97500002 1.2999919e-38
-0.041455377 0.097014122 0.97500002 1.1056259e-38
-0.03795835 0.098521098 0.97299999 7.3608639e-39
-0.040173247 0.10171525 0.97500008 1.4650465e-38
-0.0375713 0.1024648 0.97400004 2.6661147e-39
0.013942215 0.10271465 0.97366667 1.7236965e-38
0.017514046 0.10294522 0.97449994 1.179454e-38
-0.040173247 0.10598899 0.97500002 1.7145159e-38
-0.03759015 0.10593508 0.97450006 6.6373539e-39
-0.034119867 0.10662458 0.97299999 6.9099176e-39
-0.031560875 0.10662458 0.97299999 1.4098273e-38
0.010527889 0.10612898 0.97366667 1.714441e-38
0.01282125 0.10513425 0.97500002 1.7145481e-38
-0.037608996 0.10855325 0.97500002 1.4377105e-38
-0.034189999 0.10855325 0.97500002 6.8141501e-39
-0.029550506 0.11051418 0.97419995 6.8202906e-39
-0.022177912 0.11174256 0.97299999 9.3970248e-39
-0.0042649829 0.11174256 0.97299999 1.4368729e-38
-0.0017059932 0.11174256 0.97299999 1.5486383e-38
0.001992079 0.11125046 0.97366667 1.7330967e-38
0.0059771128 0.10986592 0.97399998 1.6777426e-38
0.0094022499 0.10940799 0.97500002 1.6961458e-38
-0.02478775 0.11368175 0.97500002 0
-0.022223499 0.11368175 0.97500002 5.1532092e-39
-0.017936308 0.11474368 0.97433341 8.8370323e-39
-0.01337238 0.11409611 0.97366667 8.0076248e-39
-0.01023596 0.11515454 0.97299999 1.003231e-38
-0.0059738993 0.11437987 0.97366667 1.2617064e-38
-0.0017095 0.11453649 0.97500002 1.7054385e-38
0.00085474999 0.11368175 0.97500002 1.7422803e-38
0.026578778 0.046298519 0.97799999 2.3509886e-38
0.028865125 0.046584316 0.97800004 1.7424974e-38
0.026578778 0.049728036 0.97799999 2.3509886e-38
0.029150918 0.048870657 0.97799999 1.6595213e-38
-0.048870657 0.054872319 0.97799999 2.3509886e-38
0.02600719 0.054014936 0.97800004 2.3509886e-38
-0.048870657 0.057444457 0.97799999 2.3509886e-38
0.024864018 0.058301836 0.97799999 2.3509886e-38
0.024864018 0.060873974 0.97799999 2.3509886e-38
-0.050585419 0.094311789 0.97799999 9.5879756e-39
-0.046584316 0.09802711 0.97800004 9.9567567e-39
-0.042868998 0.098598696 0.97799999 1.4099113e-38
-0.045441139 0.10031345 0.97799999 9.8624143e-39
-0.042697527 0.10168526 0.97799999 1.5296892e-38
0.014003873 0.10660091 0.97800004 1.677707e-38
0.01800498 0.10631512 0.97800004 9.0340885e-39
-0.033437818 0.11060201 0.97799999 6.9881073e-39
-0.03172306 0.11060201 0.97799999 1.3810556e-38
0.011145939 0.10888726 0.97799999 1.7144421e-38
-0.030008297 0.11317416 0.97799999 2.5731876e-39
-0.025721397 0.11488892 0.97799999 2.4845806e-39
-0.02229188 0.1157463 0.97799999 5.9782756e-39
-0.019719739 0.1157463 0.97799999 7.0813777e-39
-0.014575459 0.1157463 0.97799999 1.2525893e-38
0.00171476 0.11488892 0.97799999 1.7054017e-38
0.0060016597 0.11288836 0.97800004 1.6777786e-38
0.0094311787 0.11231677 0.97799999 1.7330591e-38
-0.01371808 0.11746105 0.97799999 1.2611243e-38
-0.010288559 0.11746105 0.97799999 9.4809388e-39
-0.0068590399 0.11746105 0.97799999 1.2991955e-38
-0.00171476 0.11746105 0.97799999 1.7605753e-38
0.019840719 0.038818799 0.98400003 2.3509886e-38
0.021566 0.038818799 0.98400003 2.3509886e-38
-0.049020566 0.04386051 0.98100001 2.3509886e-38
-0.046353221 0.042560764 0.98280001 2.3509886e-38
-0.043304529 0.042614412 0.98400003 2.3509886e-38
0.019840719 0.040544078 0.98400003 2.3509886e-38
0.022404972 0.042225525 0.98300004 2.3509886e-38
0.02551363 0.043287169 0.98100007 2.3509886e-38
-0.049593907 0.04672721 0.98100007 2.3509886e-38
-0.046475388 0.046476699 0.98175001 2.3509886e-38
-0.043994639 0.045719918 0.98400003 2.3509886e-38
0.022393133 0.046511553 0.98250002 2.3509886e-38
0.024940288 0.046440542 0.98100001 2.3509886e-38
-0.052460607 0.049880579 0.98100001 2.3509886e-38
-0.049880575 0.049880575 0.98100001 2.3509886e-38
-0.0465464 0.049995638 0.98325002 2.3509886e-38
0.022393133 0.049956843 0.98250002 2.3509886e-38
0.024940288 0.049880579 0.98100001 2.3509886e-38
-0.050033119 0.05262104 0.98400003 2.3509886e-38
-0.046582557 0.05348368 0.98400003 2.3509886e-38
0.023220269 0.05418063 0.98100007 2.3509886e-38
0.024940288 0.053320616 0.98100001 2.3509886e-38
-0.0474452 0.057796877 0.98400009 2.3509886e-38
0.023220269 0.05848068 0.98100001 2.3509886e-38
-0.050033119 0.062972717 0.98400003 2.3509886e-38
-0.0474452 0.062110074 0.98400003 2.3509886e-38
0.023255775 0.062016711 0.98250002 2.3509886e-38
-0.050033119 0.064698003 0.98400003 2.3509886e-38
-0.0474452 0.064698003 0.98400003 2.3509886e-38
0.02329128 0.064698003 0.98400003 2.3509886e-38
0.021500248 0.10492122 0.98100001 9.402878e-39
-0.036980428 0.11094129 0.98100001 1.5941607e-38
-0.035260409 0.11094129 0.98100001 7.2752179e-39
0.01118013 0.11094129 0.98100001 1.6776718e-38
0.013760159 0.11008129 0.98100001 1.6223897e-38
0.018068537 0.11013784 0.98150009 8.8493357e-39
-0.033540387 0.11266131 0.98100001 5.2475376e-39
-0.030100347 0.11438133 0.98100001 2.9387359e-39
0.0068800803 0.11438133 0.98100001 1.6869618e-38
0.010618187 0.11392459 0.98200005 1.6961457e-38
0.013781199 0.11369622 0.98250002 1.4194489e-38
0.01639016 0.11300584 0.98400003 9.3084417e-39
-0.028467119 0.11645639 0.98400003 6.2656651e-39
-0.025838435 0.11714151 0.98250002 6.2494773e-39
-0.022119176 0.11863667 0.98300004 8.5561505e-39
-0.0180823 0.1186556 0.98220009 8.74195e-39
-0.013760159 0.11954138 0.98100001 1.0215288e-38
-0.01032012 0.11954138 0.98100001 1.4279467e-38
-0.0055900649 0.11911137 0.98100001 1.8065997e-38
-0.0025879201 0.11990695 0.98400003 1.7237326e-38
0.00200669 0.11724802 0.98100007 1.7145131e-38
0.0056005851 0.11670887 0.98250002 1.6686664e-38
0.0094890399 0.11645639 0.98400003 1.6501909e-38
-0.01035168 0.12163224 0.98400003 1.5203968e-38
-0.038071878 0.035476066 0.98699999 2.3509886e-38
-0.038071878 0.037206605 0.98699999 2.3509886e-38
0.018170668 0.038071878 0.98699999 2.3509886e-38
-0.041244533 0.041244533 0.98699999 2.3509886e-38
0.017824562 0.041706011 0.98699999 2.3509886e-38
-0.044128768 0.047589846 0.98699999 2.3509886e-38
-0.041359901 0.046205413 0.98699999 2.3509886e-38
0.019468574 0.045426674 0.98699999 2.3509886e-38
-0.044128768 0.050185658 0.98699999 2.3509886e-38
-0.042398226 0.050185658 0.98699999 2.3509886e-38
0.019901209 0.049320389 0.98699999 2.3509886e-38
-0.044128768 0.05278147 0.98699999 2.3509886e-38
0.021631747 0.05364674 0.98699999 2.3509886e-38
-0.045859307 0.057973087 0.98699999 2.3509886e-38
0.021631747 0.057973087 0.98699999 2.3509886e-38
-0.045859307 0.062299438 0.98699999 2.3509886e-38
0.021631747 0.061434165 0.98699999 2.3509886e-38
-0.032014988 0.1150809 0.98699999 4.0526603e-39
0.018170668 0.11335036 0.98699999 9.1266513e-39
-0.02682337 0.11854198 0.98699999 7.2550042e-39
0.0069221593 0.11854198 0.98699999 1.6502634e-38
-0.018170668 0.12027252 0.98699999 7.7306834e-39
-0.01384432 0.12200306 0.98699999 1.1975659e-38
-0.0095179696 0.1237336 0.98699999 1.7329522e-38
-0.0064895242 0.12243569 0.98699999 1.7882693e-38
-0.0017305398 0.12113778 0.98699999 1.7053301e-38
-0.029568212 0.030437866 0.99199998 2.3509886e-38
-0.026089597 0.030437866 0.99199998 2.3509886e-38
-0.033526536 0.03491693 0.99080002 2.3509886e-38
-0.029568214 0.033916477 0.99200004 2.3509886e-38
-0.026379481 0.03275694 0.99199998 2.3509886e-38
0.011305492 0.035655785 0.99199998 2.3509886e-38
0.013872373 0.035547953 0.98900002 2.3509886e-38
0.017340466 0.035547953 0.98900002 2.3509886e-38
-0.04421819 0.039016049 0.98900002 2.3509886e-38
-0.041328114 0.038438033 0.98900002 2.3509886e-38
-0.038149025 0.039016049 0.98900002 2.3509886e-38
-0.03386344 0.038207322 0.99049997 2.3509886e-38
-0.029568212 0.03739509 0.99199998 2.3509886e-38
0.011305492 0.038264744 0.99199998 2.3509886e-38
0.013872372 0.038149025 0.98900002 2.3509886e-38
0.016473442 0.037282001 0.98900002 2.3509886e-38
-0.038149025 0.041617122 0.98900002 2.3509886e-38
-0.034759171 0.041712459 0.99125004 2.3509886e-38
0.011305492 0.04174336 0.99199998 2.3509886e-38
0.013872373 0.041617118 0.98900002 2.3509886e-38
-0.038186725 0.045999579 0.98999995 2.3509886e-38
-0.034786131 0.044352319 0.99199998 2.3509886e-38
0.014079441 0.045716938 0.99139994 2.3509886e-38
0.017167062 0.046299044 0.98900002 2.3509886e-38
-0.040750097 0.050287351 0.98900002 2.3509886e-38
-0.038554631 0.050150007 0.99199998 2.3509886e-38
0.014784106 0.049570236 0.99199998 2.3509886e-38
0.017870674 0.050491791 0.9896 2.3509886e-38
-0.04421819 0.054622471 0.98900002 2.3509886e-38
-0.041990288 0.053575143 0.99100006 2.3509886e-38
0.019102126 0.052968636 0.99049997 2.3509886e-38
0.020002026 0.054788157 0.99199998 2.3509886e-38
-0.04421819 0.057223536 0.98900002 2.3509886e-38
-0.042613011 0.056527462 0.99199998 2.3509886e-38
0.020002026 0.057397112 0.99199998 2.3509886e-38
-0.044352319 0.060006075 0.99199998 2.3509886e-38
0.020838805 0.061649386 0.99049997 2.3509886e-38
0.022299185 0.066317782 0.99100006 2.3509886e-38
0.028698558 0.0669633 0.99199998 2.3509886e-38
-0.033813909 0.1153141 0.98900002 9.2156155e-39
0.017340466 0.1153141 0.98900002 9.7701948e-39
-0.032079864 0.11704814 0.98900002 9.0319894e-39
-0.029522188 0.11809532 0.99049997 7.1851214e-39
0.010704684 0.11832428 0.99000001 1.7053291e-38
0.01300535 0.11704814 0.98900002 1.2995601e-38
-0.026051464 0.12069903 0.99049997 1.0871524e-38
-0.0228772 0.1219195 0.99100006 9.3056041e-39
-0.01820749 0.12225029 0.98900002 9.4856429e-39
-0.013872373 0.12398433 0.98900002 1.8065656e-38
-0.011271304 0.12398433 0.98900002 1.7696526e-38
-0.0052021397 0.12398433 0.98900002 1.7053651e-38
-0.0017340466 0.12311731 0.98900002 1.6869282e-38
0.001736019 0.12147597 0.98975003 1.6868901e-38
0.0056527467 0.12131664 0.99199998 1.6593746e-38
0.009566186 0.12088181 0.99199998 1.6870336e-38
-0.020002026 0.12436043 0.99199998 1.751355e-38
-0.01710318 0.1249402 0.99199998 1.7789782e-38
-0.013914453 0.12696938 0.99199998 1.6222102e-38
-0.010428607 0.12687404 0.99124998 1.7052932e-38
-0.0060836282 0.12690583 0.99150008 1.6961457e-38
-0.0015653759 0.1264476 0.99200004 1.6685603e-38
0.0017393066 0.12436043 0.99199998 1.6408656e-38
-0.0130448 0.12957834 0.99199998 1.4836246e-38
-0.010435839 0.12957834 0.99199998 1.7143672e-38
-0.0069572264 0.12957834 0.99199998 1.6593036e-38
-0.01308425 0.027040781 0.995 2.3509886e-38
-0.011339683 0.027040781 0.995 2.3509886e-38
-0.01308425 0.029657632 0.995 2.3509886e-38
-0.011339683 0.029657632 0.995 2.3509886e-38
-0.0052336995 0.029657632 0.995 2.3509886e-38
-0.02587774 0.035182096 0.99500006 2.3509886e-38
0.010176638 0.034600571 0.99500006 2.3509886e-38
0.01308425 0.034019049 0.995 2.3509886e-38
-0.029657632 0.039252751 0.995 2.3509886e-38
-0.02645926 0.038089707 0.99500006 2.3509886e-38
-0.032274481 0.041869599 0.995 2.3509886e-38
-0.029948395 0.04157884 0.99500006 2.3509886e-38
-0.034367964 0.046579927 0.995 2.3509886e-38
-0.037508182 0.051464718 0.995 2.3509886e-38
-0.035763618 0.049720149 0.995 2.3509886e-38
0.014828817 0.051464718 0.995 2.3509886e-38
-0.040997315 0.054953847 0.995 2.3509886e-38
-0.039252751 0.053209282 0.995 2.3509886e-38
0.017445665 0.054081567 0.995 2.3509886e-38
-0.04157884 0.057861459 0.99500006 2.3509886e-38
0.018317949 0.057570696 0.995 2.3509886e-38
0.018317949 0.060187545 0.995 2.3509886e-38
0.022679366 0.068910383 0.995 2.3509886e-38
-0.034019049 0.11775824 0.995 1.4379336e-38
-0.030529916 0.11950281 0.995 1.1238869e-38
0.01308425 0.11950281 0.995 1.0321575e-38
-0.028785348 0.12124739 0.995 1.4749506e-38
-0.026168499 0.12299194 0.995 1.4196332e-38
0.0069782659 0.12299194 0.995 1.6316806e-38
0.011339683 0.12124739 0.995 1.6683446e-38
-0.025296215 0.12473652 0.995 1.7606491e-38
-0.021807082 0.1256088 0.995 1.7054025e-38
-0.018317949 0.12648107 0.995 1.7238785e-38
0.0017445666 0.12648107 0.995 1.6501921e-38
0.0056698411 0.12517266 0.995 1.6408646e-38
-0.017445665 0.12909794 0.995 1.4011939e-38
-0.013956534 0.13084251 0.995 1.530194e-38
-0.010467399 0.13171478 0.995 1.677706e-38
-0.0061059832 0.13113326 0.99500006 1.6501199e-38
-0.00261685 0.12997022 0.995 1.6685592e-38
0.00261685 0.12822564 0.995 1.6962178e-38
0.0043614162 0.12822564 0.995 1.6593026e-38
-0.0096240472 0.027122313 0.99800003 2.3509886e-38
-0.0078742197 0.027122313 0.99800003 2.3509886e-38
-0.021872833 0.029747052 0.99800009 2.3509886e-38
-0.017498266 0.029747052 0.99800003 2.3509886e-38
-0.014873526 0.029747054 0.99800003 2.3509886e-38
-0.0096240472 0.029747054 0.99800003 2.3509886e-38
-0.0078742197 0.029747054 0.99800003 2.3509886e-38
-0.0017498266 0.029747052 0.99800003 2.3509886e-38
0.0017498266 0.030621966 0.99800003 2.3509886e-38
0.0052494798 0.030621966 0.99800003 2.3509886e-38
-0.022747748 0.034121618 0.99800009 2.3509886e-38
-0.017498266 0.032371793 0.99800003 2.3509886e-38
-0.013998613 0.032371793 0.99800003 2.3509886e-38
-0.01049896 0.032371793 0.99800003 2.3509886e-38
-0.0061243935 0.032371797 0.99800003 2.3509886e-38
-0.0017498266 0.032371793 0.99800003 2.3509886e-38
0.0017498266 0.032371793 0.99800003 2.3509886e-38
0.0061243931 0.034121621 0.99800003 2.3509886e-38
-0.025372487 0.039371099 0.99800003 2.3509886e-38
-0.022747748 0.038496189 0.99800003 2.3509886e-38
0.0078742197 0.038496189 0.99800003 2.3509886e-38
0.0096240472 0.038496189 0.99800003 2.3509886e-38
-0.02887214 0.042870753 0.99800003 2.3509886e-38
-0.026247399 0.041995842 0.99800003 2.3509886e-38
-0.023039386 0.041704204 0.99800003 2.3509886e-38
0.0078742197 0.041995838 0.99800003 2.3509886e-38
0.0096240472 0.041995838 0.99800003 2.3509886e-38
-0.032371793 0.046370406 0.99800003 2.3509886e-38
-0.030038692 0.045203857 0.99800003 2.3509886e-38
0.011373873 0.045495495 0.99800003 2.3509886e-38
-0.034121618 0.050307516 0.99800003 2.3509886e-38
0.0131237 0.049870059 0.99800003 2.3509886e-38
-0.038204551 0.054536264 0.99800003 2.3509886e-38
-0.035871446 0.053369712 0.99800003 2.3509886e-38
0.013998613 0.053369712 0.99800003 2.3509886e-38
0.016623352 0.055119537 0.99800003 2.3509886e-38
-0.039371099 0.05774428 0.99800003 2.3509886e-38
0.016623352 0.05774428 0.99800003 2.3509886e-38
-0.044620581 0.062993757 0.99800003 2.3509886e-38
-0.04228748 0.060952298 0.99800003 2.3509886e-38
0.017498266 0.061243933 0.99800003 2.3509886e-38
0.020123007 0.062993757 0.99800003 2.3509886e-38
-0.045495495 0.065618493 0.99800003 2.3509886e-38
0.020123007 0.065618493 0.99800003 2.3509886e-38
0.022747748 0.070867978 0.99800003 2.3509886e-38
-0.035871446 0.11461364 0.99800003 9.398897e-39
-0.034559075 0.11855076 0.99800003 1.4840268e-38
-0.032371793 0.12161295 0.99800003 1.5672143e-38
-0.030038692 0.12277951 0.99800003 1.6316838e-38
0.0096240472 0.12336278 0.99800003 1.6777787e-38
-0.02887214 0.12598753 0.99800003 1.5303034e-38
-0.026539039 0.12627916 0.99800003 1.5948049e-38
-0.02245611 0.12627918 0.99800003 1.6225694e-38
-0.02887214 0.12861226 0.99800003 1.1800675e-38
-0.026247399 0.12948719 0.99800003 1.5120083e-38
-0.02245611 0.12919556 0.99800003 1.3551323e-38
-0.0008749133 0.13036209 0.99800003 1.650156e-38
0.0008749133 0.12948719 0.99800003 1.6409006e-38
-0.017498266 0.13211191 0.99800003 1.4289255e-38
-0.013998613 0.13298681 0.99800003 1.6317908e-38
-0.01049896 0.13386174 0.99800003 1.6226055e-38
-0.0061243931 0.13298681 0.99800003 1.6409366e-38
-0.0026247399 0.13211191 0.99800003 1.6501558e-38
0.00087754335 0.02895893 1.001 2.3509886e-38
-0.020183496 0.03422419 1.0010002 2.3509886e-38
-0.017550867 0.035101734 1.001 2.3509886e-38
-0.014040693 0.03510173 1.001 2.3509886e-38
-0.01053052 0.03510173 1.001 2.3509886e-38
-0.0061428035 0.035101734 1.001 2.3509886e-38
-0.0017550867 0.035101734 1.001 2.3509886e-38
0.0017550867 0.03510173 1.001 2.3509886e-38
-0.020183496 0.038611908 1.001 2.3509886e-38
-0.017577168 0.03867108 1.0025001 2.3509886e-38
-0.014061732 0.03867108 1.0024999 2.3509886e-38
-0.0105463 0.03867108 1.0024999 2.3509886e-38
-0.0061520087 0.03867108 1.0025001 2.3509886e-38
-0.0017570591 0.038641494 1.00175 2.3509886e-38
0.0017550867 0.038611908 1.001 2.3509886e-38
0.0052652601 0.038611908 1.001 2.3509886e-38
-0.020808851 0.042498752 1.003 2.3509886e-38
-0.017603464 0.041368142 1.0039999 2.3509886e-38
-0.014082773 0.041368142 1.0039999 2.3509886e-38
-0.010268688 0.041954927 1.0039999 2.3509886e-38
-0.0061612129 0.04224832 1.0039999 2.3509886e-38
-0.0017603466 0.042248316 1.0039999 2.3509886e-38
0.001758374 0.042217415 1.00325 2.3509886e-38
0.0052685472 0.042154297 1.00175 2.3509886e-38
-0.02895893 0.046509795 1.001 2.3509886e-38
-0.026326301 0.045632251 1.001 2.3509886e-38
-0.02231485 0.045511451 1.0022 2.3509886e-38
-0.0044008661 0.044888835 1.0039999 2.3509886e-38
-0.0017603465 0.044888835 1.0039999 2.3509886e-38
0.0017603465 0.044888835 1.0039999 2.3509886e-38
0.0061533228 0.045723423 1.003 2.3509886e-38
0.0096529769 0.045632251 1.001 2.3509886e-38
-0.032469105 0.050897516 1.001 2.3509886e-38
-0.029880743 0.050096683 1.0024999 2.3509886e-38
-0.02636575 0.049217377 1.0025001 2.3509886e-38
-0.023154227 0.048948102 1.003 2.3509886e-38
0.0072174207 0.049817808 1.0039999 2.3509886e-38
0.010535343 0.050045833 1.0015 2.3509886e-38
-0.033892639 0.054616332 1.0016 2.3509886e-38
-0.030806065 0.053690568 1.0039999 2.3509886e-38
0.0079215588 0.053690568 1.0039999 2.3509886e-38
0.010553532 0.054530632 1.00325 2.3509886e-38
0.014040693 0.05528523 1.001 2.3509886e-38
-0.037185278 0.05826911 1.0020001 2.3509886e-38
-0.034290817 0.057154279 1.003 2.3509886e-38
0.01085547 0.057798043 1.0039999 2.3509886e-38
0.014040694 0.057917859 1.001 2.3509886e-38
-0.041244537 0.062305581 1.001 2.3509886e-38
-0.038981568 0.061258249 1.003 2.3509886e-38
0.014061732 0.061521392 1.0025001 2.3509886e-38
0.016673323 0.062305581 1.001 2.3509886e-38
-0.048409529 0.067773342 1.0039999 2.3509886e-38
-0.044888835 0.067773342 1.0039999 2.3509886e-38
-0.042184763 0.065916128 1.0024999 2.3509886e-38
0.014376163 0.064839438 1.0039999 2.3509886e-38
0.017559197 0.065849498 1.0015 2.3509886e-38
0.020183496 0.067570835 1.001 2.3509886e-38
-0.045475617 0.070707254 1.0039999 2.3509886e-38
-0.04312849 0.070413858 1.0039999 2.3509886e-38
0.017575853 0.070308663 1.0025001 2.3509886e-38
0.020183496 0.070203468 1.001 2.3509886e-38
-0.044888835 0.073054381 1.0039999 2.3509886e-38
-0.04312849 0.073054381 1.0039999 2.3509886e-38
0.017896857 0.073641166 1.0039999 2.3509886e-38
0.021948665 0.073750898 1.0015 2.3509886e-38
0.022329049 0.077187695 1.0028 2.0006452e-38
-0.038611908 0.11495818 1.001 1.8341874e-38
-0.038641494 0.11767957 1.00175 1.8158575e-38
-0.038699351 0.12137383 1.00325 1.742208e-38
-0.034575209 0.12232955 1.001 1.5119356e-38
0.011408064 0.12373361 1.001 1.567144e-38
0.013163149 0.12197852 1.001 9.7687739e-39
-0.036967278 0.12410443 1.0039999 1.6594488e-38
-0.033088323 0.1261991 1.0020001 1.5116877e-38
-0.030714015 0.12636624 1.001 1.5303034e-38
0.0070203468 0.12724379 1.001 1.6868546e-38
0.0105463 0.1265569 1.0025001 1.5023887e-38
0.013202599 0.12586477 1.0039999 6.6348175e-39
-0.03256641 0.12938547 1.0039999 1.7235538e-38
-0.030159671 0.13029955 1.0020001 1.4752377e-38
-0.021353556 0.13016891 1.0010002 1.3459126e-38
0.0026326301 0.13075395 1.001 1.6224616e-38
0.0061428039 0.1295839 1.0010002 1.6684875e-38
-0.029045718 0.13378634 1.0039999 1.6591606e-38
-0.026346682 0.13348718 1.00175 1.6133509e-38
-0.021949541 0.13345365 1.0015 1.5395227e-38
-0.017550867 0.13426413 1.001 1.5488147e-38
-0.014918236 0.13426413 1.001 1.6225359e-38
-0.0052652601 0.13426413 1.001 1.6133867e-38
-0.0014660789 0.13394736 1.003 1.650157e-38
0.0017590316 0.1327076 1.0025001 1.6408298e-38
-0.026405197 0.13642685 1.0039999 1.7235876e-38
-0.021652263 0.13713101 1.0039999 1.622389e-38
-0.017577168 0.13710321 1.0025001 1.6040231e-38
-0.014061732 0.13710321 1.0025001 1.5855842e-38
-0.0105463 0.13710321 1.0024999 1.5947673e-38
-0.0061533228 0.136291 1.003 1.5947687e-38
-0.017656066 0.043257359 1.007 2.3509886e-38
-0.014124852 0.043257359 1.007 2.3509886e-38
-0.011476442 0.043257359 1.007 2.3509886e-38
-0.020304475 0.046788573 1.007 2.3509886e-38
-0.017656066 0.045022968 1.007 2.3509886e-38
-0.014124852 0.045022968 1.007 2.3509886e-38
-0.010299372 0.045611501 1.007 2.3509886e-38
-0.0065327445 0.046082329 1.007 2.3509886e-38
-0.0017656065 0.046788573 1.007 2.3509886e-38
0.0017656065 0.046788573 1.007 2.3509886e-38
-0.00088280329 0.048554178 1.007 2.3509886e-38
0.0017656065 0.048554178 1.007 2.3509886e-38
0.0044140164 0.049436983 1.007 2.3509886e-38
-0.030015312 0.054733805 1.007 2.3509886e-38
-0.026778366 0.052673928 1.007 2.3509886e-38
-0.023835689 0.052085392 1.007 2.3509886e-38
0.0061796228 0.053851005 1.007 2.3509886e-38
-0.033546522 0.059147816 1.007 2.3509886e-38
-0.030898115 0.057382215 1.007 2.3509886e-38
0.0079452293 0.057382215 1.007 2.3509886e-38
0.0097108362 0.059147816 1.007 2.3509886e-38
-0.036783472 0.062090497 1.007 2.3509886e-38
-0.033546522 0.060913429 1.007 2.3509886e-38
0.011476442 0.061796229 1.007 2.3509886e-38
-0.039726146 0.065327436 1.007 2.3509886e-38
0.011476442 0.064444639 1.007 2.3509886e-38
0.013242049 0.06621024 1.007 2.3509886e-38
-0.041491754 0.070624262 1.007 2.3509886e-38
-0.045022968 0.075038284 1.007 2.3509886e-38
-0.042374559 0.07415548 1.007 2.3509886e-38
0.016773263 0.075038284 1.007 2.3509886e-38
0.017950334 0.077392414 1.007 2.3509886e-38
0.020304475 0.078569494 1.007 2.3509886e-38
-0.036194935 0.12624086 1.007 1.8157109e-38
-0.036194935 0.12800647 1.007 1.732844e-38
-0.03384079 0.1297721 1.007 1.6775286e-38
0.0070624258 0.13153769 1.007 1.631754e-38
0.0097108362 0.12977208 1.007 1.253464e-38
-0.030898115 0.13330328 1.007 1.6040242e-38
0.0017656065 0.13506891 1.007 1.6409024e-38
0.0044140164 0.13330328 1.007 1.7052932e-38
-0.029132508 0.1368345 1.007 1.6680159e-38
-0.026484098 0.13860011 1.007 1.6128822e-38
-0.023835689 0.13860011 1.007 1.5855108e-38
-0.0070624258 0.13860011 1.007 1.6499772e-38
-0.0017656065 0.1368345 1.007 1.6131361e-38
-0.017708667 0.046927962 1.01 2.3509886e-38
-0.014166933 0.046927962 1.01 2.3509886e-38
-0.011510633 0.046927962 1.01 2.3509886e-38
-0.021250401 0.049584262 1.01 2.3509886e-38
-0.010625199 0.048698831 1.01 2.3509886e-38
-0.0061980332 0.049584266 1.0100001 2.3509886e-38
-0.0020660111 0.049879409 1.01 2.3509886e-38
0.0017708666 0.050469697 1.01 2.3509886e-38
-0.029219298 0.055782299 1.01 2.3509886e-38
-0.026267854 0.055192009 1.01 2.3509886e-38
-0.023021266 0.054011434 1.01 2.3509886e-38
-0.0017708666 0.052240565 1.01 2.3509886e-38
0.0020660111 0.052830856 1.01 2.3509886e-38
0.0044271667 0.054896865 1.01 2.3509886e-38
-0.029809587 0.058733743 1.01 2.3509886e-38
-0.027448433 0.057553165 1.01 2.3509886e-38
0.0070834663 0.058438599 1.01 2.3509886e-38
-0.033646464 0.062865764 1.01 2.3509886e-38
-0.030990165 0.061094899 1.01 2.3509886e-38
0.0097397659 0.061094899 1.01 2.3509886e-38
-0.037188198 0.06552206 1.01 2.3509886e-38
-0.033646464 0.064636625 1.01 2.3509886e-38
0.011510633 0.066407494 1.01 2.3509886e-38
-0.039844498 0.069949232 1.01 2.3509886e-38
0.015052366 0.069949232 1.01 2.3509886e-38
-0.041615367 0.075261831 1.01 2.3509886e-38
-0.039844498 0.073490962 1.01 2.3509886e-38
-0.045157097 0.0770327 1.01 2.3509886e-38
-0.042500798 0.0770327 1.01 2.3509886e-38
0.016823232 0.078803562 1.01 2.3509886e-38
0.017708667 0.080574423 1.01 2.3509886e-38
0.022135835 0.080574423 1.01 1.5304102e-38
-0.038959064 0.12573153 1.01 1.7971981e-38
-0.036302764 0.13015869 1.01 1.760319e-38
-0.03276103 0.13370042 1.01 1.7234424e-38
-0.030990165 0.1354713 1.01 1.6866746e-38
0.0061980328 0.13370042 1.01 1.4655846e-38
-0.029219298 0.13901302 1.01 1.5018489e-38
-0.0044271667 0.13901302 1.01 1.6038447e-38
-0.0017708666 0.13901302 1.01 1.5945894e-38
0.00088543328 0.13724217 1.01 1.6131343e-38
-0.014166933 0.14078389 1.01 1.5578875e-38
-0.010625199 0.14078389 1.01 1.5855815e-38
-0.020425456 0.05061961 1.013 2.3509886e-38
-0.017761268 0.049731545 1.013 2.3509886e-38
-0.014209013 0.049731545 1.013 2.3509886e-38
-0.010656759 0.05061961 1.013 2.3509886e-38
-0.021017497 0.05417186 1.013 2.3509886e-38
-0.0097686956 0.052395735 1.013 2.3509886e-38
-0.0059944275 0.053949844 1.013 2.3509886e-38
-0.0017761266 0.055059925 1.013 2.3509886e-38
0.0014801056 0.055355947 1.013 2.3509886e-38
-0.026345879 0.058908202 1.013 2.3509886e-38
-0.023385666 0.058316156 1.013 2.3509886e-38
0.0020721478 0.058316156 1.013 2.3509886e-38
0.0050323587 0.058908202 1.013 2.3509886e-38
-0.029898133 0.062460452 1.013 2.3509886e-38
-0.0266419 0.061276369 1.013 2.3509886e-38
0.0074005276 0.061868411 1.013 2.3509886e-38
0.0097686956 0.063052498 1.013 2.3509886e-38
-0.033746406 0.066604748 1.013 2.3509886e-38
-0.031082217 0.064828619 1.013 2.3509886e-38
0.0097686956 0.064828619 1.013 2.3509886e-38
-0.037298664 0.070156999 1.013 2.3509886e-38
-0.034042429 0.068972915 1.013 2.3509886e-38
0.011544824 0.06838087 1.013 2.3509886e-38
0.013320949 0.069268934 1.013 2.3509886e-38
-0.039074786 0.074597321 1.013 2.3509886e-38
0.015097077 0.074597321 1.013 2.3509886e-38
-0.042627037 0.079037629 1.013 2.3509886e-38
-0.039962847 0.078149572 1.013 2.3509886e-38
0.015097077 0.077261508 1.013 2.3509886e-38
-0.041738976 0.080813758 1.013 2.3509886e-38
0.017761268 0.082589887 1.013 2.3509886e-38
0.020425456 0.082589887 1.013 1.7609365e-38
0.017761268 0.084366016 1.013 1.7146937e-38
0.020425456 0.084366016 1.013 1.3644561e-38
-0.038186725 0.12876917 1.013 1.6129897e-38
0.011544824 0.1305453 1.013 1.0598843e-38
-0.033746406 0.13409755 1.013 1.6774536e-38
0.0062164431 0.13498563 1.013 1.4287785e-38
0.010360738 0.13291347 1.013 7.1890703e-39
-0.031082217 0.1376498 1.013 1.4375627e-38
0.0020721478 0.1388339 1.013 1.3457679e-38
-0.0266419 0.14120206 1.013 1.0502038e-38
-0.02255681 0.14191251 1.013 1.3914686e-38
-0.017761268 0.14120206 1.013 1.5670349e-38
-0.014209013 0.14297819 1.013 1.4747328e-38
-0.011544824 0.14297819 1.013 1.5024272e-38
-0.0062164436 0.14120206 1.013 1.4750191e-38
-0.0017761267 0.14120206 1.013 9.6795e-39
-0.017813867 0.053441599 1.016 2.3509886e-38
-0.014251093 0.053441599 1.016 2.3509886e-38
-0.010985218 0.053738497 1.016 2.3509886e-38
-0.021079741 0.057895064 1.016 2.3509886e-38
-0.01782636 0.057047106 1.0167501 2.3509886e-38
-0.014272134 0.057089847 1.0175 2.3509886e-38
-0.009555541 0.057460118 1.0172858 2.3509886e-38
-0.0053520501 0.058873862 1.0175 2.3509886e-38
-0.0017840166 0.058873862 1.0175 2.3509886e-38
0.00089069334 0.05967645 1.016 2.3509886e-38
-0.025402512 0.062840559 1.0167501 2.3509886e-38
-0.022333084 0.062532634 1.0190001 2.3509886e-38
-0.0017866467 0.061639313 1.0190001 2.3509886e-38
0.0017827016 0.062440582 1.0175 2.3509886e-38
0.0050472622 0.062645435 1.016 2.3509886e-38
-0.029986676 0.066208206 1.016 2.3509886e-38
-0.026263705 0.06592726 1.0190001 2.3509886e-38
0.0026799701 0.0652126 1.0190001 2.3509886e-38
0.005350735 0.06600862 1.0175 2.3509886e-38
0.0086100362 0.066208206 1.016 2.3509886e-38
-0.032955654 0.070364773 1.016 2.3509886e-38
-0.030328285 0.06957797 1.0175 2.3509886e-38
-0.027693022 0.068785898 1.0190001 2.3509886e-38
0.0062532634 0.069679223 1.0190001 2.3509886e-38
0.0094508175 0.069734275 1.0172001 2.3509886e-38
-0.037148163 0.075189665 1.0170001 2.3509886e-38
-0.03410444 0.073745906 1.0184001 2.3509886e-38
-0.031266317 0.072359189 1.0190001 2.3509886e-38
0.0062532634 0.072359189 1.0190001 2.3509886e-38
0.010037066 0.073840648 1.0178751 2.3509886e-38
0.0133604 0.073927552 1.016 2.3509886e-38
-0.037491307 0.078555249 1.01825 2.3509886e-38
0.011613203 0.078612447 1.0190001 2.3509886e-38
0.013954195 0.078677915 1.016 2.3509886e-38
-0.040081199 0.081943788 1.016 2.3509886e-38
-0.03829981 0.081943788 1.016 2.3509886e-38
0.014270818 0.082064763 1.0175 2.3509886e-38
0.011613203 0.086652361 1.0190001 2.3509886e-38
0.013967345 0.08529295 1.0170001 2.3509886e-38
0.011613203 0.08843901 1.0190001 1.7422453e-38
-0.040081199 0.12736915 1.016 1.4377085e-38
-0.036518428 0.1327133 1.016 1.732477e-38
-0.034737039 0.13449469 1.016 1.603624e-38
-0.032955654 0.13805747 1.016 1.1610414e-38
-0.031174267 0.13983886 1.016 1.0685653e-38
0.0053441599 0.13805747 1.016 8.7578674e-39
0.0086275693 0.13713989 1.0180001 6.4525983e-39
-0.020606924 0.061820772 1.0220001 2.3509886e-38
-0.017919065 0.060924821 1.022 2.3509886e-38
-0.014335252 0.060924821 1.022 2.3509886e-38
-0.0098554865 0.060626172 1.0220001 2.3509886e-38
-0.0053757196 0.062716722 1.022 2.3509886e-38
-0.0017919065 0.063612677 1.022 2.3509886e-38
-0.024190737 0.067196488 1.022 2.3509886e-38
-0.022398831 0.066300541 1.022 2.3509886e-38
-0.00089595327 0.065404586 1.022 2.3509886e-38
0.0014932555 0.06659919 1.0220001 2.3509886e-38
-0.025624264 0.070063554 1.022 2.3509886e-38
-0.022398831 0.068988405 1.022 2.3509886e-38
0.0026878598 0.06988436 1.022 2.3509886e-38
0.0044797664 0.06988436 1.022 2.3509886e-38
-0.030163761 0.07376682 1.0220001 2.3509886e-38
-0.026878599 0.072572216 1.022 2.3509886e-38
0.0053757196 0.073468164 1.022 2.3509886e-38
-0.034046225 0.07794793 1.022 2.3509886e-38
-0.031358361 0.076156028 1.022 2.3509886e-38
0.0062716729 0.076156028 1.022 2.3509886e-38
0.0089595327 0.07794793 1.022 2.3509886e-38
-0.036734082 0.082427703 1.022 2.3509886e-38
-0.034942176 0.082427703 1.022 2.3509886e-38
0.011647392 0.082427703 1.022 2.3509886e-38
-0.036734082 0.085115559 1.022 2.3509886e-38
0.011647392 0.085115559 1.022 2.3509886e-38
-0.040317897 0.12991321 1.022 1.2902659e-38
-0.038525991 0.13170514 1.022 1.382317e-38
-0.037630036 0.13439299 1.022 1.1977786e-38
0.011647392 0.13528894 1.022 5.8072261e-39
-0.017971667 0.063799419 1.025 2.3509886e-38
-0.014377332 0.063799419 1.025 2.3509886e-38
-0.01024385 0.063080549 1.025 2.3509886e-38
-0.020667415 0.066495165 1.025 2.3509886e-38
-0.017985474 0.066544473 1.02575 2.3509886e-38
-0.014387195 0.066544473 1.02575 2.3509886e-38
-0.0099094016 0.066657782 1.0275 2.3509886e-38
-0.0053961026 0.066544473 1.02575 2.3509886e-38
-0.0020966944 0.066794693 1.025 2.3509886e-38
-0.021286635 0.070458286 1.026 2.3509886e-38
-0.018024266 0.070294634 1.028 2.3509886e-38
-0.014719817 0.069994234 1.0280001 2.3509886e-38
-0.0099133467 0.070294634 1.028 2.3509886e-38
-0.0054072798 0.070294634 1.028 2.3509886e-38
-0.0017971665 0.070089497 1.025 2.3509886e-38
0.00089858327 0.070089497 1.025 2.3509886e-38
-0.025609624 0.07413312 1.025 2.3509886e-38
-0.021907605 0.073528081 1.027 2.3509886e-38
-0.018024266 0.072998278 1.028 2.3509886e-38
-0.015320626 0.072998278 1.028 2.3509886e-38
-0.00811092 0.072998278 1.028 2.3509886e-38
-0.0054072798 0.072998278 1.028 2.3509886e-38
-0.0018024265 0.073899493 1.028 2.3509886e-38
0.0017971664 0.073683828 1.025 2.3509886e-38
0.0044929166 0.074582413 1.025 2.3509886e-38
-0.033247583 0.079973914 1.025 2.3509886e-38
-0.030551832 0.078176744 1.025 2.3509886e-38
-0.026095297 0.077391692 1.0265 2.3509886e-38
-0.022530332 0.07660313 1.028 2.3509886e-38
-0.00090121327 0.07660313 1.028 2.3509886e-38
0.001800454 0.077448457 1.0272501 2.3509886e-38
0.0053915 0.078176744 1.025 2.3509886e-38
0.0080872495 0.079973914 1.025 2.3509886e-38
-0.033247583 0.08266966 1.025 2.3509886e-38
-0.030641252 0.081109196 1.028 2.3509886e-38
0.0054072798 0.082010403 1.028 2.3509886e-38
0.00899175 0.082730807 1.02575 2.3509886e-38
-0.034512322 0.086132787 1.027 2.3509886e-38
0.0063084932 0.085615262 1.028 2.3509886e-38
0.0089976676 0.086390242 1.0265 2.3509886e-38
0.0089976676 0.08908993 1.0265 2.1665623e-38
-0.013557649 0.071403623 1.031 2.3509886e-38
-0.020788398 0.075018995 1.031 2.3509886e-38
-0.018076867 0.075018995 1.031 2.3509886e-38
-0.014160211 0.074416429 1.031 2.3509886e-38
-0.010303813 0.074295923 1.031 2.3509886e-38
-0.0054230597 0.075018995 1.031 2.3509886e-38
-0.021692239 0.077730522 1.031 2.3509886e-38
-0.0018076866 0.077730522 1.031 2.3509886e-38
-0.028922986 0.081345901 1.031 2.3509886e-38
-0.026211455 0.080442056 1.031 2.3509886e-38
0.0021089679 0.081044614 1.031 2.3509886e-38
-0.033442203 0.0876728 1.031 2.3509886e-38
-0.031634513 0.084057428 1.031 2.3509886e-38
0.0051217787 0.08586511 1.031 2.3509886e-38
0.0063269031 0.089480489 1.031 2.3509886e-38
-0.020848887 0.078863174 1.034 2.3509886e-38
-0.018129466 0.077050239 1.034 2.3509886e-38
-0.014503574 0.077050239 1.034 2.3509886e-38
-0.0095179696 0.077503473 1.034 2.3509886e-38
-0.0063453135 0.077956706 1.034 2.3509886e-38
-0.00271942 0.078863174 1.034 2.3509886e-38
-0.028100673 0.082489073 1.034 2.3509886e-38
-0.025079094 0.081884757 1.0340002 2.3509886e-38
-0.022661833 0.080676123 1.034 2.3509886e-38
-0.00090647332 0.080676123 1.034 2.3509886e-38
0.00090647332 0.082489073 1.034 2.3509886e-38
-0.029913623 0.085812807 1.034 2.3509886e-38
-0.026287727 0.084302016 1.034 2.3509886e-38
0.00271942 0.08520849 1.034 2.3509886e-38
0.0045323665 0.087927915 1.034 2.3509886e-38
-0.033539515 0.089740857 1.034 2.3498657e-38
0.0045323665 0.089740857 1.034 2.3509886e-38
-0.0181996 0.079168253 1.038 2.3509886e-38
-0.014559679 0.079168253 1.038 2.3509886e-38
-0.010919759 0.079168253 1.038 2.3509886e-38
-0.0045499001 0.078258276 1.038 2.3509886e-38
-0.021839518 0.081898198 1.038 2.3509886e-38
-0.0181996 0.080988213 1.038 2.3509886e-38
-0.014256353 0.081594869 1.038 2.3509886e-38
-0.01046477 0.081443205 1.038 2.3509886e-38
-0.0051565534 0.081594869 1.038 2.3509886e-38
-0.0021232865 0.082201526 1.038 2.3509886e-38
-0.025176112 0.085841447 1.038 2.3509886e-38
-0.022749498 0.085538119 1.038 2.3509886e-38
-0.00090997992 0.085538119 1.038 2.3509886e-38
0.00090997992 0.085538119 1.038 2.3509886e-38
-0.033669256 0.091907971 1.038 1.4008223e-38
-0.029801846 0.090315506 1.038 2.3047466e-38
-0.025479438 0.089178041 1.038 2.3509886e-38
-0.022749498 0.088268057 1.038 2.3509886e-38
0.0022749498 0.089633018 1.038 2.3509886e-38
-0.020990029 0.083047509 1.041 2.3509886e-38
-0.0182522 0.083047509 1.041 2.3509886e-38
-0.01551437 0.083047509 1.041 2.3509886e-38
-0.0091261007 0.083047509 1.041 2.3509886e-38
-0.0063882698 0.083047509 1.041 2.3509886e-38
-0.020990029 0.085785344 1.041 2.3509886e-38
-0.0182522 0.085785337 1.041 2.3509886e-38
-0.01460176 0.085785344 1.041 2.3509886e-38
-0.01003871 0.085785344 1.041 2.3509886e-38
-0.0054756599 0.085785337 1.041 2.3509886e-38
-0.0027378299 0.085785344 1.041 2.3509886e-38
-0.021902639 0.089435771 1.041 2.3509886e-38
-0.01916481 0.088523164 1.041 2.3509886e-38
-0.0054756599 0.088523164 1.041 2.3509886e-38
-0.00182522 0.089435771 1.041 2.3509886e-38
0.00091260998 0.090348385 1.041 2.3509886e-38
-0.025370557 0.093633786 1.041 1.6501579e-38
-0.022815248 0.093998834 1.0410001 1.7977072e-38
-0.00182522 0.09308622 1.041 2.0467108e-38
0.0015210167 0.093390428 1.0410001 1.6502674e-38
-0.02105052 0.090608761 1.044 2.3509886e-38
-0.018034788 0.090172186 1.046 2.3509886e-38
-0.01464384 0.089693524 1.044 2.3509886e-38
-0.010082105 0.089823708 1.0455 2.3509886e-38
-0.0054914402 0.090608761 1.044 2.3509886e-38
-0.02105052 0.093354478 1.044 2.2310241e-38
-0.018663358 0.093928695 1.0470002 2.3509511e-38
-0.01468592 0.09270487 1.0470001 2.3509886e-38
-0.0097294217 0.093439162 1.0470001 2.3509886e-38
-0.0054914402 0.093354478 1.044 2.3232937e-38
-0.02105052 0.096100196 1.044 1.3730919e-38
-0.0183574 0.096376352 1.0470001 1.6680143e-38
-0.017489498 0.09297049 1.05 2.3509886e-38
-0.014727999 0.094811492 1.05 2.3509886e-38
-0.011966499 0.094811492 1.05 2.3509886e-38
