# .PCD v0.7 - Point Cloud Data file format
VERSION 0.7
FIELDS x y z rgb
SIZE 4 4 4 4
TYPE F F F F
COUNT 1 1 1 1
WIDTH 826
HEIGHT 1
VIEWPOINT 0 0 0 1 0 0 0
POINTS 826
DATA ascii
-0.16120586 0.083496362 0.94300002 7.3673715e-39
-0.15955245 0.083496362 0.94300002 9.5800666e-39
-0.16120586 0.085149758 0.94300002 6.4284847e-40
-0.15955245 0.085149758 0.94300002 1.0101905e-39
-0.13781375 0.074717417 0.94700003 5.7124801e-39
-0.17286465 0.078952596 0.94800001 9.2119778e-39
-0.17037138 0.078952596 0.94800001 8.1989497e-39
-0.14098552 0.078786023 0.94599998 1.0686083e-38
-0.13781375 0.078039989 0.94700003 8.9289617e-39
-0.1724491 0.081861377 0.94800001 5.6142098e-39
-0.16954033 0.082276918 0.94800007 5.7049649e-39
-0.166216 0.082276925 0.94800007 6.8113027e-39
-0.16195567 0.08162944 0.9460001 8.2904026e-39
-0.15773891 0.082188964 0.94700003 8.8464448e-39
-0.15382133 0.082801513 0.94640011 1.0321212e-38
-0.14981794 0.082801454 0.94766665 8.3847815e-39
-0.14627008 0.082276918 0.94800007 6.4443488e-39
-0.14201532 0.081943199 0.94733334 4.3263591e-39
-0.13879037 0.080614761 0.94800001 2.9484623e-39
-0.16926329 0.086155295 0.94800007 1.8367099e-39
-0.166216 0.086432323 0.94800001 1.6530389e-39
-0.16213337 0.086664632 0.94599998 6.4284847e-40
-0.15765578 0.086295992 0.94650006 4.5917748e-40
-0.15388621 0.086489476 0.94680005 9.1835496e-41
-0.15002887 0.086229987 0.94760001 1.8367099e-40
-0.14627008 0.086432315 0.94800001 1.1945789e-39
-0.14377683 0.08560124 0.94800001 1.838505e-39
-0.16538492 0.088925563 0.94800001 1.3775324e-39
-0.16159211 0.089515388 0.9472 1.4693679e-39
-0.15782234 0.089709736 0.94749999 1.4700854e-39
-0.15369517 0.089725375 0.94766665 1.5640733e-39
-0.1495944 0.089756645 0.94800001 1.5633558e-39
-0.14710116 0.089756638 0.94800001 1.7466681e-39
-0.16039844 0.092249878 0.94800001 1.4693749e-39
-0.15790519 0.092249878 0.94800001 1.4697267e-39
-0.15374981 0.092249885 0.94800007 1.6541179e-39
-0.15042546 0.092249878 0.94800001 1.6534075e-39
-0.13589473 0.075033896 0.95099998 9.6639974e-39
-0.18091506 0.078368738 0.95099998 3.1288725e-39
-0.17924763 0.078368738 0.95099998 5.7063844e-39
-0.1759128 0.079202451 0.95099998 7.7357238e-39
-0.14423183 0.079202451 0.95099998 1.2716768e-38
-0.17535698 0.08198148 0.95099998 3.6788233e-39
-0.14423183 0.080869861 0.95099998 1.3078796e-38
-0.13811795 0.08198148 0.95099998 1.2860557e-39
-0.1739119 0.085538641 0.95100003 2.0225417e-39
-0.17091054 0.087539546 0.95099998 1.5619209e-39
-0.14423183 0.087539546 0.95099998 1.8388623e-39
-0.1417307 0.085872129 0.95100009 1.6551927e-39
-0.13922957 0.085038409 0.95099998 2.2072805e-39
-0.16924311 0.089206964 0.95099998 1.6544739e-39
-0.16632515 0.090457529 0.95099998 1.2864144e-39
-0.14506555 0.090040669 0.95099998 1.4718791e-39
-0.16424087 0.092541806 0.95099998 1.3775324e-39
-0.16173974 0.093375519 0.95099998 1.4697281e-39
-0.15840489 0.094209224 0.95099998 2.0203809e-39
-0.15423635 0.094209224 0.95099998 2.2040519e-39
-0.15006778 0.093375519 0.95099998 1.9292629e-39
-0.14756666 0.092541806 0.95099998 1.6544739e-39
-0.1366092 0.071237922 0.95599997 0
-0.13493302 0.071237922 0.95599997 0
-0.18521862 0.074590303 0.95599997 3.226131e-39
-0.18354243 0.074590303 0.95599997 7.0853294e-39
-0.13715975 0.07276158 0.954 1.9303391e-39
-0.13402435 0.073713198 0.95550001 1.2063585e-38
-0.18857099 0.07878077 0.95599997 1.2163314e-38
-0.18579721 0.077832803 0.95466661 7.1872794e-39
-0.18293138 0.077441216 0.95499992 3.9564695e-39
-0.1781404 0.079452291 0.954 5.9818741e-39
-0.13632341 0.078615949 0.954 5.1568428e-39
-0.13395378 0.077861145 0.95499992 2.3906082e-39
-0.18857099 0.082133144 0.95599997 1.1702353e-38
-0.18595983 0.082090624 0.95550001 8.7553268e-39
-0.18204859 0.082232736 0.9551999 2.5750008e-39
-0.17869797 0.08168254 0.954 2.0214697e-39
-0.13632341 0.081961319 0.954 1.3793289e-39
-0.13402435 0.082090631 0.95550001 2.0236207e-39
-0.18857099 0.084647425 0.95599997 1.0965872e-38
-0.1860567 0.085485518 0.95599997 9.4932632e-39
-0.18186626 0.085485518 0.95599997 2.9473763e-39
-0.17769472 0.08658731 0.9551999 2.4828038e-39
-0.17479505 0.087815695 0.954 2.6650413e-39
-0.13755901 0.086408272 0.95428574 2.2087182e-39
-0.13437429 0.085206151 0.95600003 1.7499009e-39
-0.17683768 0.089675985 0.95599997 2.2065813e-39
-0.17423266 0.090467177 0.95550001 2.114743e-39
-0.17089212 0.090603493 0.954 1.1949433e-39
-0.14225186 0.090372503 0.95449996 1.5648062e-39
-0.13912348 0.090514079 0.95599997 2.2072875e-39
-0.17348531 0.093028352 0.95599997 2.759755e-39
-0.16965602 0.093620978 0.9551999 1.3786128e-39
-0.16610554 0.094080947 0.95533335 1.3775324e-39
-0.16342819 0.094704546 0.95599997 1.4697267e-39
-0.14902368 0.094605483 0.95499998 1.6544739e-39
-0.14575154 0.093817793 0.95550001 1.6544739e-39
-0.16594246 0.096380726 0.95599997 1.2856969e-39
-0.161752 0.096380733 0.95600003 1.3775324e-39
-0.15739672 0.097118005 0.95499998 1.3775324e-39
-0.15404698 0.096279912 0.95499998 1.5622796e-39
-0.15001869 0.096380733 0.95600003 1.4700854e-39
-0.14666632 0.096380726 0.95599997 1.6544739e-39
-0.13367501 0.071461476 0.95899999 8.2789386e-39
-0.13115284 0.071461476 0.95899999 1.1694469e-38
-0.13031211 0.073983647 0.95900005 3.4926327e-39
-0.18916273 0.076505817 0.95899999 1.1520466e-38
-0.13079253 0.077947058 0.95900011 2.0214669e-39
-0.13199356 0.082390882 0.95899999 1.9317922e-39
-0.13367501 0.0865945 0.95899999 1.8424496e-39
-0.13199356 0.084913053 0.95899999 1.6573507e-39
-0.18075551 0.088275947 0.95899999 1.3778912e-39
-0.17851359 0.091078363 0.95899999 2.3909599e-39
-0.1370379 0.090798117 0.95899999 2.5757155e-39
-0.13535646 0.08911667 0.95899999 2.4835213e-39
-0.17739262 0.09332028 0.95899999 2.9423344e-39
-0.17402974 0.09444125 0.95899999 2.2062169e-39
-0.14241852 0.093992859 0.95900005 1.9303405e-39
-0.13787863 0.09332028 0.95899999 2.6668209e-39
-0.173189 0.096683174 0.95899999 2.1143688e-39
-0.16982611 0.097523898 0.95899999 1.4697267e-39
-0.16646321 0.098364621 0.95899999 1.3775324e-39
-0.16225961 0.098364621 0.95899999 1.2856969e-39
-0.15385237 0.098364621 0.95899999 1.5619209e-39
-0.14964874 0.098364621 0.95899999 1.6541151e-39
-0.14600562 0.097804144 0.95899999 1.5615664e-39
-0.14376368 0.096683174 0.95899999 1.5612118e-39
-0.16225961 0.10004608 0.95899999 1.1938615e-39
-0.15805598 0.10004608 0.95899999 1.3775366e-39
-0.15385237 0.10004608 0.95899999 9.1907383e-40
-0.15048946 0.10004608 0.95899999 1.3775366e-39
-0.12423067 0.066763423 0.96399999 5.9804686e-39
-0.12254046 0.066763423 0.96399999 1.4093684e-38
-0.13606216 0.069298744 0.96399999 0
-0.13362387 0.069483429 0.96266669 4.4210742e-39
-0.12959529 0.07056056 0.96200007 5.7993297e-39
-0.12602726 0.070045665 0.96266669 3.124918e-39
-0.1230626 0.070393175 0.96280003 9.9441212e-39
-0.18891114 0.075058445 0.96200001 8.9408167e-39
-0.12650299 0.074215092 0.96200001 2.941275e-39
-0.12319314 0.074254103 0.96249998 7.8265098e-39
-0.12903306 0.07843186 0.96200001 2.7575844e-39
-0.12583265 0.077696048 0.96333331 3.402228e-39
-0.12254046 0.077749804 0.96399999 1.1145538e-38
-0.12958887 0.081891187 0.963 2.6657419e-39
-0.12654403 0.081265949 0.96359998 2.8494213e-39
-0.12169535 0.080285132 0.96399999 9.5800218e-39
-0.13268173 0.087045982 0.96399999 1.8424496e-39
-0.18507835 0.088736199 0.96399999 6.6380854e-39
-0.18216431 0.090238802 0.96200001 1.6569906e-39
-0.13414823 0.090275623 0.96240008 2.0268451e-39
-0.18212047 0.093806833 0.96399999 1.7484772e-39
-0.17794757 0.094736688 0.96200007 2.7583033e-39
-0.14084001 0.095298924 0.96200001 2.6643224e-39
-0.13830994 0.095298924 0.96200001 2.8505115e-39
-0.13427787 0.094023079 0.96333331 2.0246983e-39
-0.17706853 0.097683452 0.96333331 2.3913242e-39
-0.17373079 0.098672338 0.96200001 1.9314153e-39
-0.14421341 0.098672338 0.96200001 1.4697267e-39
-0.14183064 0.097931549 0.963 1.9292699e-39
-0.13803257 0.097823024 0.96359998 2.4828136e-39
-0.17409196 0.10056768 0.96399999 2.207998e-39
-0.17006283 0.10149836 0.96320003 1.3782499e-39
-0.16597405 0.10211764 0.96266663 1.4726021e-39
-0.16242938 0.10275059 0.96333331 1.4718889e-39
-0.15803495 0.10310301 0.96399993 1.8406686e-39
-0.15364985 0.10299693 0.963 1.7502554e-39
-0.14985125 0.10215271 0.963 1.6559228e-39
-0.14656405 0.10155483 0.96266669 1.8399469e-39
-0.14282303 0.10056768 0.96399999 2.6708048e-39
-0.13055143 0.063580252 0.96700001 6.5379654e-39
-0.13309465 0.066123456 0.96700001 1.1056259e-39
-0.1297037 0.066123456 0.96700001 1.0038862e-38
-0.12631276 0.06697119 0.96700001 2.2976811e-39
-0.13309465 0.068666667 0.96700001 7.2845296e-39
-0.1297037 0.068666667 0.96700001 9.1212437e-39
-0.13139917 0.083925925 0.96700001 2.0225361e-39
-0.12631276 0.082230456 0.96700001 2.3891606e-39
-0.13083401 0.086186558 0.96700001 2.2072805e-39
-0.18678463 0.090142667 0.96700001 9.3092265e-39
-0.13309465 0.090707824 0.96700001 1.6577025e-39
-0.18565433 0.094098769 0.96700001 9.4014389e-39
-0.18311112 0.095794246 0.96700001 1.6573619e-39
-0.13309465 0.095794246 0.96700001 4.1433957e-39
-0.18056791 0.097489715 0.96700001 1.1031204e-39
-0.17887244 0.099185184 0.96700001 2.2065813e-39
-0.13648559 0.099185184 0.96700001 3.9626002e-39
-0.13422498 0.098054871 0.96700001 5.3462493e-39
-0.17717695 0.10088066 0.96700001 2.667558e-39
-0.17463374 0.10257614 0.96700001 2.3898753e-39
-0.14496297 0.10257614 0.96700001 2.3020139e-39
-0.14157201 0.10088066 0.96700001 4.0561971e-39
-0.13902882 0.10088066 0.96700001 5.1632762e-39
-0.16954732 0.10427161 0.96700001 2.0264794e-39
-0.16587381 0.10653224 0.96700001 4.3364386e-39
-0.16191772 0.10624966 0.96700001 3.1357402e-39
-0.15796159 0.10653224 0.96700001 3.410511e-39
-0.15428807 0.10596708 0.96700001 3.1328535e-39
-0.15174486 0.10511935 0.96700001 3.0435348e-39
-0.12968092 0.062501952 0.97000003 7.0050686e-39
-0.12670463 0.063777499 0.97000003 3.4962271e-39
-0.13520831 0.067178965 0.97000003 0
-0.12585427 0.065478235 0.97000003 4.4167162e-39
-0.12330317 0.065478235 0.97000003 1.4003233e-38
-0.1250039 0.082485564 0.97000003 4.0468603e-39
-0.1224528 0.082485564 0.97000003 8.9339363e-39
-0.12897228 0.087020859 0.97000003 2.2062155e-39
-0.12670463 0.084186301 0.97000003 2.9416282e-39
-0.13123994 0.089855418 0.97000003 2.022892e-39
-0.18537992 0.097792163 0.97000003 7.096174e-39
-0.18197846 0.098642528 0.97000003 1.0109107e-39
-0.13350756 0.0994929 0.97000003 6.0841731e-39
-0.13180684 0.096941799 0.97000003 4.6108465e-39
-0.17857701 0.102044 0.97000003 2.8508717e-39
-0.14201123 0.10289437 0.97000003 4.0566077e-39
-0.13860977 0.10289437 0.97000003 4.2507226e-39
-0.17262442 0.1045951 0.97000003 1.1027434e-39
-0.16922295 0.10629583 0.97000003 1.7527707e-39
-0.16752224 0.10799656 0.97000003 4.7030309e-39
-0.16242003 0.10799656 0.97000003 4.4250371e-39
-0.15731783 0.10799656 0.97000003 4.7941728e-39
-0.15391637 0.10799657 0.97000003 4.5197565e-39
-0.14994799 0.10686275 0.97000003 4.2442388e-39
-0.14626306 0.1045951 0.97000003 4.8874264e-39
-0.16497114 0.1096973 0.97000003 3.8762045e-39
-0.16156965 0.1096973 0.97000003 4.5201096e-39
-0.1581682 0.1096973 0.97000003 4.5197509e-39
-0.12564825 0.058977749 0.97500002 1.1328852e-38
-0.12308399 0.058977749 0.97500002 1.4557524e-38
-0.12594676 0.06233187 0.97399998 6.5411715e-39
-0.12291567 0.062310249 0.97366667 1.2808319e-38
-0.1931735 0.067525245 0.97500002 1.0872601e-38
-0.1931735 0.069234744 0.97500002 1.032015e-38
-0.1262435 0.085299663 0.97299999 4.4153079e-39
-0.12393875 0.084620245 0.97500002 7.4566735e-39
-0.12954883 0.090827048 0.97433329 1.473712e-39
-0.12735775 0.088039249 0.97500002 6.263189e-39
-0.13235036 0.093926936 0.97399998 1.6595157e-39
-0.13077675 0.093167745 0.97500002 2.6722117e-39
-0.18510026 0.099800602 0.97299999 4.514702e-39
-0.18339427 0.099800602 0.97299999 3.6823952e-39
-0.1863355 0.1008605 0.97500002 8.7553408e-39
-0.18196838 0.10251784 0.97449994 1.6566375e-39
-0.14245044 0.10321259 0.97299999 3.5063108e-39
-0.13761476 0.10171524 0.97500002 5.8093785e-39
-0.17760652 0.10502642 0.97399998 2.7593753e-39
-0.17441545 0.10612898 0.97366667 1.7459506e-39
-0.17145231 0.10662458 0.97299999 1.4700854e-39
-0.14558497 0.10630767 0.97399998 4.153848e-39
-0.1418885 0.10513425 0.97500002 4.4304321e-39
-0.13932425 0.10513425 0.97500002 4.9839912e-39
-0.16997895 0.10904886 0.97433329 2.3048711e-39
-0.1656523 0.1118574 0.97399998 3.876908e-39
-0.16206935 0.11174256 0.97299999 4.0587811e-39
-0.1573779 0.11131606 0.97299999 3.9683876e-39
-0.15392834 0.11068062 0.97366667 3.9687435e-39
-0.14958124 0.10855325 0.97500002 3.8768982e-39
-0.14787175 0.10855325 0.97500002 3.8768982e-39
-0.1624025 0.11368175 0.97500002 3.6003211e-39
-0.15812874 0.11368176 0.97500008 3.7854354e-39
-0.12517747 0.055729698 0.97799999 1.2620317e-38
-0.19033834 0.058301836 0.97799999 9.1194416e-39
-0.18648013 0.058730528 0.97799999 2.6689691e-39
-0.12603486 0.058016043 0.97800004 1.1513987e-38
-0.12260534 0.057444457 0.97799999 1.3545905e-38
-0.19033834 0.061731357 0.97799999 8.1056274e-39
-0.18605146 0.061731361 0.97800004 2.7550649e-40
-0.13032176 0.060873974 0.97799999 8.3844003e-39
-0.12774962 0.060873974 0.97799999 7.7372302e-39
-0.19376788 0.066018254 0.97799999 1.1056996e-38
-0.19033836 0.066018254 0.97800004 7.3706085e-39
-0.18690883 0.066018254 0.97800004 1.0123527e-39
-0.19291049 0.071162537 0.97799999 8.5677126e-39
-0.19033834 0.070305154 0.97799999 8.1106847e-39
-0.18690883 0.069447778 0.97799999 2.8573443e-39
-0.19033834 0.073734671 0.97799999 7.4635216e-39
-0.12603484 0.086595379 0.97799999 4.3277898e-39
-0.12774962 0.090024889 0.97799999 6.0820445e-39
-0.13032176 0.094311789 0.97799999 4.5183005e-39
-0.18605146 0.10317139 0.97800004 7.0043413e-39
-0.136895 0.10317139 0.97800004 4.615894e-39
-0.18176454 0.10545773 0.97799999 1.1949433e-39
-0.17833504 0.1071725 0.97799999 2.1154478e-39
-0.14232507 0.1071725 0.97799999 4.430072e-39
-0.13889556 0.10631511 0.97799999 4.3389736e-39
-0.17404813 0.10945885 0.97800004 1.4711616e-39
-0.17061861 0.11060201 0.97799999 2.7765888e-40
-0.15004149 0.11060201 0.97800004 3.876901e-39
-0.14604038 0.10945885 0.97800004 3.9687491e-39
-0.14232507 0.10888726 0.97799999 4.337526e-39
-0.16976124 0.11231677 0.97799999 2.0297318e-39
-0.16604592 0.11460312 0.97800004 3.7836306e-39
-0.16204482 0.1157463 0.97800004 3.6006812e-39
-0.15861529 0.1157463 0.97799999 3.6939545e-39
-0.1540426 0.11345994 0.97800004 4.3364554e-39
-0.15004149 0.11231677 0.97800004 4.4275693e-39
-0.18834218 0.050740588 0.98100001 1.2622501e-38
-0.18576215 0.050740588 0.98100001 9.4874941e-39
-0.18259957 0.050818175 0.98250002 2.7550649e-40
-0.13112128 0.050033115 0.98400003 1.2619936e-38
-0.18957077 0.054426346 0.98100007 1.1333198e-38
-0.18576215 0.05418063 0.98100007 2.5767861e-39
-0.18241462 0.05420737 0.98150003 3.6734198e-40
-0.12973076 0.053735785 0.98185718 1.1698014e-38
-0.12584811 0.053607292 0.98100007 1.2254773e-38
-0.18576215 0.057620667 0.98100001 2.7550649e-40
-0.18259957 0.058570094 0.98250002 1.8367099e-40
-0.13063887 0.057745785 0.98314297 8.4747813e-39
-0.18318212 0.061920717 0.98100001 0
-0.19436225 0.064500742 0.98100001 1.0964443e-38
-0.18490216 0.066220775 0.98100007 0
-0.18374231 0.065560639 0.98400003 0
-0.18834218 0.071380831 0.98100001 8.2035585e-39
-0.18576215 0.070520818 0.98100001 0
-0.18891816 0.073324397 0.98400003 8.0202939e-39
-0.12508281 0.087126635 0.98400003 4.6962136e-39
-0.12642147 0.089441031 0.98100001 5.7157773e-39
-0.12871483 0.093741089 0.98100007 5.5317602e-39
-0.12680808 0.093165115 0.98400003 5.4438455e-39
-0.13092008 0.097329721 0.98250002 5.0707498e-39
-0.13502157 0.10234118 0.98100001 4.8899459e-39
-0.1860462 0.10680561 0.98250002 7.2809296e-39
-0.18232211 0.10750125 0.98100001 1.1945845e-39
-0.13745432 0.10703748 0.98200005 4.3385994e-39
-0.13522802 0.10508296 0.98250002 4.4304279e-39
-0.1854676 0.10955527 0.98400003 7.7426182e-39
-0.18201703 0.11013037 0.98400009 1.2889255e-39
-0.17815816 0.1101661 0.98175001 1.841735e-39
-0.17458203 0.11094129 0.98100001 1.6544739e-39
-0.14534168 0.11094129 0.98100001 4.0609405e-39
-0.14157881 0.11059611 0.98175001 4.3378791e-39
-0.13888505 0.10955527 0.98400003 4.5219173e-39
-0.1768412 0.11300584 0.98400003 2.0236095e-39
-0.17398766 0.11369622 0.98250002 1.3782499e-39
-0.17028198 0.11438133 0.98100001 2.2123224e-39
-0.15222177 0.11438133 0.98100001 4.5190474e-39
-0.14964172 0.11438133 0.98100001 4.6119465e-39
-0.14586245 0.11383324 0.98220009 4.520118e-39
-0.14222579 0.11335102 0.98325002 4.6140961e-39
-0.17339064 0.11645639 0.98400003 1.0101905e-39
-0.17042296 0.11769354 0.98280001 1.9357397e-39
-0.16622765 0.11831281 0.98100007 4.0594706e-39
-0.16168188 0.11868137 0.98100001 4.0609321e-39
-0.15806983 0.11816537 0.98100007 3.9687407e-39
-0.15427382 0.11769709 0.98175001 4.1524047e-39
-0.14987054 0.1171415 0.98250002 4.4293489e-39
-0.14578617 0.11645639 0.98400009 4.8881803e-39
-0.16907744 0.12163224 0.98400003 3.5012605e-39
-0.16512191 0.1212614 0.98100001 4.1509459e-39
-0.16217631 0.12163224 0.98400003 4.427907e-39
-0.15786313 0.12249488 0.98400009 3.2304456e-39
-0.1817067 0.047589846 0.98699999 1.1021058e-39
-0.17911087 0.047589846 0.98699999 0
-0.13325158 0.047589846 0.98699999 9.9384165e-39
-0.13065577 0.047589846 0.98699999 1.114518e-38
-0.18430251 0.049320389 0.98699999 5.9837154e-39
-0.18141828 0.049897235 0.98699999 2.2044106e-39
-0.17911087 0.050185658 0.98699999 0
-0.13498211 0.050185658 0.98699999 5.8893197e-39
-0.18084143 0.05364674 0.98699999 2.7550649e-40
-0.17911087 0.05364674 0.98699999 5.5101298e-40
-0.13498211 0.05364674 0.98699999 1.1938615e-39
-0.18084143 0.057973087 0.98699999 4.5917748e-40
-0.13498211 0.056242548 0.98699999 0
-0.18257196 0.062299438 0.98699999 0
-0.13411684 0.061434165 0.98699999 0
-0.18516777 0.070086867 0.98699999 0
-0.18949412 0.075278483 0.98699999 7.3673869e-39
-0.18776359 0.07441321 0.98699999 5.2508363e-39
-0.12546416 0.089988075 0.98699999 3.1342997e-39
-0.12546416 0.09344916 0.98699999 2.6779767e-39
-0.13238631 0.099506043 0.98699999 5.0714603e-39
-0.12892523 0.096044965 0.98699999 5.7161291e-39
-0.13411684 0.10210185 0.98699999 5.0725533e-39
-0.13411684 0.10556294 0.98699999 4.4289986e-39
-0.18516777 0.11161982 0.98699999 4.0566077e-39
-0.18257196 0.11161982 0.98699999 1.1045371e-39
-0.13815477 0.11104298 0.98699999 4.6141087e-39
-0.13584739 0.10815874 0.98699999 4.3382365e-39
-0.1782456 0.11421563 0.98699999 2.3001922e-39
-0.141039 0.1150809 0.98699999 5.0732764e-39
-0.13930847 0.11335036 0.98699999 5.1654734e-39
-0.17478453 0.11767671 0.98699999 8.2723693e-40
-0.14709589 0.11854198 0.98699999 4.7959874e-39
-0.14276955 0.11681144 0.98699999 4.7044953e-39
-0.17218871 0.12113778 0.98699999 1.3789702e-39
-0.16872764 0.1237336 0.98699999 2.854075e-39
-0.16613182 0.1237336 0.98699999 3.4093956e-39
-0.16267076 0.1237336 0.98699999 3.5963162e-39
-0.15401806 0.12200305 0.98699999 3.5995812e-39
-0.15055697 0.12027252 0.98699999 4.336412e-39
-0.14796115 0.12027252 0.98699999 3.5985064e-39
-0.15479828 0.035655785 0.99199998 6.4607706e-40
-0.17653961 0.039134398 0.99199998 2.1291822e-38
-0.17480031 0.039134398 0.99199998 1.9079126e-38
-0.16175552 0.038264744 0.99199998 1.3543749e-38
-0.15803888 0.038206887 0.99050003 1.2437775e-38
-0.15377171 0.038226172 0.99100006 1.1700202e-38
-0.14958036 0.038264744 0.99199998 1.0135005e-38
-0.14639163 0.038554631 0.99199998 1.3361482e-38
-0.17700623 0.041648023 0.98975003 1.9363273e-38
-0.1737985 0.041711144 0.99124998 1.1435174e-38
-0.17045203 0.04174336 0.99199998 7.8348461e-39
-0.16784307 0.04174336 0.99199998 5.251572e-39
-0.1582769 0.040873706 0.99199998 3.7652553e-39
-0.15358077 0.04156943 0.99200004 3.2163948e-39
-0.14958036 0.04174336 0.99199998 4.7847798e-39
-0.14610174 0.04174336 0.99199998 8.6544417e-39
-0.14262313 0.04174336 0.99199998 1.65804e-38
-0.17739688 0.04599281 0.9898572 1.6566403e-39
-0.17384255 0.046069272 0.99150008 5.6051939e-45
-0.17045204 0.046091624 0.99200004 9.1835496e-41
-0.16784307 0.045221969 0.99199998 0
-0.16088587 0.045221969 0.99199998 9.1835496e-41
-0.15914655 0.045221969 0.99199998 3.6734198e-40
-0.15392862 0.045221969 0.99200004 4.5917748e-40
-0.14940643 0.045743763 0.99200004 1.8367099e-40
-0.14610174 0.046091627 0.99200004 0
-0.14262314 0.046091624 0.99200004 1.102026e-39
-0.13790259 0.045967139 0.98933339 8.9216932e-39
-0.13438861 0.045952234 0.98900002 1.104326e-38
-0.1771397 0.050363623 0.99049997 9.1835496e-41
-0.17393064 0.05043989 0.99199998 3.6734198e-40
-0.17045204 0.05043989 0.99199998 3.6734198e-40
-0.14610174 0.05043989 0.99199998 2.7550649e-40
-0.14240879 0.050363619 0.99049997 9.1835496e-41
-0.13872373 0.050287351 0.98900002 5.5101298e-40
-0.12918648 0.051154375 0.98900002 1.2346248e-38
-0.12745243 0.051154375 0.98900002 1.1794889e-38
-0.1771397 0.053836975 0.99050003 9.1835496e-41
-0.17393064 0.053918503 0.99199998 0
-0.17132169 0.053048849 0.99199998 0
-0.1452321 0.053048849 0.99199998 0
-0.14262313 0.053918503 0.99199998 0
-0.13872373 0.053755447 0.98900002 0
-0.17821707 0.057669889 0.99028569 9.1835496e-41
-0.14059395 0.057107233 0.99199998 0
-0.13741809 0.057571284 0.99000001 0
-0.13438861 0.058957584 0.98900002 0
-0.18081133 0.062198918 0.99000001 0
-0.17827892 0.060006075 0.99199998 9.1835496e-41
-0.1371282 0.061619144 0.99000001 0
-0.18234973 0.065993711 0.99050003 0
-0.18467596 0.07022889 0.98900002 0
-0.18349685 0.068702608 0.99199998 0
-0.18620722 0.073846012 0.99100006 1.7506688e-39
-0.12436043 0.08696533 0.99199998 8.7517227e-39
-0.12262111 0.087834984 0.99199998 1.31771e-38
-0.12436043 0.089574285 0.99199998 7.1890535e-39
-0.12295192 0.09054973 0.99000001 1.0966563e-38
-0.12311731 0.093638524 0.98900002 9.5814763e-39
-0.13005349 0.098840654 0.98900002 5.7154074e-39
-0.12597173 0.09730386 0.99100006 4.9760235e-39
-0.13265456 0.10230875 0.98900002 4.9799975e-39
-0.13011521 0.10197317 0.99080002 4.9803633e-39
-0.12783904 0.10087979 0.99199998 5.5306658e-39
-0.13305695 0.1060977 0.99199998 4.3364428e-39
-0.13131765 0.1060977 0.99199998 4.6112206e-39
-0.13612267 0.11097898 0.98900002 4.4297202e-39
-0.13394473 0.10906552 0.99000001 4.4282643e-39
-0.18495604 0.11462197 0.99049997 1.2882179e-39
-0.18221363 0.11453453 0.98975003 1.5640747e-39
-0.17947383 0.1153141 0.98900002 2.2998335e-39
-0.13795993 0.11453321 0.98975003 5.3487927e-39
-0.13479626 0.11305492 0.99199998 5.1636377e-39
-0.18175754 0.11827284 0.99200004 1.4718805e-39
-0.17716178 0.11820418 0.98900002 1.7473856e-39
-0.1447929 0.11878219 0.98900002 4.520104e-39
-0.14114736 0.11823165 0.99020004 4.2417108e-39
-0.13827488 0.11827284 0.99199998 3.7767908e-39
-0.18001823 0.12088181 0.99199998 2.3923864e-39
-0.17694142 0.12133972 0.99100006 1.7488205e-39
-0.17369369 0.12225029 0.98900002 1.1960138e-39
-0.17080359 0.12398433 0.98900002 2.0232508e-39
-0.15346313 0.12398433 0.98900002 2.3974367e-39
-0.14999503 0.12311731 0.98900002 2.9499e-39
-0.14592116 0.12197764 0.9896 2.9495371e-39
-0.14201455 0.12150443 0.99140006 2.7629878e-39
-0.17653961 0.12436043 0.99199998 2.1150919e-39
-0.17393064 0.12609972 0.99199998 1.7466681e-39
-0.17019431 0.12677871 0.99049997 1.6533977e-39
-0.16624965 0.12699078 0.99080002 1.930702e-39
-0.1618849 0.12648933 0.9896 2.5782378e-39
-0.15791726 0.12668206 0.98975003 2.3016565e-39
-0.15408924 0.12699078 0.99080002 2.1161751e-39
-0.14982918 0.12656663 0.99019998 2.298051e-39
-0.14610174 0.12609972 0.99199998 2.2966063e-39
-0.14349279 0.12523007 0.99199998 2.3898795e-39
-0.16436447 0.12957834 0.99199998 1.4693679e-39
-0.16175552 0.12957834 0.99199998 1.5612034e-39
-0.15798703 0.13015811 0.99199998 1.4693679e-39
-0.15508817 0.13015811 0.99199998 1.5612034e-39
-0.17532894 0.035763618 0.995 0
-0.16137241 0.035763618 0.995 1.7502554e-39
-0.15875557 0.035763618 0.995 1.2921639e-39
-0.17358439 0.038380466 0.995 1.7419955e-38
-0.17009525 0.03838047 0.995 1.1702009e-38
-0.16573383 0.038380466 0.995 1.3540526e-38
-0.16573383 0.041869599 0.995 3.4955306e-39
-0.16224469 0.041869599 0.995 2.5731932e-39
-0.15788329 0.042741884 0.995 0
-0.16835068 0.047975581 0.995 4.5917748e-40
-0.16573384 0.046231017 0.995 1.8367099e-40
-0.16311698 0.046231017 0.99500006 1.8367099e-40
-0.1561387 0.047975581 0.995 3.6734198e-40
-0.15352187 0.047975581 0.995 3.6734198e-40
-0.150905 0.047975581 0.995 3.6734198e-40
-0.16835068 0.050592434 0.995 4.5917748e-40
-0.16573383 0.050592434 0.995 3.6734198e-40
-0.16311698 0.049720149 0.995 2.7550649e-40
-0.1561387 0.049720149 0.995 0
-0.15323111 0.050301671 0.99500006 0
-0.15003273 0.050592434 0.995 1.8367099e-40
-0.17009524 0.054081567 0.995 0
-0.16660611 0.053209282 0.995 9.1835496e-41
-0.14741588 0.053209282 0.995 0
-0.17445666 0.057570696 0.995 0
-0.1718398 0.057570696 0.995 9.1835496e-41
-0.18056265 0.063676685 0.995 0
-0.17794579 0.061059825 0.995 0
-0.17532894 0.060187545 0.995 0
-0.18056265 0.065421246 0.995 0
-0.18405178 0.070654951 0.995 0
-0.18230721 0.068910383 0.995 0
-0.18579634 0.07414408 0.995 4.2038954e-44
-0.18928549 0.077633217 0.995 1.0219981e-38
-0.18754092 0.077633217 0.995 8.5691867e-39
-0.12299194 0.086356044 0.995 1.2992734e-38
-0.12822564 0.10380171 0.995 5.0714603e-39
-0.12578325 0.10170823 0.995 2.6697076e-39
-0.12997022 0.10641856 0.995 4.2424381e-39
-0.13345934 0.11077998 0.995 4.0598349e-39
-0.13171478 0.10990769 0.995 4.7008841e-39
-0.13345934 0.11252454 0.995 3.8729171e-39
-0.13171478 0.11252454 0.995 4.6965625e-39
-0.1369485 0.11775824 0.99500006 3.8697067e-39
-0.13520391 0.11601368 0.995 4.3338939e-39
-0.18143493 0.12211967 0.995 1.4736951e-39
-0.17881808 0.12299194 0.995 1.7491988e-39
-0.14043762 0.12299194 0.995 2.2994831e-39
-0.13811153 0.12182891 0.99500006 2.6675426e-39
-0.17794579 0.1256088 0.995 1.9317908e-39
-0.14130989 0.1256088 0.995 2.4831499e-39
-0.17445666 0.12909794 0.995 1.7463108e-39
-0.17009525 0.12997022 0.99500006 1.4693679e-39
-0.16573383 0.13084251 0.995 1.3775324e-39
-0.16224469 0.13171478 0.995 1.3775324e-39
-0.15962785 0.13171478 0.995 1.3775324e-39
-0.15323111 0.13113326 0.99500006 1.4693679e-39
-0.15032348 0.13055176 0.99500006 1.8367099e-39
-0.14625284 0.1293887 0.99500006 1.7452332e-39
-0.14392674 0.12909794 0.995 1.5619209e-39
-0.16486154 0.13345934 0.995 1.0101905e-39
-0.16224469 0.13345934 0.995 1.2856969e-39
-0.15788329 0.13345936 0.99500006 6.4356594e-40
-0.1583593 0.042870753 0.99800003 0
-0.1583593 0.045495495 0.99800003 3.6734198e-40
-0.16150899 0.049520094 0.99800009 3.6734198e-40
-0.1583593 0.048995145 0.99800003 4.5917748e-40
-0.15485966 0.051619884 0.99800003 2.7550649e-40
-0.16885826 0.055119537 0.99800003 0
-0.16623354 0.054244623 0.99800003 2.7550649e-40
-0.16360879 0.053369712 0.99800003 4.5917748e-40
-0.15398476 0.054244623 0.99800003 9.1835496e-41
-0.15077674 0.053952988 0.99800003 0
-0.14698544 0.055119537 0.99800003 0
-0.17002481 0.057452641 0.99800003 1.8367099e-40
-0.14494398 0.057452641 0.99800003 0
-0.14261088 0.058619194 0.99800003 0
-0.17848232 0.062993757 0.99800003 0
-0.17323282 0.060369018 0.99800003 0
-0.14086106 0.062118843 0.99800003 0
-0.18110704 0.067368321 0.99800003 0
-0.18110704 0.06911815 0.99800003 0
-0.1846067 0.073492721 0.99800003 0
-0.18635653 0.076117463 0.99800003 3.2229865e-44
-0.13386174 0.11461364 0.99800003 3.5962952e-39
-0.18635653 0.11898822 0.99800003 2.6711607e-39
-0.13561156 0.11898822 0.99800003 3.2203562e-39
-0.1846067 0.12161295 0.99800003 1.8404094e-40
-0.18285687 0.12336278 0.99800003 1.5626384e-39
-0.13736139 0.12336278 0.99800003 2.6660992e-39
-0.13561156 0.12248787 0.99800003 1.9324957e-39
-0.18110704 0.12598753 0.99800003 1.3797073e-39
-0.17935723 0.12686244 0.99800003 1.472263e-39
-0.13823631 0.12598753 0.99800003 2.4845806e-39
-0.1776074 0.12861226 0.99800003 2.2072875e-39
-0.17585757 0.13036209 0.99800003 2.0221886e-39
-0.14173597 0.12948719 0.99800003 2.0228962e-39
-0.13911122 0.12861226 0.99800003 2.3916788e-39
-0.17235792 0.13211191 0.99800003 1.4693749e-39
-0.16944155 0.13269518 0.99800003 1.2856969e-39
-0.16667099 0.13429919 0.99800003 1.1938615e-39
-0.16273388 0.13561156 0.99800003 7.361189e-40
-0.15398476 0.13386174 0.99800003 1.2874906e-39
-0.1504851 0.13298681 0.99800003 1.3778912e-39
-0.14611052 0.13211191 0.99800003 1.3775324e-39
-0.16497815 0.035979275 1.001 2.7586522e-40
-0.16146797 0.051775057 1.001 3.6734198e-40
-0.15795779 0.051775057 1.001 2.7550649e-40
-0.16497815 0.05528523 1.001 4.5917748e-40
-0.16146797 0.054407686 1.001 4.5917748e-40
-0.15795779 0.054407686 1.001 1.8367099e-40
-0.15005991 0.05528523 1.001 0
-0.16936587 0.058795404 1.001 0
-0.16593766 0.057947226 1.0015 3.6734198e-40
-0.16195187 0.058091432 1.0039999 5.5101298e-40
-0.15872458 0.057798039 1.0039999 1.8367099e-40
-0.15367825 0.057915401 1.0039999 0
-0.14929479 0.057961911 1.00175 0
-0.14654973 0.058795404 1.001 0
-0.17638621 0.062305581 1.001 0
-0.17375357 0.062305581 1.001 0
-0.16970336 0.061551642 1.003 0
-0.16635275 0.060731951 1.0039999 0
-0.15315014 0.060731951 1.0039999 0
-0.14933607 0.061318737 1.0039999 0
-0.14589047 0.061521392 1.0025001 0
-0.14303957 0.061428033 1.001 0
-0.17818688 0.066134416 1.0024999 0
-0.17471439 0.06557291 1.0039999 0
-0.14610875 0.064252652 1.0039999 0
-0.14226919 0.065865062 1.00175 0
-0.13894437 0.066400781 1.0010002 0
-0.18183118 0.071152017 1.0020001 0
-0.17849547 0.06946443 1.003 0
-0.18201265 0.073860921 1.003 0
-0.18867181 0.07985644 1.001 8.5680783e-39
-0.18586369 0.078452379 1.001 3.5009242e-39
-0.18293862 0.077398047 1.0032499 0
-0.18603919 0.081611529 1.001 1.0133578e-38
-0.18395621 0.080095768 1.0039999 1.2882347e-39
-0.12899886 0.10618274 1.001 4.8877977e-39
-0.12543643 0.10573318 1.0034001 5.3408655e-39
-0.13016768 0.10993947 1.00325 3.5005515e-39
-0.12762512 0.10826131 1.0039999 1.7499247e-39
-0.13250904 0.11495818 1.001 3.961503e-39
-0.13114582 0.11442252 1.0039999 2.7615277e-39
-0.18867181 0.11759081 1.001 9.308886e-39
-0.13348587 0.11767957 1.00175 2.7618962e-39
-0.13114582 0.11706305 1.0039999 2.7622592e-39
-0.18603919 0.12285607 1.001 3.6845672e-39
-0.13372093 0.12177268 1.0022 2.1147303e-39
-0.18670516 0.12515265 1.003 5.0682331e-39
-0.18368138 0.1265569 1.0025001 5.5173184e-40
-0.13601923 0.12636624 1.001 2.3931039e-39
-0.13344935 0.12606536 1.0028 2.0243284e-39
-0.18192366 0.13007234 1.0025001 1.1938769e-39
-0.17931136 0.13016891 1.0010002 1.9307202e-39
-0.13750482 0.13013029 1.0016001 2.2994789e-39
-0.13378634 0.12938547 1.0039999 2.2998363e-39
-0.18043552 0.13290615 1.0039999 1.6552376e-39
-0.17766285 0.13368705 1.00325 2.1143898e-39
-0.17404608 0.13367909 1.0010002 1.5619237e-39
-0.17112094 0.13426413 1.001 1.2856969e-39
-0.14918236 0.13426413 1.001 1.5622796e-39
-0.1456722 0.13426413 1.001 1.7466681e-39
-0.14226788 0.13348718 1.00175 2.0225431e-39
-0.13936077 0.13349295 1.0039999 2.3923864e-39
-0.17691483 0.13642685 1.0039999 1.3793611e-39
-0.17414477 0.13720512 1.0032499 1.2867816e-39
-0.16999677 0.13805133 1.003 1.102026e-39
-0.16570245 0.13864361 1.0022 9.1835496e-40
-0.16138978 0.13820897 1.0016 8.2759566e-40
-0.15795779 0.13777432 1.001 1.0116254e-39
-0.15413652 0.13808477 1.0014286 1.4708029e-39
-0.15000786 0.13771108 1.0021249 1.2871319e-39
-0.14599895 0.13720512 1.0032499 1.6562675e-39
-0.14288148 0.13701364 1.0039999 1.9321327e-39
-0.1681131 0.1417079 1.0039999 1.3775366e-39
-0.16517918 0.14229469 1.0039999 1.0101933e-39
-0.16195187 0.14258808 1.0039999 8.26881e-40
-0.15843117 0.14258808 1.0039999 7.3540143e-40
-0.15438239 0.14241205 1.0039999 9.1943256e-40
-0.15050963 0.1417079 1.0039999 7.361189e-40
-0.15713897 0.059147816 1.007 0
-0.16567275 0.062090497 1.007 0
-0.1624358 0.060913429 1.007 0
-0.15802179 0.060913429 1.007 0
-0.15095936 0.06267903 1.007 0
-0.17302944 0.06621024 1.007 0
-0.17038104 0.064444639 1.007 0
-0.14566255 0.06621024 1.007 0
-0.17832625 0.071507066 1.007 0
-0.17567785 0.069741458 1.007 0
-0.17920905 0.073272668 1.007 0
-0.18097468 0.077686682 1.007 0
-0.18450588 0.082100704 1.007 6.354293e-39
-0.18274027 0.080335096 1.007 0
-0.12800647 0.11035042 1.007 2.4820891e-39
-0.12535806 0.1085848 1.007 6.2610184e-39
-0.12933068 0.11344022 1.007 3.0366866e-39
-0.13065489 0.11829564 1.007 2.5742708e-39
-0.13153769 0.12182686 1.007 2.3902396e-39
-0.13153769 0.12535806 1.007 2.2998335e-39
-0.18450588 0.12977208 1.007 5.5102979e-40
-0.13506891 0.13153769 1.007 2.390234e-39
-0.18185747 0.13418609 1.007 1.6534313e-39
-0.13771731 0.13418609 1.007 2.5764175e-39
-0.17832625 0.13771731 1.007 1.2871641e-39
-0.14095426 0.13801157 1.007 2.1165226e-39
-0.14683962 0.14095426 1.007 9.2050736e-40
-0.14301413 0.14036572 1.007 1.5619209e-39
-0.1620343 0.062865764 1.01 0
-0.1540654 0.062865764 1.01 0
-0.17000319 0.06552206 1.01 0
-0.16646147 0.064636625 1.01 0
-0.15052366 0.064636625 1.01 0
-0.14786735 0.066407494 1.01 0
-0.17620122 0.071720093 1.01 0
-0.17384008 0.069949232 1.01 9.1835496e-41
-0.17088862 0.068178363 1.01 2.7550649e-40
-0.14432563 0.068178363 1.01 0
-0.14255476 0.069949232 1.01 0
-0.17856239 0.074671544 1.01 0
-0.17974296 0.077918127 1.01 0
-0.18239926 0.081459865 1.01 5.5461852e-40
-0.12573153 0.11067916 1.01 6.9938975e-39
-0.12838782 0.11510632 1.01 2.3891592e-39
-0.12573153 0.1142209 1.0100001 6.6276148e-39
-0.12897812 0.11894321 1.01 2.1140269e-39
-0.12661695 0.11776263 1.01 3.4926187e-39
-0.12956841 0.12189465 1.01 2.4817122e-39
-0.13015869 0.1248461 1.01 2.7575844e-39
-0.13370042 0.13192956 1.01 2.5731876e-39
-0.13192956 0.12927327 1.01 1.9321397e-39
-0.18328469 0.1354713 1.01 1.7448997e-39
-0.13724217 0.1354713 1.01 2.6689859e-39
-0.13901302 0.13724217 1.01 2.6679055e-39
-0.15807526 0.063052498 1.013 0
-0.1696201 0.066604748 1.013 1.4012985e-45
-0.16606784 0.06601271 1.013 0
-0.16162752 0.064828619 1.013 0
-0.15807526 0.064828619 1.013 0
-0.15452302 0.065716684 1.013 0
-0.15097077 0.066604748 1.013 0
-0.17317234 0.071045063 1.013 0
-0.17080419 0.070157006 1.013 9.1835496e-41
-0.16784397 0.06838087 1.013 0
-0.14830658 0.06838087 1.013 0
-0.14534637 0.070157006 1.013 0
-0.1767246 0.074597321 1.013 0
-0.17494847 0.074597321 1.013 0
-0.17850073 0.078149572 1.013 0
-0.18086891 0.081997842 1.013 0
-0.18027686 0.084366016 1.013 7.4616929e-39
-0.12699306 0.11988855 1.013 2.9430407e-39
-0.12876917 0.1234408 1.013 2.296965e-39
-0.12699306 0.12166467 1.013 3.0355936e-39
-0.12936121 0.12640102 1.013 1.8377889e-39
-0.18738136 0.12876917 1.013 5.1615063e-39
-0.1305453 0.12965724 1.013 1.9317964e-39
-0.13528165 0.13468961 1.013 1.9310579e-39
-0.16477826 0.066802002 1.016 9.1835496e-41
-0.16210619 0.066802002 1.016 0
-0.15854341 0.066802002 1.016 0
-0.16923173 0.070364773 1.016 0
-0.16566896 0.069474079 1.016 0
-0.16234553 0.069577962 1.0175 0
-0.15811825 0.06967923 1.0190001 0
-0.15353918 0.069628596 1.01825 0
-0.15008155 0.069840237 1.0170001 0
-0.14696439 0.070364773 1.016 0
-0.17368521 0.074818239 1.016 0
-0.17040798 0.074052297 1.0177144 0
-0.16615814 0.072359189 1.0190001 0
-0.15275829 0.072359189 1.0190001 0
-0.14952186 0.07364592 1.01825 0
-0.14684319 0.074092582 1.01825 0
-0.17724797 0.078381017 1.016 0
-0.17451519 0.078108586 1.01825 0
-0.17861003 0.08172667 1.0170001 0
-0.17902936 0.084615864 1.016 6.7241279e-39
-0.19149905 0.12380636 1.016 1.0600687e-38
-0.12736915 0.12380636 1.016 2.666458e-39
-0.19325563 0.12595859 1.0190001 1.115134e-38
-0.19149905 0.12558776 1.016 1.0784718e-38
-0.18793629 0.13093191 1.016 5.3448452e-39
-0.16754326 0.074364118 1.022 0
-0.1630635 0.072572216 1.022 0
-0.15768778 0.072572216 1.022 0
-0.15499993 0.072572216 1.022 0
-0.15141609 0.074364118 1.022 0
-0.17471088 0.079739839 1.022 0
-0.17023112 0.077051982 1.022 0
-0.15141609 0.076156028 1.022 0
-0.17739874 0.082427703 1.022 0
-0.1782947 0.085115559 1.022 4.5132699e-39
-0.16533932 0.074582413 1.025 0
-0.16144547 0.073983364 1.025 0
-0.15815066 0.074582413 1.025 0
-0.15455632 0.074582413 1.025 0
-0.17342657 0.079973914 1.025 0
-0.16938294 0.078176752 1.025 0
-0.16558129 0.077392563 1.0265 0
-0.16221839 0.077504337 1.028 0
-0.15849847 0.077448457 1.0272501 0
-0.15467006 0.077335365 1.02575 0
-0.150962 0.078176744 1.025 0
-0.17702089 0.083568245 1.025 0
-0.17419209 0.082683519 1.0273999 0
-0.1697285 0.080808789 1.0280001 0
-0.16582325 0.080207981 1.028 0
-0.1631196 0.080207981 1.028 0
-0.15771233 0.080207981 1.028 0
-0.15410748 0.080207989 1.0280001 0
-0.17702089 0.085365415 1.025 1.8395966e-39
-0.17483538 0.085615262 1.028 3.6734339e-40
-0.12580165 0.11951157 1.025 8.6569949e-39
-0.12589304 0.12229741 1.0257499 7.8290517e-39
-0.1690187 0.082249738 1.031 0
-0.16630717 0.082249738 1.031 0
-0.16239052 0.08164718 1.031 0
-0.1586245 0.081797816 1.031 0
-0.15365335 0.082249738 1.031 2.6707866e-39
-0.17263408 0.084961265 1.031 0
-0.17082639 0.084057428 1.031 0
-0.16996375 0.086114965 1.034 1.7495548e-39
-0.16588461 0.085208498 1.034 1.0123499e-39
-0.16165441 0.084906332 1.0340002 2.4849534e-39
-0.15772635 0.084302016 1.034 0
-0.15410048 0.084302016 1.034 6.6272869e-39
-0.16106646 0.086448096 1.038 9.1143815e-39
-0.15924649 0.086448096 1.038 1.161006e-38
-0.16834629 0.088268057 1.038 7.9208956e-39
-0.16561635 0.088268057 1.038 8.1070819e-39
-0.19866143 0.12658891 1.054 1.0599981e-38
-0.19922689 0.1213894 1.057 8.3872786e-39
