# .PCD v0.7 - Point Cloud Data file format
VERSION 0.7
FIELDS x y z rgb
SIZE 4 4 4 4
TYPE F F F F
COUNT 1 1 1 1
WIDTH 858
HEIGHT 1
VIEWPOINT 0 0 0 1 0 0 0
POINTS 858
DATA ascii
-0.14581069 0.083925925 0.96700001 0
-0.14241976 0.083925925 0.96700001 0
-0.13987654 0.083925925 0.96700001 0
-0.14581069 0.086469144 0.96700001 0
-0.14241976 0.086469136 0.96700001 0
-0.13987654 0.086469136 0.96700001 0
-0.14881416 0.082485564 0.97000003 6.6330505e-39
-0.14597961 0.081918657 0.97000003 5.0639199e-39
-0.14201124 0.081635199 0.97000015 2.761183e-39
-0.13804285 0.081918657 0.97000003 1.2889325e-39
-0.14949445 0.086227179 0.97000009 0
-0.13792947 0.085546888 0.97000009 0
-0.12585427 0.085036665 0.97000003 0
-0.15476674 0.090138867 0.97000003 0
-0.14966452 0.089288503 0.97000003 0
-0.14711343 0.089288503 0.97000003 0
-0.15731783 0.093540333 0.97000003 0
-0.1556171 0.093540333 0.97000003 0
-0.15799813 0.098132305 0.97000009 0
-0.1556171 0.096941799 0.97000003 0
-0.15015107 0.078921914 0.97500008 1.1883136e-38
-0.14606288 0.078582644 0.97433341 1.4466054e-38
-0.14159745 0.078475684 0.97299999 1.3177102e-38
-0.13832748 0.078555465 0.97399998 1.2255141e-38
-0.13462313 0.079064369 0.97500002 1.1885655e-38
-0.129922 0.079491749 0.97500002 1.2345913e-38
-0.15357009 0.082340918 0.97500008 8.934679e-39
-0.15051518 0.081658863 0.97366667 8.9354049e-39
-0.14756842 0.081034675 0.97299999 7.5503335e-39
-0.13733245 0.081034675 0.97299999 2.7600913e-39
-0.13410281 0.081999891 0.97433341 2.0225361e-39
-0.12978874 0.08197096 0.97399998 2.4835143e-39
-0.12678792 0.082340918 0.97500008 3.1263669e-39
-0.12308399 0.082910754 0.97500002 6.067244e-39
-0.1563123 0.08626955 0.97433329 5.2486559e-39
-0.15364516 0.086211108 0.97366667 3.6838707e-39
-0.1509804 0.084446661 0.97299999 1.836773e-39
-0.13379809 0.085269332 0.97459996 0
-0.12965548 0.084446661 0.97299999 0
-0.12206092 0.085358106 0.97366667 4.5917748e-40
-0.11881025 0.085474998 0.97500002 1.8367099e-39
-0.16496675 0.091458254 0.97500002 3.9589821e-39
-0.16211759 0.090888426 0.97500008 3.3118428e-39
-0.15876609 0.089624844 0.97366667 1.933932e-39
-0.15268639 0.090417638 0.97299999 0
-0.1509804 0.09127064 0.97299999 0
-0.16496675 0.094022498 0.97500002 2.3913102e-39
-0.1624025 0.094022498 0.97500002 1.9299803e-39
-0.15951037 0.093829632 0.97299999 3.6734198e-40
-0.16496675 0.096586749 0.97500002 2.2987573e-39
-0.16211759 0.097156584 0.97500008 5.5137171e-40
-0.15951037 0.096388616 0.97299999 0
-0.16154775 0.10000575 0.97500002 0
-0.14575458 0.074592054 0.97799999 1.5202162e-38
-0.14232507 0.074592054 0.97799999 1.5939023e-38
-0.13803819 0.074592054 0.97800004 1.188458e-38
-0.13375127 0.074592054 0.97799999 1.0224684e-38
-0.13117914 0.074592054 0.97799999 1.0777123e-38
-0.15404259 0.079164758 0.97800004 8.2885795e-39
-0.1504702 0.076735511 0.97799999 1.1055164e-38
-0.14575458 0.07630682 0.97799999 1.584466e-38
-0.14232507 0.07630682 0.97799999 1.6675868e-38
-0.13803819 0.07630682 0.97800004 1.1976775e-38
-0.13375127 0.077164203 0.97799999 1.0410511e-38
-0.13032176 0.077164203 0.97799999 1.2068944e-38
-0.12646355 0.079307646 0.97799999 1.289836e-38
-0.12260534 0.079736337 0.97799999 1.142433e-38
-0.15690053 0.082308471 0.97799999 7.1793803e-39
-0.15518576 0.081451096 0.97799999 8.3786466e-39
-0.12517747 0.081451096 0.97799999 8.2849712e-39
-0.12146217 0.082022682 0.97800004 8.5626231e-39
-0.11831843 0.082308471 0.97799999 7.3665994e-39
-0.16090165 0.086023793 0.97800004 6.1666437e-39
-0.15861529 0.085737996 0.97799999 8.1942245e-39
-0.11746105 0.085737996 0.97799999 4.3209445e-39
-0.1157463 0.085737996 0.97799999 5.9811678e-39
-0.16890386 0.091739655 0.97799999 4.8834789e-39
-0.16650319 0.089681946 0.97799999 4.2352116e-39
-0.16290219 0.089167513 0.97799999 4.5114524e-39
-0.12089057 0.088310137 0.97799999 0
-0.11831843 0.089167513 0.97799999 0
-0.1157463 0.089167513 0.97799999 1.8367099e-40
-0.16976124 0.094311796 0.97799999 6.7273901e-39
-0.16718909 0.094311789 0.97799999 3.0366698e-39
-0.16976123 0.097741313 0.97799999 6.6348385e-39
-0.16661751 0.09802711 0.97800004 2.0239682e-39
-0.16375957 0.098598696 0.97799999 1.3778912e-39
-0.16547433 0.10031345 0.97799999 4.5917748e-40
-0.1622898 0.10251816 0.97800004 0
-0.14923672 0.071599118 0.98400003 1.3912144e-38
-0.14578617 0.071599118 0.98400009 1.5296546e-38
-0.1411854 0.07102403 0.98400009 1.4651904e-38
-0.137812 0.070627332 0.98250002 1.0594928e-38
-0.13436669 0.070627332 0.98250002 1.031653e-38
-0.13102068 0.070681907 0.98325002 1.2253355e-38
-0.15613784 0.075049676 0.98400003 8.1056372e-39
-0.1531072 0.074398324 0.98300004 9.2126784e-39
-0.14975679 0.07401675 0.98175001 1.2252267e-38
-0.1462017 0.07310085 0.98100001 1.4744078e-38
-0.14190164 0.07310085 0.98100007 1.4837015e-38
-0.1376016 0.07310085 0.98100001 1.0686759e-38
-0.13416156 0.07310085 0.98100001 1.0776778e-38
-0.12959588 0.073833577 0.98159999 1.2898702e-38
-0.12610412 0.074398309 0.98300004 1.2716481e-38
-0.12249488 0.075049676 0.98400003 8.1071002e-39
-0.15845697 0.078106262 0.98340005 6.8134551e-39
-0.15508847 0.077114232 0.98100007 7.920883e-39
-0.12814149 0.076540887 0.98100001 1.4187642e-38
-0.12556145 0.0774009 0.98100001 1.2623562e-38
-0.12194943 0.077916913 0.98100007 8.4751582e-39
-0.11794146 0.078338929 0.98200005 7.1832843e-39
-0.11438133 0.079980925 0.98100001 6.813434e-39
-0.16190542 0.082244836 0.98340005 6.1680969e-39
-0.15926403 0.081782483 0.98200005 6.8123845e-39
-0.11610134 0.082560956 0.98100001 6.8127194e-39
-0.11438133 0.082560956 0.98100001 6.7205237e-39
-0.16537571 0.086993821 0.98250002 5.7063886e-39
-0.16254188 0.085140988 0.98100001 6.0755341e-39
-0.11352132 0.086000994 0.98100001 6.2573876e-39
-0.11008128 0.086861007 0.98100001 7.0882174e-39
-0.16968103 0.089576483 0.98250002 4.7884064e-39
-0.16426191 0.088581026 0.98100001 4.603648e-39
-0.11352132 0.089441031 0.98100001 2.2047694e-39
-0.11008129 0.089441031 0.98100001 5.2443273e-39
-0.10703748 0.089818001 0.98200005 6.1684206e-39
-0.11610134 0.09202107 0.98100001 0
-0.11334932 0.093397088 0.98100007 1.8367099e-40
-0.11008129 0.093741089 0.98100007 1.9299818e-39
-0.10681324 0.093397081 0.98100007 4.3241646e-39
-0.17286201 0.098901145 0.98100001 1.0323727e-38
-0.11008128 0.097181126 0.98100001 2.7550649e-40
-0.10750125 0.097181126 0.98100001 8.2651947e-40
-0.17286201 0.10148117 0.98100001 1.013863e-38
-0.17028198 0.10148117 0.98100001 5.2537048e-39
-0.16712861 0.10176784 0.98100007 6.4392467e-40
-0.17286202 0.10578123 0.98100007 1.0230825e-38
-0.16998667 0.10607391 0.98142868 4.7920091e-39
-0.16619872 0.10592137 0.98228574 2.7550649e-40
-0.16279042 0.10680561 0.98250002 0
-0.15315279 0.071817406 0.98699999 1.0318666e-38
-0.15055697 0.070952132 0.98699999 1.2713604e-38
-0.14579798 0.069654234 0.98699999 1.557205e-38
-0.14219271 0.068933181 0.98699999 1.5020311e-38
-0.1384432 0.068356328 0.98699999 1.0778967e-38
-0.13411686 0.068356328 0.98699999 1.0870067e-38
-0.12950209 0.070086867 0.98699999 1.3268587e-38
-0.12661785 0.071240559 0.98699999 1.2254096e-38
-0.16007495 0.075278483 0.98699999 7.548516e-39
-0.15747914 0.07441321 0.98699999 7.6446605e-39
-0.15488333 0.073547944 0.98699999 8.3822045e-39
-0.12546416 0.073547944 0.98699999 1.0226863e-38
-0.12200306 0.07441321 0.98699999 8.198179e-39
-0.11767671 0.075278483 0.98699999 6.9992434e-39
-0.16180548 0.078739569 0.98699999 6.9056297e-39
-0.16526656 0.083931185 0.98699999 5.3419319e-39
-0.16353603 0.080470107 0.98699999 6.7202014e-39
-0.11335036 0.083065912 0.98699999 6.4439481e-39
-0.16872764 0.08652699 0.98699999 4.3252548e-39
-0.16613182 0.085661724 0.98699999 5.524161e-39
-0.14610174 0.063484691 0.99199998 1.3457325e-38
-0.14175348 0.063484691 0.99199998 1.2716531e-38
-0.13740522 0.063484691 0.99199998 8.5662804e-39
-0.13479626 0.063484691 0.99199998 7.5542389e-39
-0.15218931 0.0669633 0.99199998 9.8555241e-39
-0.14914058 0.066316031 0.99100006 1.317604e-38
-0.14577104 0.065943085 0.98975003 1.4928838e-38
-0.14219183 0.065893769 0.98900002 1.4651886e-38
-0.13785671 0.065893769 0.98900002 1.0318331e-38
-0.13352159 0.065893769 0.98900002 1.105518e-38
-0.13034871 0.066043019 0.99124998 1.2992724e-38
-0.12696938 0.0669633 0.99199998 1.0964796e-38
-0.15716924 0.071202427 0.99049997 8.0112696e-39
-0.15478496 0.070007794 0.99080002 8.8431784e-39
-0.15042853 0.068928353 0.98900002 1.2897651e-38
-0.14652695 0.068494841 0.98900002 1.5756102e-38
-0.12918648 0.068494841 0.98900002 1.3084554e-38
-0.1258124 0.068980291 0.98975003 1.0410881e-38
-0.12240846 0.070814878 0.99028575 8.0130562e-39
-0.1191425 0.070441917 0.99199998 7.4595251e-39
-0.16130346 0.07384602 0.99100006 6.5368598e-39
-0.15890591 0.072939105 0.99049997 7.2755234e-39
-0.12138326 0.073696986 0.98900002 7.1847445e-39
-0.11809401 0.072939105 0.99049997 6.9999735e-39
-0.16523412 0.078268796 0.99199998 6.1652186e-39
-0.16300039 0.078032099 0.98900002 6.627989e-39
-0.11427196 0.078643784 0.99125004 6.9978239e-39
-0.16651611 0.08195401 0.99100006 5.6149357e-39
-0.11288266 0.080755457 0.99049997 7.0914699e-39
-0.11036115 0.08211977 0.99124998 7.3687812e-39
-0.173061 0.087834984 0.99199998 9.0319291e-39
-0.17106265 0.086832516 0.99049997 4.6061844e-39
-0.16784307 0.084356368 0.99199998 4.7883952e-39
-0.10995818 0.085413508 0.9898572 7.0911055e-39
-0.10685953 0.086007141 0.99100006 7.9212291e-39
-0.17253764 0.090170428 0.98900002 1.0135753e-38
-0.10664387 0.089303404 0.98900002 7.1850864e-39
-0.16645165 0.11844678 0.99200004 2.3016439e-39
-0.16262516 0.1191425 0.99199998 1.4693749e-39
-0.16610378 0.12175146 0.99200004 2.2145056e-39
-0.16175552 0.12175146 0.99199998 2.3945767e-39
-0.16436447 0.12436043 0.99199998 3.8740339e-39
-0.16146564 0.12609974 0.99199998 4.146316e-39
-0.1582769 0.12696938 0.99199998 1.9332342e-39
-0.15566793 0.12783904 0.99199998 0
-0.14916044 0.063676685 0.995 1.3552032e-38
-0.14218217 0.061932109 0.99500006 1.198619e-38
-0.13782077 0.061932109 0.995 6.8275563e-39
-0.13345934 0.063676685 0.995 1.0227912e-38
-0.1561387 0.067165814 0.995 7.9215963e-39
-0.15381263 0.066002771 0.99500006 7.740826e-39
-0.150905 0.065421246 0.995 1.1060957e-38
-0.12473652 0.067165814 0.995 9.3037698e-39
-0.12299194 0.067165814 0.995 7.7364427e-39
-0.16137241 0.070654951 0.995 4.1502453e-39
-0.15875557 0.069782667 0.995 5.8939833e-39
-0.12124739 0.068910383 0.995 7.3673561e-39
-0.11863053 0.069782667 0.995 7.0911153e-39
-0.16486154 0.075888649 0.995 5.0649765e-39
-0.16311698 0.07414408 0.995 6.2584652e-39
-0.11601368 0.075016364 0.995 6.0780088e-39
-0.11368759 0.075307131 0.99500006 6.7226733e-39
-0.16835068 0.079377778 0.995 4.6021865e-39
-0.16660611 0.077633217 0.995 4.9652251e-39
-0.11339682 0.077633217 0.995 7.1822194e-39
-0.10990769 0.078505501 0.995 8.105242e-39
-0.17009524 0.08199463 0.995 5.7071131e-39
-0.10903541 0.081122346 0.995 8.199258e-39
-0.17358439 0.086356044 0.995 9.5847526e-39
-0.17096752 0.084611475 0.995 4.7884036e-39
-0.16922295 0.11601368 0.995 5.8047318e-39
-0.16573383 0.11688596 0.995 1.836752e-40
-0.16195393 0.11833977 0.99500006 4.5918168e-40
-0.15962785 0.11950281 0.995 7.3468397e-40
-0.15962785 0.12211967 0.995 1.7474038e-39
-0.16224469 0.1256088 0.995 6.4497648e-39
-0.15962785 0.12473652 0.995 4.9734815e-39
-0.15398476 0.063868672 0.99800003 1.5214805e-38
-0.1504851 0.062993757 0.99800003 1.53052e-38
-0.14698544 0.062118847 0.99800003 1.5028635e-38
-0.13386174 0.062993757 0.99800003 9.031562e-39
-0.15777603 0.066201769 0.99800003 9.7734767e-39
-0.12861226 0.065618493 0.99800003 1.2623945e-38
-0.12686244 0.065618493 0.99800003 9.7658816e-39
-0.12161295 0.067368321 0.99800003 7.5499495e-39
-0.16185896 0.069993064 0.99800003 6.5462176e-39
-0.16535862 0.074367635 0.99800003 5.1593679e-39
-0.16360879 0.072617806 0.99800003 4.5128593e-39
-0.11636347 0.072617806 0.99800003 5.8932756e-39
-0.11286382 0.074367635 0.99800003 6.9067059e-39
-0.11111399 0.074367635 0.99800003 7.2758317e-39
-0.16973317 0.078742199 0.99800003 5.8003821e-39
-0.16710845 0.076117463 0.99800003 4.6039983e-39
-0.11111399 0.076117463 0.99800003 7.2751128e-39
-0.17323282 0.082241856 0.99800003 8.2921991e-39
-0.17410775 0.084866591 0.99800003 1.0227954e-38
-0.16973317 0.11111399 0.99800003 0
-0.16973317 0.11373873 0.99800003 1.937183e-39
-0.16710845 0.11373873 0.99800003 0
-0.10936416 0.11373873 0.99800003 3.6860091e-39
-0.10761434 0.11373873 0.99800003 5.1586505e-39
-0.16535862 0.11636347 0.99800003 1.836766e-40
-0.16185896 0.11723839 0.99800003 5.5101298e-40
-0.15748438 0.12336278 0.99800003 2.7550649e-40
-0.15719275 0.12569588 0.99800003 2.0257633e-39
-0.14962944 0.05897161 1.0039999 2.1481947e-38
-0.14589047 0.058003332 1.0025001 2.1390846e-38
-0.14237505 0.058003332 1.0025001 2.0838753e-38
-0.13973847 0.058003329 1.0025001 1.927537e-38
-0.1610717 0.0624923 1.0039999 1.2910285e-38
-0.15819579 0.06239894 1.0025001 1.6043857e-38
-0.15379889 0.061518766 1.0025001 1.8715372e-38
-0.15005991 0.061135523 1.0010002 1.963948e-38
-0.1456722 0.060550489 1.001 2.1115343e-38
-0.14216202 0.060550489 1.001 1.9916443e-38
-0.13791019 0.060610976 1.0020001 1.8350902e-38
-0.13381323 0.061781041 1.0020001 1.2905582e-38
-0.1300697 0.06239894 1.0025001 1.1147392e-38
-0.12674496 0.0624923 1.0039999 9.8566325e-39
-0.16517918 0.067186564 1.0039999 1.1159296e-38
-0.16171037 0.065912619 1.0025001 1.1896504e-38
-0.15795779 0.064060666 1.001 1.5859827e-38
-0.12987641 0.064060666 1.001 1.1239231e-38
-0.1255814 0.064547434 1.00175 9.2108805e-39
-0.12157454 0.065620109 1.0025001 7.3662743e-39
-0.11882339 0.067773342 1.0039999 6.5415317e-39
-0.16560203 0.070051216 1.003 8.9455265e-39
-0.16234551 0.069325924 1.001 5.4396052e-39
-0.11776569 0.070309982 1.0025001 6.2631427e-39
-0.11442252 0.071294032 1.0039999 6.5382695e-39
-0.11178201 0.071294032 1.0039999 6.6282987e-39
-0.1681131 0.073054381 1.0039999 8.7586227e-39
-0.16673324 0.073713645 1.001 6.174973e-39
-0.11408064 0.072836094 1.001 5.9883579e-39
-0.11038753 0.07349389 1.0020001 9.3030608e-39
-0.17304873 0.078177623 1.0020001 8.4787427e-39
-0.17070687 0.077007577 1.0020001 6.2660616e-39
-0.10969292 0.076346271 1.001 9.6721978e-39
-0.17515448 0.081856109 1.0039999 1.0689285e-38
-0.16698176 0.111615 1.0025001 1.821688e-44
-0.11073746 0.11073615 1.0025001 2.7587643e-40
-0.10735281 0.11027795 1.0010002 4.6976317e-39
-0.16522405 0.11425158 1.0025001 0
-0.16195187 0.11530269 1.0039999 9.1835496e-41
-0.11354235 0.11530269 1.0039999 1.3775338e-39
-0.111448 0.11408064 1.001 5.5173044e-40
-0.16146797 0.11671327 1.001 5.5101298e-40
-0.15843117 0.11882339 1.0039999 8.2651947e-40
-0.11706305 0.11882339 1.0039999 2.6686118e-39
-0.11442252 0.11794321 1.0039999 2.206563e-39
-0.11057046 0.11759081 1.001 3.8679019e-39
-0.10793784 0.11759081 1.001 6.6337553e-39
-0.15819448 0.12128113 1.0025001 7.3468537e-40
-0.15489531 0.12327044 1.0020001 9.1835496e-41
-0.11794321 0.12146391 1.0039999 3.1303228e-39
-0.11442252 0.12146391 1.0039999 3.4058363e-39
-0.11097431 0.12093033 1.0020001 4.8827614e-39
-0.1535801 0.1262058 1.0027143 2.394543e-39
-0.11764982 0.12469121 1.0039999 2.9448525e-39
-0.11442252 0.12498461 1.0039999 4.0515588e-39
-0.11178201 0.12410443 1.0039999 3.8682508e-39
-0.15403032 0.12938547 1.0039999 1.1952964e-39
-0.15272497 0.059147816 1.007 2.0652197e-38
-0.13801157 0.058559284 1.007 1.9458321e-38
-0.1633186 0.06267903 1.007 1.1900076e-38
-0.15713897 0.060913429 1.007 1.622969e-38
-0.13330328 0.060913429 1.007 1.7422829e-38
-0.1297721 0.060913429 1.007 1.207259e-38
-0.16861542 0.067975856 1.007 9.683432e-39
-0.16596702 0.065327436 1.007 1.0239492e-38
-0.16861542 0.070624262 1.007 9.8689037e-39
-0.11741284 0.069741458 1.007 5.7121311e-39
-0.11388162 0.069741458 1.007 6.5379121e-39
-0.11035042 0.071507066 1.007 1.0777458e-38
-0.17214663 0.075038284 1.007 6.6398846e-39
-0.17038104 0.075038284 1.007 7.193057e-39
-0.17567785 0.080335096 1.007 1.0966228e-38
-0.11299881 0.10946761 1.007 0
-0.10946761 0.1085848 1.007 6.4284847e-40
-0.16508421 0.11211601 1.007 0
-0.1624358 0.11388163 1.007 0
-0.11494099 0.1135285 1.007 8.2651947e-40
-0.1185899 0.11800137 1.007 1.4704441e-39
-0.15360777 0.12270965 1.007 4.5917748e-40
-0.12094405 0.12270965 1.007 4.9717467e-39
-0.15007655 0.12535806 1.007 1.7448744e-39
-0.14654535 0.12624086 1.007 1.4693707e-39
-0.14213133 0.12624088 1.007 2.7550649e-40
-0.13860011 0.12624086 1.007 6.4284847e-40
-0.12447526 0.12624086 1.007 4.3223724e-39
-0.12182685 0.12535806 1.007 4.9659818e-39
-0.11917844 0.12624086 1.007 3.1274459e-39
-0.15360777 0.13153769 1.007 7.361189e-40
-0.15007657 0.12977208 1.007 4.0482966e-39
-0.14654535 0.12977208 1.007 5.0635261e-39
-0.14191063 0.12955138 1.007 4.7912889e-39
-0.13789387 0.12941895 1.007 5.0668052e-39
-0.13418609 0.12888928 1.007 4.2355844e-39
-0.12447526 0.12888928 1.007 2.3927452e-39
-0.12182686 0.12888928 1.007 2.8501388e-39
-0.11829564 0.12800647 1.007 3.6802722e-39
-0.11564723 0.12800647 1.007 4.5139705e-39
-0.1460965 0.055782299 1.01 2.1022769e-38
-0.14166933 0.054896865 1.01 1.9088837e-38
-0.13842274 0.055192009 1.01 1.8444185e-38
-0.1567217 0.05932403 1.01 1.6507353e-38
-0.15495083 0.05932403 1.01 1.8439141e-38
-0.14963824 0.057553165 1.01 2.1667422e-38
-0.13724217 0.057553165 1.01 1.8905519e-38
-0.134881 0.058733743 1.01 1.816435e-38
-0.13104412 0.05932403 1.01 1.2902341e-38
-0.16557603 0.062865764 1.01 1.0701533e-38
-0.16114885 0.061094899 1.01 1.3098633e-38
-0.12573153 0.061980329 1.01 8.6598676e-39
-0.12218979 0.062865764 1.01 6.9046109e-39
-0.16911776 0.066407494 1.01 9.8689009e-39
-0.16734689 0.064636625 1.01 9.8710687e-39
-0.1195335 0.06552206 1.01 6.9067185e-39
-0.17088862 0.070834666 1.01 8.8587272e-39
-0.11067916 0.069949232 1.01 1.0408691e-38
-0.17354491 0.074376397 1.01 6.1789121e-39
-0.17088862 0.073490962 1.01 8.5785292e-39
-0.11245003 0.10713743 1.01 3.6734198e-40
-0.11067916 0.10713743 1.01 9.1835496e-41
-0.16557603 0.11067916 1.01 0
-0.16291973 0.11067916 1.01 0
-0.11540147 0.10949858 1.01 0
-0.1620343 0.11363062 1.01 9.1835496e-41
-0.15849255 0.11599176 1.01 2.7550649e-40
-0.11820535 0.11466362 1.01 1.8367099e-40
-0.16026342 0.11776263 1.01 4.5917748e-40
-0.15731198 0.11835292 1.01 7.3468397e-40
-0.1540654 0.1195335 1.01 7.3468397e-40
-0.12130436 0.11864807 1.01 9.1835496e-40
-0.1567217 0.12130436 1.01 8.2651947e-40
-0.1540654 0.12130436 1.01 8.2651947e-40
-0.15052366 0.12307522 1.01 1.1938615e-39
-0.14166933 0.12307522 1.01 1.0101905e-39
-0.12573153 0.12307522 1.01 4.7826303e-39
-0.12248494 0.12189465 1.01 3.1285488e-39
-0.1460965 0.1248461 1.01 1.3775324e-39
-0.14166933 0.1248461 1.01 1.4693679e-39
-0.1381276 0.12573153 1.01 1.9292713e-39
-0.13458586 0.12661695 1.01 4.1397902e-39
-0.13015869 0.12573153 1.0100001 3.4032943e-39
-0.12602668 0.1254364 1.01 5.4251242e-39
-0.14432563 0.13192956 1.01 4.1419706e-39
-0.13015869 0.13015869 1.0100001 2.1161695e-39
-0.12661695 0.12927327 1.01 1.9321327e-39
-0.1195335 0.13015869 1.01 3.0370608e-39
-0.14698192 0.13370042 1.01 5.5101298e-40
-0.15363495 0.055947989 1.013 1.9917513e-38
-0.15008271 0.055059925 1.013 2.1483395e-38
-0.14564238 0.05417186 1.013 2.0562519e-38
-0.14209013 0.052395735 1.013 1.8995569e-38
-0.13824186 0.052987777 1.013 1.8995918e-38
-0.1346896 0.054763906 1.013 1.5583238e-38
-0.1305453 0.055947989 1.013 1.2164741e-38
-0.16429171 0.059500244 1.013 1.1899388e-38
-0.16162752 0.058612179 1.013 1.346706e-38
-0.15837128 0.058316156 1.013 1.5585757e-38
-0.15452302 0.057724115 1.013 1.8627133e-38
-0.15185884 0.057724115 1.013 2.0376683e-38
-0.1332095 0.057724115 1.013 1.3645696e-38
-0.12936121 0.058316156 1.013 1.1241349e-38
-0.126105 0.059500244 1.013 8.4758448e-39
-0.16606784 0.062164433 1.013 1.0885582e-38
-0.12521693 0.061276369 1.013 7.4616929e-39
-0.12255274 0.061276369 1.013 6.7205546e-39
-0.11722436 0.066604748 1.013 6.1705996e-39
-0.11722436 0.06838087 1.013 5.803961e-39
-0.11367211 0.06838087 1.013 6.5397156e-39
-0.11367211 0.10390341 1.013 0
-0.11100791 0.10390341 1.013 0
-0.16429171 0.10745566 1.013 0
-0.16251558 0.10745566 1.013 0
-0.11633629 0.10745566 1.013 0
-0.11396813 0.10627158 1.013 0
-0.10982382 0.10627158 1.013 5.5101298e-40
-0.16517977 0.10923178 1.013 0
-0.16162752 0.11011985 1.013 0
-0.11870447 0.11041588 1.013 0
-0.16073945 0.11367211 1.013 0
-0.15837128 0.11396813 1.013 1.8367099e-40
-0.11988855 0.11367211 1.013 2.7550649e-40
-0.15718719 0.11633629 1.013 4.5917748e-40
-0.15481904 0.11752038 1.013 5.5101298e-40
-0.15097077 0.11988855 1.013 5.5101298e-40
-0.12876917 0.11988855 1.013 1.3775324e-39
-0.12580898 0.11929651 1.013 5.5101298e-40
-0.12299677 0.11766839 1.013 4.5917748e-40
-0.14963868 0.12210871 1.013 1.102026e-39
-0.14564238 0.12255274 1.013 1.102026e-39
-0.14209013 0.12166467 1.013 9.1835496e-40
-0.13853787 0.1234408 1.013 1.102026e-39
-0.13365352 0.12299677 1.013 1.3775324e-39
-0.12965724 0.12255274 1.013 1.5612034e-39
-0.126105 0.12166467 1.013 9.1835496e-40
-0.1376498 0.12521693 1.013 2.3877229e-39
-0.13498563 0.12521693 1.013 2.3877229e-39
-0.15097077 0.13409756 1.013 8.2651947e-40
-0.14475432 0.13409756 1.013 0
-0.14209013 0.13409756 1.013 0
-0.1376498 0.13232143 1.013 2.6679055e-39
-0.13498563 0.13232143 1.013 1.7463122e-39
-0.126105 0.13232143 1.013 1.8388623e-39
-0.12255274 0.13232143 1.013 2.2987769e-39
-0.16169153 0.050919432 1.0190001 9.217412e-39
-0.15811823 0.050919436 1.0190001 1.6133879e-38
-0.15335384 0.050323885 1.0190001 2.139012e-38
-0.14996852 0.049988627 1.01825 2.2772691e-38
-0.14628936 0.049951151 1.0175 2.157488e-38
-0.14272133 0.049951151 1.0175 1.9824609e-38
-0.13841376 0.050056964 1.016 1.9363983e-38
-0.1339985 0.050919432 1.0190001 1.3553869e-38
-0.16246584 0.053559292 1.01825 1.3557432e-38
-0.1586611 0.053480394 1.0167501 1.7336388e-38
-0.15408996 0.053441599 1.016 1.9824958e-38
-0.14963648 0.052550904 1.016 2.2404627e-38
-0.1460737 0.052550904 1.016 2.0837668e-38
-0.1333071 0.053144705 1.016 1.25397e-38
-0.13046524 0.05379197 1.0170001 1.1795967e-38
-0.12774524 0.054492723 1.0190001 9.2123183e-39
-0.16477826 0.057895064 1.016 1.2087004e-38
-0.16210619 0.056113679 1.016 1.3835128e-38
-0.15854341 0.056113679 1.016 1.6139646e-38
-0.15587133 0.056113679 1.016 1.80736e-38
-0.12915054 0.056113679 1.016 1.00446e-38
-0.12690072 0.057356503 1.0170001 8.8442672e-39
-0.12321257 0.059082657 1.016 6.8145326e-39
-0.17330474 0.063425958 1.0190001 4.4279238e-39
-0.16952863 0.062051635 1.016 9.4100905e-39
-0.16655965 0.061457843 1.016 1.0885944e-38
-0.12042113 0.06243927 1.0175 6.8131005e-39
-0.11791869 0.063425958 1.0190001 6.3549852e-39
-0.17330472 0.066105925 1.0190001 3.7904815e-39
-0.17012241 0.065020613 1.016 9.5941231e-39
-0.11757152 0.065020613 1.016 6.7230377e-39
-0.11441874 0.066272199 1.0170001 6.3549782e-39
-0.17462265 0.069907747 1.0180001 2.3106669e-39
-0.17190382 0.068583384 1.016 8.4881286e-39
-0.17504549 0.072810963 1.0170001 4.3353596e-39
-0.11702536 0.10273218 1.0190001 0
-0.11434539 0.10273218 1.0190001 0
-0.16477826 0.10599251 1.016 0
-0.16234553 0.10614768 1.0175 0
-0.15966949 0.10703969 1.0175 0
-0.12042113 0.10703969 1.0175 0
-0.11781962 0.10569777 1.0166 0
-0.1612155 0.10955527 1.016 0
-0.15877616 0.11060904 1.0175 0
-0.12417194 0.11166542 1.0190001 0
-0.12166972 0.10963484 1.0167501 0
-0.15699215 0.11328506 1.0175 0
-0.15498063 0.11489944 1.016 2.7550649e-40
-0.12953188 0.11523871 1.0190001 9.1835496e-41
-0.12586588 0.11426057 1.01825 0
-0.12261878 0.11430564 1.016 0
-0.15290236 0.11727463 1.016 3.6734198e-40
-0.1498574 0.11774378 1.0175 6.4284847e-40
-0.14665815 0.11809986 1.0180001 8.2651947e-40
-0.13310517 0.118812 1.0190001 1.6530389e-39
-0.13023323 0.11774378 1.0175 9.1835496e-40
-0.12677537 0.11727463 1.016 5.5101298e-40
-0.14874579 0.1202436 1.016 8.2651947e-40
-0.1460737 0.1202436 1.016 8.2651947e-40
-0.14251092 0.1202436 1.016 8.2651947e-40
-0.13819247 0.12125264 1.0170001 9.1835496e-40
-0.13403328 0.12095575 1.0170001 1.0101905e-39
-0.13093191 0.1202436 1.016 1.3775324e-39
-0.14484578 0.046888225 1.0220001 1.6778904e-38
-0.14245656 0.046589568 1.022 1.7056554e-38
-0.13708085 0.047485523 1.022 1.2452588e-38
-0.13528894 0.047485523 1.022 9.6877662e-39
-0.16216753 0.050173379 1.022 8.0202519e-39
-0.15768778 0.049277429 1.022 1.5949743e-38
-0.15499993 0.049277429 1.022 2.0650647e-38
-0.13708085 0.049277429 1.022 1.6690652e-38
-0.13439299 0.049277429 1.022 1.3276915e-38
-0.13170514 0.050173379 1.022 1.2532831e-38
-0.12901726 0.05286124 1.022 9.121573e-39
-0.12632941 0.054653149 1.022 6.9996232e-39
-0.16933516 0.058236964 1.022 1.0605734e-38
-0.16754326 0.058236964 1.022 9.9665041e-39
-0.12543346 0.056445051 1.022 7.2751479e-39
-0.1227456 0.058236964 1.022 6.7234062e-39
-0.17381492 0.061820775 1.022 4.2402773e-39
-0.16933516 0.06002887 1.022 1.0973836e-38
-0.16754326 0.06002887 1.022 1.0516454e-38
-0.12095369 0.06002887 1.022 7.0886084e-39
-0.11378606 0.065404586 1.022 6.4457277e-39
-0.17650278 0.068988405 1.022 1.9361082e-39
-0.11916178 0.10303462 1.022 0
-0.16127157 0.10482653 1.022 0
-0.12095369 0.10482653 1.022 0
-0.15679182 0.11199415 1.022 0
-0.12543346 0.1110982 1.022 0
-0.15410396 0.11468202 1.022 0
-0.15052015 0.11557797 1.022 0
-0.12991323 0.11438337 1.0220001 9.1835496e-41
-0.14484578 0.11796717 1.0220001 9.1835496e-40
-0.13439299 0.11826582 1.022 1.1938615e-39
-0.15230504 0.042357024 1.028 1.345193e-38
-0.1496014 0.041455813 1.028 1.3637755e-38
-0.14578483 0.042295218 1.0265 9.5808219e-39
-0.14228716 0.041424908 1.0272499 9.4881989e-39
-0.13824612 0.041636057 1.028 1.2622138e-38
-0.16536242 0.047117036 1.027 7.8279825e-39
-0.16198169 0.046793394 1.0265 7.8297692e-39
-0.15838253 0.045893058 1.0265 7.3673463e-39
-0.15463215 0.045849226 1.0255001 9.3016286e-39
-0.15006341 0.045827746 1.025 1.4283807e-38
-0.14587002 0.044629633 1.025 1.2165148e-38
-0.14152686 0.045378454 1.025 1.3549146e-38
-0.13856153 0.045468312 1.025 1.2904895e-38
-0.13380989 0.045652084 1.026125 1.1980732e-38
-0.13007513 0.047163498 1.0280001 8.8439211e-39
-0.16852687 0.051369157 1.028 6.3510111e-39
-0.16580103 0.050069354 1.026 6.8123859e-39
-0.16264357 0.049422082 1.025 7.9209335e-39
-0.12949002 0.050356828 1.02575 8.8446316e-39
-0.12634665 0.050718378 1.027 6.9992784e-39
-0.16930515 0.054032695 1.0272499 4.6040025e-39
-0.16623791 0.053914994 1.025 1.0694292e-38
-0.12550214 0.053615473 1.025 6.8141837e-39
-0.12346622 0.054072797 1.028 7.1818999e-39
-0.17213173 0.058578864 1.028 2.1237365e-39
-0.16893366 0.056610744 1.025 9.7738088e-39
-0.16623791 0.056610744 1.025 1.3648919e-38
-0.12202615 0.057265036 1.026 7.089686e-39
-0.17702089 0.062900834 1.025 2.7550649e-40
-0.17393418 0.06038129 1.028 4.7062735e-39
-0.1716294 0.060205076 1.025 6.4562501e-39
-0.11794323 0.061222013 1.0270001 6.4457459e-39
-0.11428577 0.063442171 1.0265 7.8297384e-39
-0.17761996 0.066794693 1.025 2.5829112e-39
-0.11265166 0.065788567 1.028 1.1331736e-38
-0.17881806 0.070089497 1.025 7.9299032e-39
-0.17881806 0.073683828 1.025 8.5749124e-39
-0.16209938 0.1026627 1.0272499 0
-0.12214625 0.1029379 1.027 0
-0.11861299 0.10153991 1.025 0
-0.15891394 0.10664357 1.0280001 0
-0.12586945 0.10664357 1.0280001 0
-0.12310591 0.10603283 1.025 0
-0.15800455 0.10943371 1.026 0
-0.1559099 0.11084924 1.028 0
-0.13698441 0.11084924 1.028 0
-0.13337956 0.11084924 1.028 0
-0.12968069 0.10986716 1.0272499 0
-0.1262248 0.10943371 1.026 0
-0.15388128 0.11293657 1.0265 0
-0.14987861 0.11425263 1.0262001 0
-0.14578351 0.11518566 1.0265 0
-0.1423917 0.11445409 1.028 0
-0.13752514 0.11373311 1.028 3.6805945e-40
-0.13378444 0.11428532 1.0265 4.5953621e-40
-0.12939599 0.11232291 1.025 0
-0.14218348 0.11788493 1.0265 5.5101298e-40
-0.13851683 0.1178275 1.026 7.3468397e-40
-0.13568607 0.11771441 1.025 8.2651947e-40
-0.15726873 0.042480636 1.031 1.4464952e-38
-0.15455721 0.042480636 1.031 1.4373886e-38
-0.14642262 0.04067295 1.031 1.1611609e-38
-0.13648033 0.04067295 1.031 1.4283821e-38
-0.13376881 0.042480636 1.031 1.2347335e-38
-0.13105728 0.042480636 1.031 8.0141422e-39
-0.16630717 0.045192167 1.031 8.1031303e-39
-0.1626918 0.044288322 1.031 1.0039589e-38
-0.12985216 0.044890888 1.031 8.1967482e-39
-0.12683935 0.047301136 1.031 7.4595377e-39
-0.16992255 0.050615229 1.031 6.5332808e-39
-0.12563422 0.049711384 1.031 7.366647e-39
-0.12382654 0.050615229 1.031 6.9053116e-39
-0.17353791 0.057845972 1.031 2.9462707e-39
-0.17715329 0.060557503 1.031 0
-0.16359565 0.10032661 1.031 0
-0.12563422 0.10394198 1.031 0
-0.12201886 0.10092916 1.031 0
-0.13015343 0.10755736 1.031 0
-0.12744191 0.10574967 1.031 0
-0.1563649 0.10936504 1.031 0
-0.15365335 0.11026888 1.031 0
-0.15003799 0.11117273 1.031 0
-0.14642262 0.11117273 1.031 0
-0.13286497 0.10936504 1.031 0
-0.14913414 0.11298041 1.031 0
-0.14642262 0.11298041 1.031 0
-0.1419034 0.11298041 1.031 0
-0.17132346 0.035352457 1.034 6.6330505e-39
-0.17011485 0.037769724 1.0340002 8.1953063e-39
-0.16769756 0.038071878 1.034 8.5640818e-39
-0.15047458 0.038978353 1.034 1.5389814e-38
-0.14594221 0.038978353 1.0340002 1.1425047e-38
-0.14140984 0.038978353 1.034 1.1054448e-38
-0.13778394 0.038978353 1.034 1.4926656e-38
-0.16552202 0.041879069 1.034 8.1974937e-39
-0.16135225 0.042604249 1.034 1.1147698e-38
-0.15681988 0.040791299 1.034 1.4836624e-38
-0.15410048 0.040791299 1.034 1.5758966e-38
-0.13415805 0.040791299 1.034 1.151687e-38
-0.13053215 0.041697774 1.034 8.1041883e-39
-0.12781274 0.042604249 1.034 8.011271e-39
-0.16951051 0.046230137 1.034 7.2712046e-39
-0.16769756 0.044417191 1.034 8.5619434e-39
-0.12690628 0.045323662 1.034 7.9197914e-39
-0.1731364 0.051668979 1.034 6.8084328e-39
-0.17041698 0.048949562 1.034 6.7198329e-39
-0.12418684 0.048043087 1.034 6.9060178e-39
-0.1223739 0.051668979 1.034 7.1808068e-39
-0.17374073 0.054690555 1.0340002 4.9691823e-39
-0.1223739 0.054388396 1.034 6.9974932e-39
-0.18129468 0.058920763 1.034 1.0231183e-38
-0.17766878 0.058014292 1.034 4.6054403e-39
-0.17494936 0.057107821 1.034 1.7473856e-39
-0.12056095 0.058014292 1.034 6.6290652e-39
-0.18129468 0.061640181 1.034 1.1058784e-38
-0.1223739 0.098805591 1.034 0
-0.16135225 0.10152501 1.034 0
-0.12599979 0.10243148 1.034 0
-0.16044578 0.10424443 1.034 0
-0.15772635 0.10605738 1.034 0
-0.15410048 0.10787033 1.034 0
-0.15138105 0.10787033 1.034 0
-0.13325158 0.10696385 1.034 0
-0.13053215 0.10515091 1.034 0
-0.12781274 0.10424443 1.034 0
-0.15047458 0.10968328 1.034 0
-0.14548896 0.11013651 1.034 0
-0.14110768 0.1108919 1.0340002 0
-0.13778394 0.10968328 1.034 0
-0.13506453 0.10968328 1.034 0
-0.15014669 0.035489216 1.038 1.4283487e-38
-0.14650677 0.035489216 1.038 1.0410919e-38
-0.16561635 0.038219158 1.038 8.1985741e-39
-0.16197643 0.039129138 1.038 1.0504502e-38
-0.15803319 0.038522486 1.038 1.41891e-38
-0.15469658 0.038219158 1.038 1.5941901e-38
-0.15014669 0.037309177 1.038 1.4467873e-38
-0.14559679 0.037309177 1.038 1.0317978e-38
-0.14195687 0.037309177 1.038 1.1330312e-38
-0.13831694 0.037309177 1.038 1.5018861e-38
-0.13467704 0.039129138 1.038 1.124028e-38
-0.13194709 0.039129138 1.038 8.5669657e-39
-0.1695596 0.041555755 1.038 7.7332632e-39
-0.16197643 0.040949099 1.038 1.0412303e-38
-0.15924649 0.040949099 1.038 1.2716125e-38
-0.12921716 0.040949099 1.038 7.6446394e-39
-0.12648721 0.042769056 1.038 8.1041897e-39
-0.17380618 0.046408977 1.038 5.7052886e-39
-0.17137957 0.045195669 1.038 7.0867937e-39
-0.12557723 0.045498997 1.038 7.7346841e-39
-0.18169266 0.051262207 1.038 1.0415198e-38
-0.17835608 0.050958879 1.038 7.6482408e-39
-0.17471614 0.050048899 1.038 5.8007395e-39
-0.17198621 0.048228938 1.038 6.4446767e-39
-0.12224065 0.050048899 1.038 6.7212552e-39
-0.18199599 0.054598801 1.038 1.0322301e-38
-0.17835608 0.054598797 1.038 7.2794611e-39
-0.17562613 0.053688817 1.038 5.6191844e-39
-0.12102734 0.054598797 1.038 6.5365136e-39
-0.11920737 0.054598797 1.038 6.1680744e-39
-0.18199599 0.057328735 1.038 1.0322301e-38
-0.11829739 0.058238715 1.038 6.5379584e-39
-0.11556746 0.058238715 1.038 8.0144771e-39
-0.11556746 0.060968656 1.038 7.4605761e-39
-0.16470636 0.099187814 1.038 0
-0.16197643 0.099187814 1.038 0
-0.12557723 0.099187814 1.038 0
-0.16106646 0.10100777 1.038 0
-0.15863985 0.10222109 1.038 0
-0.13376705 0.10282774 1.038 0
-0.12976314 0.10209975 1.038 0
-0.12557723 0.10100777 1.038 0
-0.15742654 0.10464769 1.038 0
-0.15469658 0.10555767 1.038 0
-0.15060169 0.10601266 1.038 0
-0.14650677 0.10646766 1.038 0
-0.14195687 0.10646766 1.038 0
-0.13801363 0.105861 1.038 0
-0.13498037 0.10525434 1.038 0
-0.14923671 0.10828761 1.038 0
-0.14559679 0.10828761 1.038 0
-0.14226019 0.10889427 1.038 0
-0.13831694 0.10828761 1.038 0
-0.13558702 0.10828761 1.038 0
-0.13871671 0.031941351 1.041 1.3361127e-38
-0.16944127 0.034983382 1.0410001 6.8152347e-39
-0.16609502 0.034679182 1.041 7.2729941e-39
-0.16244458 0.035591789 1.041 1.1056581e-38
-0.15751648 0.034861702 1.041 1.4927024e-38
-0.15362267 0.034374978 1.0410001 1.6495795e-38
-0.14966804 0.033766571 1.041 1.3177501e-38
-0.14571339 0.034374978 1.0410001 1.0410532e-38
-0.14236715 0.034679178 1.041 1.1884925e-38
-0.13871671 0.034679178 1.041 1.4558237e-38
-0.13537048 0.034983382 1.0410001 1.0870776e-38
-0.17704633 0.03924223 1.041 9.7712388e-39
-0.17370009 0.038633823 1.0410001 5.6167279e-39
-0.16244458 0.037417009 1.041 1.0872197e-38
-0.15970674 0.037417009 1.041 1.2898365e-38
-0.13415366 0.037417009 1.0410001 1.0133575e-38
-0.12989484 0.038633823 1.0410001 8.0141394e-39
-0.17613372 0.041980058 1.041 2.6708511e-39
-0.1733959 0.041980058 1.041 5.704581e-39
-0.12594017 0.041980058 1.041 7.827237e-39
-0.17704633 0.045630496 1.041 6.9128351e-39
-0.17430851 0.044717886 1.041 4.1354672e-39
-0.12502757 0.044717886 1.041 7.9190753e-39
-0.18282621 0.048976734 1.0410001 1.0411625e-38
-0.17795894 0.048368327 1.0410001 6.0787669e-39
-0.12137713 0.049280938 1.041 5.7078165e-39
-0.11863929 0.050193548 1.041 6.2581051e-39
-0.11590146 0.050193548 1.041 8.934672e-39
-0.11818299 0.053387679 1.041 6.5372073e-39
-0.11590146 0.053843986 1.0410001 8.2010264e-39
-0.15833783 0.099018186 1.041 0
-0.15423109 0.09947449 1.041 0
-0.12928644 0.09886609 1.0410001 0
-0.12594017 0.097649269 1.041 0
-0.15666471 0.10190812 1.0410001 0
-0.15331846 0.10221232 1.041 0
-0.15058064 0.10312493 1.041 0
-0.14145453 0.10312493 1.041 0
-0.13841252 0.10251653 1.0410001 0
-0.13460997 0.10175602 1.041 0
-0.14966804 0.10495015 1.041 0
-0.14571339 0.10555856 1.0410001 0
-0.14236715 0.10495015 1.041 0
-0.13962932 0.10495015 1.041 0
-0.15695576 0.030289711 1.0470001 1.3174972e-38
-0.15376031 0.030202918 1.044 1.4466798e-38
-0.15053068 0.030289711 1.0470001 1.1333233e-38
-0.1468592 0.030289711 1.0470001 7.2740647e-39
-0.14186221 0.030202918 1.044 9.4860073e-39
-0.13748193 0.030246314 1.0455 7.6463813e-39
-0.13400903 0.030289711 1.0470001 1.6300139e-38
-0.13033754 0.030289711 1.0470001 2.3504444e-38
-0.16199748 0.03386388 1.044 1.0778524e-38
-0.15764877 0.032079425 1.0455 1.5021024e-38
-0.15376031 0.032033399 1.044 1.6219939e-38
-0.15009937 0.032033399 1.044 1.3363334e-38
-0.14643839 0.032033399 1.044 1.0043193e-38
-0.14277744 0.032033399 1.044 1.2069668e-38
-0.13637075 0.032033399 1.044 8.1070595e-39
-0.13351826 0.033516195 1.0446001 6.4417831e-39
-0.13015038 0.033910781 1.0455 5.9797413e-39
-0.12904884 0.037524838 1.044 6.5393611e-39
-0.12673007 0.038781103 1.0450001 5.4326702e-39
-0.12538788 0.041185796 1.044 6.6279708e-39
-0.12024098 0.042222019 1.0470001 1.0670168e-38
-0.11840523 0.042222019 1.0470001 2.3504451e-38
-0.12195837 0.046766661 1.046 5.5162296e-39
-0.11840523 0.046811372 1.0470001 1.7023418e-38
-0.11806595 0.04850772 1.044 6.7180182e-39
-0.13400903 0.094540611 1.0470001 0
-0.13125542 0.094540611 1.0470001 0
-0.15726611 0.097412571 1.0450001 0
-0.15360165 0.098634645 1.0450001 0
-0.13375303 0.098022729 1.0450001 0
-0.13026917 0.096710369 1.044 0
-0.15017457 0.1013986 1.0458001 0
-0.14687446 0.10213184 1.0458001 0
-0.14231983 0.10204925 1.044 0
-0.13676263 0.10004783 1.0470001 0
-0.15832599 0.026694497 1.05 2.3509886e-38
-0.16170116 0.029149165 1.05 1.3550276e-38
-0.15863281 0.029149165 1.05 1.1613446e-38
-0.14820048 0.028535498 1.05 6.8167187e-39
-0.14543898 0.028535498 1.05 6.9974525e-39
-0.141757 0.028535498 1.05 9.2965601e-39
-0.13715449 0.028535498 1.05 1.6676486e-38
-0.13439298 0.028535498 1.05 2.1385418e-38
-0.1261085 0.030376498 1.05 2.3509886e-38
-0.16200799 0.032217499 1.05 9.4903205e-39
-0.12610848 0.0340585 1.0500001 1.8150618e-38
-0.12181282 0.03528583 1.05 1.1514406e-38
-0.12488116 0.038354166 1.05 3.4022532e-39
-0.12150599 0.038660996 1.05 7.3659478e-39
-0.11874449 0.038660996 1.05 2.3509886e-38
-0.1242675 0.042342994 1.05 6.253094e-39
-0.12242649 0.042342994 1.05 2.2958874e-39
-0.11690348 0.043263495 1.05 2.3509886e-38
-0.1242675 0.045104496 1.05 6.6279736e-39
-0.12150599 0.045104496 1.05 4.3162683e-39
-0.11751716 0.045718163 1.05 2.1009096e-38
-0.1150625 0.053388998 1.05 1.2257638e-38
-0.13838182 0.094197832 1.05 0
-0.15464398 0.096652485 1.05 0
-0.150962 0.098493494 1.05 0
-0.13776816 0.097879827 1.05 0
-0.16354917 0.03049222 1.054 1.3269691e-38
-0.15615712 0.028644206 1.054 1.33637e-38
-0.15430911 0.028644206 1.054 1.3548088e-38
-0.14198904 0.094556689 1.0540001 0
-0.15660159 0.026872464 1.057 2.3141106e-38
-0.15403865 0.026910596 1.0585001 2.2770528e-38
-0.15289505 0.028725738 1.057 1.1888567e-38
-0.15104178 0.028725738 1.057 1.0873326e-38
