# .PCD v0.7 - Point Cloud Data file format
VERSION 0.7
FIELDS x y z rgb
SIZE 4 4 4 4
TYPE F F F F
COUNT 1 1 1 1
WIDTH 130
HEIGHT 1
VIEWPOINT 0 0 0 1 0 0 0
POINTS 130
DATA ascii
0.019840719 0.038818799 0.98400003 0
0.022428639 0.038818799 0.98400003 0
0.018690534 0.042844452 0.98400009 1.1210388e-44
0.022404972 0.042227279 0.98300004 1.8438846e-40
0.025659857 0.042538144 0.98220009 9.2558566e-41
0.014046829 0.046153873 0.98100007 1.658462e-39
0.018079497 0.046487004 0.98200005 5.6051939e-45
0.02239445 0.046510234 0.98250002 0
0.02583975 0.046510234 0.98250002 6.4645401e-40
0.028380331 0.047300551 0.98100001 4.2428515e-39
0.014059979 0.05021897 0.98200005 7.6562688e-39
0.018060211 0.049880575 0.98100007 2.9427268e-44
0.022360258 0.049880579 0.98100001 0
0.025800299 0.049880575 0.98100001 3.6885427e-39
0.028380331 0.049880579 0.98100001 9.1266737e-39
0.013779884 0.052540824 0.98250002 1.6136078e-38
0.018427357 0.053214889 0.98220009 5.1662119e-39
0.02236026 0.053320616 0.98100001 7.6529379e-39
0.025800299 0.05332062 0.98100001 1.3643196e-38
0.028380331 0.053320616 0.98100001 1.7233054e-38
0.025879201 0.056934241 0.98400003 2.0558556e-38
0.028467119 0.056934237 0.98400003 1.5394114e-38
0.018170668 0.038937148 0.98699999 0
0.017016975 0.041244533 0.98699999 3.657389e-43
0.014709589 0.054512009 0.98699999 2.249539e-38
0.016440129 0.054512009 0.98699999 1.9268571e-38
0.019035939 0.056242548 0.98699999 2.0745481e-38
0.022497017 0.057107821 0.98699999 2.1116758e-38
0.025958098 0.059703626 0.98699999 1.7611198e-38
0.019074513 0.037282001 0.98900002 0
0.021675583 0.037282001 0.98900002 0
0.01300535 0.054622471 0.98900002 2.2307748e-38
0.013882235 0.057267591 0.98975003 2.1109181e-38
0.01820749 0.058379572 0.98900002 2.2771232e-38
0.022542607 0.059824612 0.98900002 2.2773039e-38
0.029478792 0.059824612 0.98900002 1.1338951e-38
0.013914453 0.060006075 0.99199998 1.7049685e-38
0.017682949 0.061745387 0.99199998 1.89872e-38
0.021161564 0.06232515 0.99199998 1.8895385e-38
0.02605015 0.062521674 0.99049997 1.733136e-38
0.029218715 0.062200665 0.99000001 1.2536418e-38
0.026089597 0.065223999 0.99199998 1.4750244e-38
0.014828817 0.062804401 0.995 6.6376257e-39
0.016573383 0.062804401 0.995 1.4934847e-38
0.022388605 0.063095167 0.99500006 1.7053654e-38
0.017445665 0.065421246 0.995 8.7546108e-39
0.021807082 0.065421246 0.995 7.3737446e-39
0.011373873 0.062993757 0.99800003 7.4710942e-39
0.013123699 0.062993757 0.99800003 1.3843834e-39
0.014873526 0.065618493 0.99800003 4.8882489e-39
0.017498266 0.067368321 0.99800003 1.1057366e-38
0.021872833 0.066785052 0.99800003 7.4670851e-39
0.026247401 0.067368321 0.99800003 1.5117232e-38
0.013761329 0.067053311 1.0020001 5.8137183e-39
0.021938583 0.067570835 1.001 7.1004704e-39
0.014082773 0.069533683 1.0039999 9.8667261e-39
0.017603464 0.070413858 1.0039999 1.3458426e-38
0.021992497 0.070379235 1.0035 1.2995628e-38
0.02636575 0.070309982 1.0025001 1.5119392e-38
0.029045718 0.071294032 1.0039999 1.1984003e-38
0.023764677 0.073054381 1.0039999 1.2357318e-38
0.026405197 0.073054381 1.0039999 1.5026828e-38
0.015007655 0.071507066 1.007 1.1802855e-38
0.017656066 0.073272668 1.007 1.5026084e-38
0.021187279 0.073272668 1.007 9.2198489e-39
0.014462078 0.074671544 1.01 9.1248506e-39
0.017708667 0.075261831 1.01 1.6501953e-38
0.022135835 0.075261831 1.01 6.0892262e-39
0.025677565 0.075261831 1.01 1.6041005e-38
0.023021266 0.077918127 1.01 7.7518948e-39
0.025677565 0.077918127 1.01 1.6041359e-38
0.015097077 0.078149572 1.013 5.9905986e-39
0.017761268 0.078149572 1.013 1.5672552e-38
0.020425456 0.078149572 1.013 8.9436852e-39
0.017761268 0.081701823 1.013 1.6589828e-38
0.021757551 0.08125779 1.013 9.9593042e-39
0.025753837 0.080813758 1.013 1.6409771e-38
0.0133604 0.078381017 1.016 3.5009144e-39
0.015141787 0.081943788 1.016 1.179027e-38
0.022267334 0.082834482 1.016 1.8564402e-39
0.024939414 0.082834482 1.016 1.4018762e-38
0.015186498 0.084865719 1.0190001 1.1241342e-38
0.017813867 0.084615864 1.016 1.4006886e-38
0.02137664 0.084615864 1.016 1.004467e-38
0.025854655 0.08559072 1.0170001 1.4380737e-38
0.029392879 0.085506558 1.016 8.2968836e-39
0.025853775 0.088265434 1.0170001 1.4840604e-38
0.029392879 0.088178635 1.016 8.6649263e-39
0.022398831 0.086907469 1.022 7.2823155e-39
0.022398831 0.088699371 1.022 6.9067185e-39
0.025982646 0.09049128 1.0220001 1.4289982e-38
0.015275915 0.087162577 1.025 5.2583122e-39
0.017971667 0.087162577 1.025 1.1614109e-38
0.020667415 0.087162577 1.025 1.2253775e-38
0.015298271 0.089991145 1.0265 0
0.017997967 0.089991145 1.0265 3.0403286e-39
0.021286635 0.090246402 1.026 6.3572105e-39
0.021629117 0.093726188 1.028 1.2810874e-38
0.026058916 0.093452662 1.0250001 1.4472557e-38
0.022530332 0.09733104 1.028 9.7716353e-39
0.026108887 0.097237244 1.027 1.4196342e-38
0.025233973 0.10093589 1.028 1.5673983e-38
0.015365336 0.093095861 1.031 0
0.018076867 0.093999706 1.031 7.2816667e-39
0.01898071 0.097615078 1.031 7.0058421e-39
0.020788398 0.097615078 1.031 1.0232689e-38
0.01898071 0.10032661 1.031 6.9154738e-39
0.021993522 0.10092916 1.031 8.4827462e-39
0.025307612 0.10394198 1.031 1.6871817e-38
0.028019143 0.10213429 1.031 9.1280946e-39
0.022596082 0.10755736 1.031 1.9912111e-38
0.025307611 0.10665351 1.031 1.7882721e-38
0.022596082 0.10936504 1.031 1.963625e-38
0.02440377 0.10936504 1.031 1.7884173e-38
0.015410047 0.095179699 1.034 0
0.015410047 0.097899117 1.034 0
0.017222993 0.097899117 1.034 5.3505681e-39
0.015410047 0.10061853 1.034 0
0.01782731 0.10182717 1.0340002 5.5331811e-39
0.020848887 0.10243148 1.034 8.4798694e-39
0.022661833 0.10424443 1.034 1.2169858e-38
0.013649699 0.095547892 1.038 1.8367099e-40
0.013649699 0.09736786 1.038 1.4012985e-44
0.0181996 0.10464769 1.038 8.0275036e-39
0.021839518 0.10555767 1.038 1.3275095e-38
0.0182522 0.10677537 1.041 1.1624219e-38
0.020990029 0.10677537 1.041 1.0704064e-38
0.021080766 0.10998791 1.0455 1.936289e-38
0.018409997 0.11045999 1.05 1.8533126e-38
0.026694497 0.11138049 1.05 1.5210481e-38
