# .PCD v0.7 - Point Cloud Data file format
VERSION 0.7
FIELDS x y z rgb
SIZE 4 4 4 4
TYPE F F F F
COUNT 1 1 1 1
WIDTH 167
HEIGHT 1
VIEWPOINT 0 0 0 1 0 0 0
POINTS 167
DATA ascii
0.026578778 0.043726377 0.97799999 0
0.029150918 0.043726377 0.97799999 9.3278834e-41
0.026578778 0.046298519 0.97799999 0
0.029150918 0.046298519 0.97799999 2.1212184e-39
0.026578778 0.049728036 0.97799999 1.821688e-44
0.029150918 0.049728036 0.97799999 9.306763e-39
0.026578778 0.053157557 0.97799999 1.2638381e-38
0.029150918 0.053157557 0.97799999 2.1010572e-38
0.019840719 0.038818799 0.98400003 0
0.022428639 0.038818799 0.98400003 7.2307001e-43
0.02613957 0.03820426 0.98300004 1.8439266e-40
0.029285051 0.037896983 0.98250002 0
0.019150607 0.042614412 0.98400003 2.5223372e-44
0.022393135 0.042204924 0.98250002 2.7695543e-40
0.025628299 0.041796483 0.98100007 1.1992424e-39
0.029756347 0.041108478 0.98100007 3.6986292e-40
0.01897808 0.045719918 0.98400003 1.1074798e-39
0.022692516 0.046248548 0.98300004 0
0.024940288 0.046440542 0.98100001 0
0.023220269 0.049880579 0.98100001 8.6880505e-44
0.024940288 0.049880579 0.98100001 2.2420775e-44
0.02329128 0.05262104 0.98400003 4.5241131e-39
0.024940288 0.053320616 0.98100001 1.1713182e-38
0.023362288 0.035476066 0.98699999 0
0.025958098 0.035476066 0.98699999 0
0.029419178 0.035476066 0.98699999 0
0.019901209 0.037206605 0.98699999 0
0.022497017 0.037206605 0.98699999 0
0.025092829 0.037206605 0.98699999 8.4077908e-45
0.019035939 0.047589846 0.98699999 2.3089279e-39
0.021631747 0.047589846 0.98699999 0
0.019035939 0.049320389 0.98699999 5.3507363e-39
0.021631747 0.050185658 0.98699999 9.3886997e-44
0.022208594 0.053935163 0.98699999 1.9178867e-38
0.025958098 0.056242548 0.98699999 2.3509886e-38
0.018822324 0.035040073 0.99100006 0
0.021997465 0.033574432 0.99050009 2.0265186e-39
0.0260107 0.033813909 0.98900002 4.2362738e-39
0.02861177 0.033813909 0.98900002 1.9618179e-44
0.01820749 0.038149025 0.98900002 1.7509855e-39
0.019074513 0.051154375 0.98900002 1.2263194e-38
0.019074513 0.052888423 0.98900002 1.917779e-38
0.020002026 0.054788157 0.99199998 2.3509865e-38
0.022593234 0.057354376 0.99125004 2.240136e-38
0.0260107 0.05809056 0.98900002 2.0834437e-38
0.029501807 0.057267591 0.98975003 1.8160736e-38
0.032177169 0.058266766 0.99199998 1.152221e-38
0.026089597 0.060006075 0.99199998 1.94533e-38
0.029568212 0.060875729 0.99199998 7.5618311e-39
0.032177169 0.060875729 0.99199998 7.0093748e-39
0.018317949 0.032274481 0.995 4.6983183e-39
0.020062516 0.032274481 0.995 0
0.018317949 0.054953847 0.995 2.2309503e-38
0.018317949 0.057570696 0.995 1.7698272e-38
0.020062516 0.057570696 0.995 2.221658e-38
0.023551648 0.060187545 0.995 2.1109189e-38
0.026168499 0.061932109 0.995 5.624379e-39
0.029657632 0.063676685 0.995 2.4903582e-39
0.016623352 0.05774428 0.99800003 1.3731381e-38
0.01837318 0.060369018 0.99800003 1.0499091e-38
0.021872833 0.060952298 0.99800003 1.8708489e-38
0.027122313 0.063868672 0.99800003 0
0.033246703 0.063868672 0.99800003 9.3099439e-39
0.029747054 0.065618493 0.99800003 4.7960225e-39
0.032371793 0.065618493 0.99800003 1.1060942e-38
0.01729342 0.061845031 1.003 7.6508038e-39
0.02106104 0.062305581 1.001 1.234953e-38
0.017603464 0.065132819 1.0039999 1.05103e-38
0.022206623 0.065744296 1.0032499 1.1430114e-38
0.026166046 0.066207267 1.0016 5.9934404e-39
0.029836472 0.067570835 1.001 6.5422688e-39
0.033639163 0.066985808 1.0010002 1.050813e-38
0.037407361 0.067333251 1.0039999 9.8616912e-39
0.02992589 0.070413858 1.0039999 3.4133907e-39
0.034256626 0.070273593 1.002 1.0875473e-38
0.038611908 0.070203468 1.001 1.0415574e-38
0.033446584 0.073054381 1.0039999 1.0325185e-38
0.036967278 0.073934555 1.0039999 9.8627646e-39
0.018538868 0.067975856 1.007 1.0601696e-38
0.020304475 0.067975856 1.007 1.1431815e-38
0.027366901 0.070624262 1.007 0
0.030015312 0.073272668 1.007 3.1375325e-39
0.034429327 0.075038284 1.007 1.014009e-38
0.017413523 0.069358945 1.01 9.8634484e-39
0.022135835 0.069949232 1.01 1.3091746e-38
0.025677565 0.070834666 1.01 1.0145837e-38
0.026563 0.073490962 1.01 4.889604e-39
0.03010473 0.075261831 1.01 3.6889014e-39
0.03276103 0.075261831 1.01 9.6794719e-39
0.030990165 0.0770327 1.01 6.3744913e-39
0.033941612 0.077622995 1.01 1.0509221e-38
0.036302764 0.077918127 1.01 1.0507065e-38
0.01864933 0.071933128 1.013 8.4847389e-39
0.022201583 0.071933135 1.013 1.2724411e-38
0.01864933 0.073709257 1.013 9.4013002e-39
0.022201583 0.074597321 1.013 1.2720815e-38
0.0266419 0.075485386 1.013 5.0711128e-39
0.0266419 0.078149572 1.013 4.795958e-39
0.029898133 0.078445598 1.013 2.8641644e-39
0.032858342 0.079037629 1.013 1.0970208e-38
0.027529962 0.080813758 1.013 2.1523944e-42
0.030194154 0.081701823 1.013 3.5109855e-39
0.033746406 0.081701823 1.013 1.1154952e-38
0.030194152 0.084366016 1.013 3.783611e-39
0.032858342 0.084366016 1.013 1.0418094e-38
0.01870456 0.075708933 1.016 9.8601189e-39
0.01870456 0.078381017 1.016 4.2430869e-39
0.02137664 0.078381017 1.016 1.3185746e-38
0.02404872 0.078381017 1.016 1.1615963e-38
0.018759791 0.082185745 1.0190001 3.4170159e-39
0.0214082 0.082066081 1.0175 1.2910292e-38
0.025473831 0.082121931 1.016 7.653682e-39
0.025853779 0.08559072 1.0170001 5.3505989e-39
0.030283574 0.086397253 1.016 4.7023317e-39
0.032955654 0.086397253 1.016 9.956049e-39
0.026461162 0.089497291 1.0175002 2.6754851e-39
0.030283574 0.089960024 1.016 5.1683993e-39
0.032955654 0.088178635 1.016 1.1061311e-38
0.026799701 0.092905626 1.0190001 2.3822074e-44
0.030283574 0.093522795 1.016 5.6278767e-39
0.021502879 0.086011514 1.022 1.2913879e-38
0.022398831 0.088699371 1.022 1.8805445e-38
0.024190737 0.090491273 1.022 1.1431972e-38
0.02508669 0.093179137 1.022 5.7146983e-39
0.017073084 0.079973914 1.025 6.7299307e-39
0.015320626 0.082911618 1.028 8.6674906e-39
0.017098069 0.082791954 1.0265 6.3622397e-39
0.015320626 0.085615262 1.028 7.6544429e-39
0.017971667 0.086263999 1.025 6.3665375e-39
0.018010458 0.090056241 1.0272499 8.3019339e-39
0.021266472 0.090157859 1.025 1.8533512e-38
0.021929523 0.093425781 1.0280001 2.0005389e-38
0.024261748 0.094351247 1.025 9.6809517e-39
0.015365336 0.0876728 1.031 7.9299256e-39
0.015365336 0.090384334 1.031 8.4863111e-39
0.01837815 0.093698427 1.031 6.5484022e-39
0.020788398 0.094903551 1.031 1.8535262e-38
0.015410047 0.093366757 1.034 6.4573038e-39
0.017222993 0.095179699 1.034 4.5158258e-39
0.022661833 0.096992642 1.034 1.8715732e-38
0.025381252 0.096992642 1.034 3.5956394e-39
0.029007148 0.096992642 1.034 7.3938392e-40
0.0181996 0.09736786 1.038 4.7978301e-39
0.021536192 0.098581165 1.038 1.7242032e-38
0.025479438 0.099187814 1.038 3.3186895e-39
0.030029338 0.099187814 1.038 5.5335735e-39
0.021839518 0.10100777 1.038 1.3738944e-38
0.025479438 0.10100777 1.038 8.4840663e-39
0.0182522 0.09947449 1.041 2.4936288e-39
0.01916481 0.10129971 1.041 6.0888997e-39
0.021902639 0.10312493 1.041 1.4934963e-38
0.025553079 0.10312493 1.041 1.2166564e-38
0.029203519 0.10221232 1.041 1.6408633e-38
0.025553079 0.10495015 1.041 2.0373442e-38
0.01927527 0.10371931 1.0470001 1.2353846e-38
0.01927527 0.10555505 1.0470001 1.9084145e-38
0.022292759 0.10596534 1.0450001 1.991281e-38
0.025700361 0.10739079 1.0470001 2.0833684e-38
0.028413206 0.10632169 1.0455 1.9634804e-38
0.021171499 0.10769849 1.05 1.8530974e-38
0.030376496 0.10769849 1.05 1.4659825e-38
0.023012497 0.11045999 1.05 1.3547682e-38
0.025773998 0.11046 1.05 1.7328804e-38
0.029149165 0.11015316 1.05 1.5486321e-38
0.017556127 0.10626076 1.054 1.9452908e-38
0.03049222 0.10626076 1.054 1.6499774e-38
0.032340232 0.10533676 1.054 9.8609877e-39
