# .PCD v0.7 - Point Cloud Data file format
VERSION 0.7
FIELDS x y z rgb
SIZE 4 4 4 4
TYPE F F F F
COUNT 1 1 1 1
WIDTH 99
HEIGHT 1
VIEWPOINT 0 0 0 1 0 0 0
POINTS 99
DATA ascii
-0.10461 0.17409547 0.87099999 2.0008634e-38
-0.10139906 0.17382896 0.8696667 1.9637334e-38
-0.098501384 0.17409547 0.87099999 1.733139e-38
-0.10662458 0.17566207 0.875 1.9177429e-38
-0.097196907 0.17526057 0.87300003 1.4569781e-38
-0.10944219 0.17908722 0.87300003 4.4152785e-39
-0.10638087 0.1783219 0.87300009 1.041232e-38
-0.10178888 0.1783219 0.87300009 9.590135e-39
-0.09811531 0.17801575 0.87300009 7.9317038e-39
-0.11051313 0.18193866 0.87420005 6.451913e-39
-0.10638087 0.18214855 0.87300009 5.2569922e-39
-0.10194318 0.18242674 0.87433338 6.2717971e-39
-0.098186664 0.18103166 0.875 1.2932752e-39
-0.10892583 0.18563417 0.875 5.4402722e-39
-0.10650185 0.18503934 0.87400007 6.9139772e-39
-0.10355625 0.18486707 0.875 9.7730843e-39
-0.096433327 0.17898026 0.88 1.0513184e-38
-0.098523304 0.18319178 0.87800002 6.1777644e-39
-0.110069 0.18704033 0.87800002 6.6398846e-39
-0.10545073 0.18704033 0.87800002 6.1807576e-39
-0.10210992 0.18650977 0.87840003 1.069252e-38
-0.098929495 0.18578261 0.87933338 6.0813102e-39
-0.10954826 0.18900932 0.88 3.9683553e-39
-0.10723386 0.18900932 0.88 2.9552376e-39
-0.096652493 0.17706738 0.88200003 1.3186846e-38
-0.098198935 0.18634602 0.88200003 8.6587241e-39
-0.10515793 0.18943891 0.88200003 1.0051811e-38
-0.10206504 0.18943891 0.88200003 9.4940045e-39
-0.097978018 0.17651595 0.88700002 1.5945836e-38
-0.09542954 0.17844549 0.88499999 1.2352429e-38
-0.097200416 0.18273678 0.88700002 1.060793e-38
-0.09542954 0.18077305 0.88499999 1.2628287e-38
-0.097200416 0.18429199 0.88700002 1.2999484e-38
-0.11017069 0.19163494 0.88499999 3.5977848e-39
-0.10629144 0.19163494 0.88499999 7.6576267e-39
-0.10163635 0.19085908 0.88499999 8.3869479e-39
-0.097978018 0.1897352 0.88700002 1.013458e-38
-0.10886446 0.19362323 0.88700002 0
-0.10575405 0.19362323 0.88700002 1.02366e-38
-0.10264364 0.19284563 0.88700002 1.0693992e-38
-0.097419582 0.18704559 0.889 1.3456535e-38
-0.095860869 0.18704559 0.889 1.299634e-38
-0.10833057 0.19561851 0.889 0
-0.1059925 0.19561851 0.889 1.041991e-38
-0.10170604 0.19405979 0.889 9.1263038e-39
-0.097862832 0.19369827 0.89020008 9.2162433e-39
-0.10935539 0.19683971 0.89099997 0
-0.10623095 0.19762081 0.89099997 1.0603588e-38
-0.1023254 0.19683971 0.89099997 9.9589455e-39
-0.10998484 0.19933121 0.89399999 0
-0.10580489 0.1998537 0.89399999 1.1246789e-38
-0.10162495 0.19933121 0.89399999 9.4990506e-39
-0.098751239 0.19750246 0.89399999 4.6161896e-39
-0.1097236 0.20142117 0.89399999 0
-0.10737237 0.20142117 0.89399999 9.7676991e-39
-0.10996906 0.20344277 0.89600003 8.4077908e-45
-0.10582139 0.20299602 0.89679998 3.8722207e-39
-0.10222809 0.20288432 0.89699996 7.3756168e-39
-0.099868983 0.20131159 0.89700001 5.9948781e-39
-0.10942728 0.20547138 0.898 7.0064923e-45
-0.10785279 0.20547138 0.898 7.0064923e-45
-0.097154833 0.19983879 0.90100002 1.189072e-38
-0.097944707 0.20220843 0.90100002 1.014224e-38
-0.1113726 0.2061578 0.90100002 1.2914815e-39
-0.10596181 0.20638661 0.90200001 0
-0.10155481 0.20587727 0.90149999 9.4053808e-39
-0.098281056 0.20525718 0.90166664 9.5901658e-39
-0.11082819 0.20819868 0.903 1.7510093e-39
-0.10132863 0.20819868 0.903 1.2078708e-38
-0.098953746 0.20819868 0.903 8.1150357e-39
-0.11000501 0.21008177 0.90600002 1.1992649e-39
-0.10567486 0.20976208 0.90633339 1.9368187e-39
-0.1018897 0.21094352 0.90799999 1.1526253e-38
-0.09769398 0.21008177 0.90600002 9.9578455e-39
-0.10984983 0.21253556 0.90799999 4.6169842e-40
-0.10666578 0.21253556 0.90799999 2.7948618e-40
-0.09776704 0.21222347 0.9066667 9.4961261e-39
-0.10450743 0.2130037 0.91000003 5.5965759e-40
-0.1029119 0.2130037 0.91000003 7.0133517e-39
-0.10965434 0.2153067 0.91299999 1.1089035e-39
-0.10565235 0.2153067 0.91299999 3.7092931e-40
-0.10170604 0.21502441 0.91350007 8.3001122e-39
-0.098448783 0.2153067 0.91299999 7.4692557e-39
-0.10947831 0.21783431 0.91420001 1.8878153e-40
-0.10576808 0.21794723 0.91400003 7.0064923e-45
-0.10214867 0.21792935 0.91460001 7.8391397e-39
-0.10829025 0.22059125 0.91500002 1.2268528e-38
-0.10588379 0.22059125 0.91500002 9.3171648e-39
-0.10347735 0.22059125 0.91500002 1.2727659e-38
-0.10059749 0.21970493 0.91799998 9.2224525e-39
-0.10634755 0.22316688 0.91900003 1.4754553e-38
-0.10226185 0.22223981 0.91850001 1.7149814e-38
-0.11085537 0.2225199 0.92299998 1.4660532e-38
-0.10923705 0.22413823 0.92299998 1.5401011e-38
-0.10600039 0.22575657 0.92300004 1.6963651e-38
-0.1129002 0.22255278 0.92649996 1.2081237e-38
-0.11064234 0.22616595 0.92799997 1.6777087e-38
-0.10623008 0.22786759 0.92500007 1.6686338e-38
-0.10332042 0.22697949 0.92799997 1.6503018e-38
