# .PCD v0.7 - Point Cloud Data file format
VERSION 0.7
FIELDS x y z rgb
SIZE 4 4 4 4
TYPE F F F F
COUNT 1 1 1 1
WIDTH 144
HEIGHT 1
VIEWPOINT 0 0 0 1 0 0 0
POINTS 144
DATA ascii
0.078268796 0.16175552 0.99199998 1.0597087e-38
0.081747405 0.16175552 0.99199998 1.5295077e-38
0.078268796 0.16523412 0.99199998 1.2921808e-39
0.081747405 0.16436447 0.99199998 9.2913095e-41
0.067165814 0.15962785 0.995 0
0.068910383 0.15962785 0.995 1.2628638e-38
0.075888649 0.15962785 0.995 2.2766891e-38
0.078505501 0.15875557 0.995 2.3509151e-38
0.08199463 0.15875557 0.995 2.3509886e-38
0.08548376 0.15875557 0.995 1.5211503e-38
0.067165814 0.16137241 0.995 0
0.068910383 0.16137241 0.995 1.0968756e-38
0.07414408 0.16224471 0.995 8.2043279e-39
0.085193001 0.16195393 0.99500006 1.2165481e-38
0.075016364 0.16573383 0.995 1.4765678e-39
0.08199463 0.16660611 0.995 3.5981729e-39
0.084611475 0.16573383 0.995 6.3579336e-39
0.030621966 0.15485966 0.99800003 1.7239141e-38
0.034121618 0.15485966 0.99800003 1.4570151e-38
0.038496189 0.15485966 0.99800003 1.7881628e-38
0.050744973 0.15485966 0.99800003 2.7550649e-40
0.053369712 0.15485966 0.99800003 4.3162683e-39
0.030621966 0.15660948 0.99800003 0
0.033771653 0.1573094 0.99800009 4.2038954e-45
0.038787827 0.15719275 0.99800003 6.1750095e-39
0.041995842 0.15748438 0.99800003 2.0265396e-39
0.045495491 0.15748438 0.99800003 2.7550649e-40
0.049870059 0.15748438 0.99800009 9.1907243e-40
0.053369712 0.15748438 0.99800003 1.2875088e-39
0.058619194 0.1583593 0.99800003 9.6499017e-41
0.062118851 0.15748438 0.99800009 2.7766589e-40
0.066785052 0.15777603 0.99800003 0
0.069993064 0.15748438 0.99800003 2.0555656e-38
0.073492721 0.15748438 0.99800003 2.3509881e-38
0.077429831 0.15704693 0.99800003 2.3509886e-38
0.082241856 0.15660948 0.99800003 2.3509886e-38
0.084866591 0.15660948 0.99800003 2.3509886e-38
0.050744973 0.16010913 0.99800003 1.102026e-39
0.053369712 0.16010913 0.99800003 6.4396251e-40
0.058619194 0.16010913 0.99800003 1.8439126e-40
0.062118843 0.16098405 0.99800009 1.1982237e-39
0.066201769 0.16185896 0.99800003 1.1210388e-44
0.070430517 0.16229641 0.99800003 8.2042844e-39
0.073492721 0.16010913 0.99800003 2.2858293e-38
0.086616419 0.16360879 0.99800003 1.0594901e-38
-0.017603464 0.14698893 1.0039999 0
-0.014082773 0.14698893 1.0039999 0
-0.011442252 0.14698893 1.0039999 0
-0.020243986 0.15050963 1.0039999 0
-0.017578481 0.14940591 1.0025001 0
-0.014060417 0.14940591 1.0025001 1.8510592e-40
-0.010562079 0.14962944 1.0039999 7.3863143e-40
-0.0061612129 0.14962944 1.0039999 9.2559967e-41
-0.0017603466 0.14962946 1.0039999 9.4929073e-39
0.0014669554 0.14992285 1.0039999 2.3509827e-38
0.0061612129 0.15050963 1.0039999 2.3509886e-38
0.0096819056 0.15050963 1.0039999 1.8900104e-38
0.021124158 0.15050963 1.0039999 1.8253652e-38
0.026405197 0.15050963 1.0039999 2.0467832e-38
0.030219283 0.14992285 1.0039999 1.9547973e-38
0.03256641 0.14962944 1.0039999 2.2494666e-38
0.045700632 0.15116231 1.0025001 1.5388044e-38
0.050019972 0.151815 1.0010002 2.350988e-38
0.054407686 0.151815 1.001 2.3509886e-38
-0.020243986 0.15315014 1.0039999 1.2611686e-44
-0.017603464 0.15403032 1.0039999 3.685415e-43
-0.014082773 0.15315014 1.0039999 8.4077908e-45
-0.010562079 0.15315014 1.0039999 4.2038954e-45
-0.0061612129 0.15226999 1.0039999 1.4012985e-45
-0.0015843118 0.15367825 1.0039999 4.513623e-39
0.0017603466 0.15403032 1.0039999 1.3823867e-38
0.0061612125 0.15403032 1.0039998 1.8154993e-38
0.01056208 0.15403032 1.0039999 8.7610749e-39
0.014082773 0.15403032 1.0039999 9.6808424e-39
0.017603464 0.15403032 1.0039999 1.5850088e-38
0.022004332 0.15403032 1.0039998 1.5297598e-38
0.02636531 0.15379845 1.0025001 1.9084153e-38
0.029696733 0.15340105 1.0022 2.0102582e-38
0.033913147 0.15305005 1.0022 2.1297908e-38
0.038153231 0.15279002 1.0028 2.1941827e-38
0.042164158 0.15372175 1.002 2.1663802e-38
0.045632251 0.15444762 1.001 1.1938671e-39
0.049581196 0.15400887 1.001 1.0587696e-38
0.054700203 0.15415512 1.0010002 1.2617462e-38
0.057975717 0.15372175 1.0020001 1.6309312e-38
0.061640888 0.1540121 1.0016 1.3917939e-38
0.065620631 0.15420228 1.0018572 1.9169061e-38
0.070203468 0.15444762 1.001 2.249241e-38
0.073713645 0.15444762 1.001 2.3509886e-38
0.077842914 0.15480724 1.0022 2.3509886e-38
0.082109295 0.15454827 1.0028 2.3509886e-38
0.085376807 0.15579067 1.0039999 2.3509886e-38
0.026326301 0.15795779 1.001 0
0.029543959 0.15825032 1.0010002 0
0.035979275 0.15883535 1.001 0
0.037734363 0.15883535 1.001 0
0.05528523 0.15795779 1.001 6.4285268e-40
0.057625346 0.15766528 1.0010002 7.382769e-40
0.065815754 0.15708025 1.001 1.2856969e-39
0.086876795 0.15708025 1.001 8.0210198e-39
0.088631876 0.15883535 1.001 5.0653548e-39
-0.020304475 0.14742814 1.007 0
-0.017656066 0.14566255 1.007 1.0877663e-38
-0.014124852 0.14566255 1.007 1.0327001e-38
-0.010299372 0.14625108 1.007 5.5331965e-39
-0.0070624258 0.14742814 1.007 2.0236109e-39
0.021187279 0.14742814 1.007 2.3509828e-38
0.037960541 0.14742814 1.007 1.4848516e-38
0.041491754 0.14742814 1.007 1.7709805e-38
-0.022070084 0.15037082 1.007 4.6171103e-40
0.0026484097 0.14919375 1.007 2.3509886e-38
0.0061796228 0.14919375 1.007 2.3509886e-38
0.010887908 0.14978229 1.007 1.9913857e-38
0.017950334 0.15037082 1.007 2.3509872e-38
0.022511482 0.14963515 1.007 2.1758167e-38
0.026484098 0.14919375 1.007 1.5211936e-38
0.029132508 0.14919375 1.007 1.4567631e-38
0.034429327 0.15095936 1.007 2.3509886e-38
0.037960541 0.15007657 1.007 1.6878668e-38
0.042080294 0.15037082 1.007 1.7804922e-38
0.049436983 0.15095936 1.007 2.3509886e-38
0.052085392 0.15095936 1.007 2.3509886e-38
0.061796229 0.15095936 1.007 2.3415881e-38
0.060913429 0.15272497 1.007 2.2308096e-38
0.067093045 0.15272497 1.007 2.1571165e-38
0.070624262 0.15272497 1.007 2.3507276e-38
0.07415548 0.15272497 1.007 2.3509886e-38
-0.014166933 0.14432563 1.01 1.0695785e-38
-0.010625199 0.14432563 1.01 1.3183273e-38
-0.0061980332 0.14668678 1.01 6.3593671e-39
-0.0017708666 0.14786735 1.01 1.1613044e-38
0.0017708666 0.14786735 1.01 2.3509886e-38
0.018594099 0.14786735 1.01 2.3508327e-38
0.039844498 0.14609648 1.01 2.3509886e-38
0.042500798 0.14698192 1.01 2.1115327e-38
0.0061980328 0.14963824 1.01 2.3509886e-38
0.034531899 0.14963824 1.01 1.862174e-38
0.043386228 0.14963824 1.01 1.2168499e-38
0.046042532 0.14963824 1.01 6.7410584e-39
0.064636625 0.15140909 1.01 2.3509886e-38
-0.010656759 0.14297819 1.013 4.1473936e-39
-0.0071045067 0.14475432 1.013 1.179819e-38
0.046179295 0.14830658 1.013 2.2129841e-38
-0.014251093 0.14340162 1.016 3.9655023e-39
