# .PCD v0.7 - Point Cloud Data file format
VERSION 0.7
FIELDS x y z rgb
SIZE 4 4 4 4
TYPE F F F F
COUNT 1 1 1 1
WIDTH 454
HEIGHT 1
VIEWPOINT 0 0 0 1 0 0 0
POINTS 454
DATA ascii
0.0061366665 0.21478333 0.875 1.6573661e-39
0.0023143999 0.18206613 0.88000005 2.3368242e-38
0.0061717331 0.18283759 0.88 2.3459401e-38
0.010029066 0.18283759 0.88 2.3460127e-38
-0.0084861331 0.18746638 0.88 2.0969738e-38
-0.0061717331 0.18746638 0.88 2.1154838e-38
-0.0020058134 0.18684922 0.88000005 2.1612932e-38
0.0023143999 0.18592346 0.88000005 2.234796e-38
0.0061717331 0.18592346 0.88000005 2.2624563e-38
0.010013871 0.18564057 0.87866676 2.2808969e-38
0.013886399 0.18592346 0.88000005 2.2993712e-38
0.017302895 0.18614389 0.88000011 2.262349e-38
-0.010029066 0.1897808 0.88000005 2.0693122e-38
-0.0061717331 0.18978079 0.88 2.0970425e-38
-0.0021204373 0.19019611 0.87925005 2.0875715e-38
0.0023093349 0.19016692 0.87822235 2.1058315e-38
0.0061577065 0.19011919 0.87800014 2.1426746e-38
0.010006273 0.19011921 0.87800014 2.2258658e-38
0.013865361 0.19026238 0.87866676 2.1705495e-38
0.017743733 0.1897808 0.88000005 2.1793735e-38
-0.010029066 0.19363812 0.88000005 1.9586072e-38
-0.0061717331 0.19363813 0.88000005 2.0046333e-38
-0.0025303108 0.19370024 0.87828588 1.9677554e-38
0.0023091401 0.19396774 0.87800014 2.0138161e-38
0.0061577065 0.19396776 0.87800002 2.0506221e-38
0.010006274 0.19396774 0.87800014 2.105831e-38
0.013854841 0.19396776 0.87800002 2.1240905e-38
0.017743731 0.19363812 0.88000005 2.105616e-38
-0.013114933 0.19826692 0.88 1.8664132e-38
-0.010029066 0.19826691 0.88000005 1.8665566e-38
-0.0061629666 0.19796592 0.87866676 1.8573012e-38
-0.0023091401 0.19781633 0.87800014 1.8939995e-38
0.0023091403 0.19781633 0.87800014 1.9309131e-38
0.006157707 0.19781631 0.87800014 1.9769743e-38
0.010006274 0.19781633 0.87800014 1.967719e-38
0.013854841 0.19781634 0.87800014 1.9583202e-38
0.017743731 0.19826691 0.88000005 1.9675396e-38
0.020829599 0.19980985 0.88 1.9859785e-38
-0.013114933 0.20212427 0.88 1.8387188e-38
-0.010029066 0.20212428 0.88000005 1.8020205e-38
-0.0061647198 0.20189545 0.87900001 1.8112399e-38
-0.0023091403 0.2024346 0.87800014 1.8111682e-38
0.0023091403 0.2024346 0.87800014 1.8294635e-38
0.006157707 0.20243463 0.87800014 1.8479382e-38
0.010006273 0.20243461 0.87800014 1.8479741e-38
0.013854841 0.20243463 0.87800014 1.8570859e-38
0.017743733 0.20212428 0.88000005 1.8937842e-38
0.021343913 0.20238142 0.88 1.8843496e-38
-0.0095882285 0.20576118 0.88000011 1.7652153e-38
-0.0061717331 0.2059816 0.88000005 1.7835833e-38
-0.0023120623 0.20643982 0.87866676 1.8020945e-38
0.0023091401 0.20628318 0.87800014 1.8112052e-38
0.0061577065 0.20628317 0.87800002 1.7927295e-38
0.010006274 0.20628318 0.87800014 1.8019129e-38
0.013854841 0.20628318 0.87800002 1.8018411e-38
0.01773555 0.20587717 0.87955558 1.8019488e-38
0.021601066 0.2059816 0.88000005 1.8019129e-38
-0.0092575997 0.20906745 0.88 1.3607122e-38
-0.0061717331 0.20983893 0.88 9.6549562e-39
-0.0021189032 0.21005854 0.8785001 8.3671027e-39
0.0023091401 0.21013173 0.87800014 9.8368252e-39
0.006157707 0.21013175 0.87800014 1.2779136e-38
0.010006274 0.21013175 0.87800014 1.5534918e-38
0.013854841 0.21013173 0.87800014 1.7191533e-38
0.017743733 0.20983893 0.88000005 1.7556005e-38
-0.0057859998 0.21331054 0.88 1.5619237e-39
-0.002534318 0.21399786 0.87942863 1.1034609e-39
0.0023091401 0.21398032 0.87800014 1.8410427e-39
0.0061577065 0.2132106 0.87800002 2.5832657e-39
0.010006273 0.2139803 0.87800014 3.7706461e-39
0.013863169 0.21410173 0.87850004 1.1302226e-38
0.017743731 0.21369626 0.88000005 1.663802e-38
-0.0023143999 0.21678214 0.88 9.1980951e-40
0.0023097247 0.21645367 0.87866676 8.2724254e-40
0.010006274 0.21628945 0.87800002 3.4994613e-39
0.013854841 0.21628945 0.87800002 1.8367099e-40
0.017743733 0.21678214 0.88 1.2407496e-38
-0.0054125399 0.18325314 0.88200003 2.206923e-38
-0.0018778202 0.18192764 0.88200009 2.2992647e-38
0.00231966 0.18016027 0.88200009 2.3471295e-38
0.0061857598 0.18093348 0.88200003 2.3475268e-38
0.01005186 0.18170671 0.88200009 2.3468428e-38
0.01391796 0.18247992 0.88200003 2.3466968e-38
0.017474774 0.18263458 0.88200009 2.3466255e-38
-0.01005186 0.18737698 0.88200009 2.087752e-38
-0.00592802 0.18583056 0.88200009 2.1521473e-38
-0.0027062702 0.18518618 0.88200003 2.1980298e-38
0.0193305 0.1855728 0.88200003 2.2807151e-38
0.02087694 0.18789245 0.88200003 2.1700823e-38
0.02087694 0.19021213 0.88200003 2.1701524e-38
-0.013144741 0.19407824 0.88200009 1.9219089e-38
0.022202464 0.19452007 0.88200009 2.0687739e-38
0.022423383 0.19794433 0.88200009 1.9951979e-38
0.023351245 0.20150113 0.88200009 1.9212273e-38
0.025516262 0.20181042 0.88200009 1.8842061e-38
-0.013144741 0.20644975 0.88200009 1.7835817e-38
-0.0115983 0.20722295 0.88200003 1.7744351e-38
0.02396982 0.20644975 0.88200009 1.7835099e-38
0.025516262 0.20644975 0.88200009 1.7833664e-38
-0.01314474 0.20954262 0.88200003 1.4894928e-38
-0.01043847 0.21070245 0.88200003 1.0117739e-38
0.022423379 0.21031582 0.88200009 1.7465246e-38
-0.0098309405 0.21374013 0.88200009 1.7459604e-39
-0.0069589796 0.21495515 0.88200003 5.5388704e-40
0.022423381 0.21418193 0.88200003 1.6912798e-38
0.02551626 0.21572837 0.88200003 1.6272102e-38
0.02280999 0.21766144 0.88200003 1.6550497e-38
0.02551626 0.21804804 0.88200003 1.3977692e-38
0.02396982 0.22114092 0.88200003 1.0389272e-38
0.02551626 0.22114092 0.88200003 6.8037412e-39
0.014774463 0.17185034 0.88700002 2.3456174e-38
0.01632967 0.17185034 0.88700002 2.3454347e-38
-0.0054432233 0.17496075 0.88700002 2.3267391e-38
-0.0020217684 0.17433867 0.88700002 2.3452902e-38
0.0023328098 0.17418316 0.88700002 2.3452189e-38
0.0062208269 0.17418315 0.88700002 2.3453272e-38
0.010108843 0.17418316 0.88700002 2.3454005e-38
0.01399686 0.17418315 0.88700002 2.3455454e-38
0.017884877 0.17418316 0.88700002 2.3454e-38
-0.0085536363 0.17962636 0.88700002 2.3467725e-38
-0.0060653063 0.1783822 0.88700002 2.2719675e-38
-0.0023310564 0.17793617 0.88633335 2.3178121e-38
0.002329303 0.17780231 0.88566673 2.3462282e-38
0.0062161512 0.17793617 0.88633335 2.3468409e-38
0.010101245 0.17793615 0.88633335 2.3468421e-38
0.013980789 0.17786923 0.88600004 2.3464098e-38
0.017862864 0.17784692 0.88588893 2.3460856e-38
0.021513693 0.17910796 0.88700002 2.2993021e-38
-0.0095872264 0.18240832 0.88666672 2.30924e-38
-0.0063651255 0.18209612 0.8854 2.2628166e-38
-0.00387925 0.18154889 0.88499999 2.2259386e-38
0.01008605 0.18077306 0.88499999 2.3481054e-38
0.013965299 0.18077305 0.88499999 2.3475997e-38
0.018232474 0.18116099 0.88499999 2.346951e-38
0.021607906 0.18234263 0.88660002 2.2349448e-38
0.024624107 0.1822184 0.88700002 2.2621701e-38
-0.017107274 0.1874024 0.88700002 2.0876074e-38
-0.01399686 0.1866248 0.88700002 2.1059054e-38
-0.010540163 0.18560675 0.88585722 2.1520387e-38
-0.0069826497 0.18542814 0.88499999 2.1981006e-38
0.021889139 0.18582158 0.8854 2.2252915e-38
0.025216563 0.18606935 0.88700008 2.2252561e-38
-0.017657444 0.19000658 0.88671434 2.0230717e-38
-0.0139653 0.19008324 0.88500011 2.0139613e-38
0.022499649 0.19008324 0.88499999 2.142422e-38
0.025438894 0.19010319 0.88600004 2.1331664e-38
0.028771322 0.1897352 0.88700002 2.1332025e-38
-0.020995293 0.19362323 0.88700002 1.9033274e-38
-0.018070072 0.19370805 0.8865 1.9126546e-38
-0.01474115 0.19396248 0.88499999 1.9219447e-38
0.022499649 0.19318663 0.88499999 2.0963604e-38
0.026140738 0.19359019 0.88566673 2.0687022e-38
0.03010436 0.19406757 0.88700008 2.0501557e-38
-0.024105703 0.19751126 0.88700002 1.7925141e-38
-0.021772895 0.19751124 0.88700002 1.866413e-38
-0.017872602 0.19813982 0.88633335 1.84801e-38
-0.014741151 0.19784175 0.88499999 1.8571935e-38
0.0263789 0.19784175 0.88500011 1.9855839e-38
0.030312115 0.19818909 0.88655561 1.9672885e-38
0.033436947 0.19828886 0.88700002 1.949029e-38
-0.017872602 0.20202491 0.88633341 1.7926935e-38
-0.01474115 0.20172098 0.88499999 1.8019129e-38
0.027154749 0.20172098 0.88499999 1.921012e-38
0.030304905 0.20202491 0.88633341 1.8934614e-38
0.033436943 0.20217687 0.88700002 1.8476154e-38
-0.017685873 0.20581284 0.88674998 1.7281934e-38
-0.014741151 0.20560023 0.88499999 1.7558516e-38
0.027154749 0.20560023 0.88499999 1.8016618e-38
0.030312115 0.20596126 0.88655555 1.7924423e-38
-0.017107274 0.20995291 0.88700002 1.691495e-38
-0.014353224 0.21064326 0.88499999 1.4252464e-38
0.026378898 0.21025534 0.88499999 1.709611e-38
0.028771322 0.20995291 0.88700002 1.7277629e-38
-0.01632967 0.2130633 0.88700002 1.0938166e-38
-0.013973628 0.21425602 0.88550001 3.1224111e-39
0.026570886 0.21395838 0.88620007 1.6820963e-38
-0.014774463 0.21695133 0.88700002 2.3027201e-39
0.019396249 0.21956554 0.88499999 1.2131289e-38
0.021723799 0.21956554 0.88499999 1.4988597e-38
0.027216116 0.21772893 0.88700002 1.6367909e-38
0.028771322 0.21772893 0.88700002 1.2689471e-38
-0.0015552066 0.22006175 0.88700002 3.3197882e-39
0.0015552066 0.22006175 0.88700002 1.4391335e-42
0.021723799 0.22111723 0.88499999 1.2230665e-38
0.027175207 0.22128265 0.88566673 5.9703834e-39
0.03011591 0.2212972 0.8865 4.0443856e-39
0.033436943 0.22006175 0.88700002 5.4255348e-39
-0.00078110996 0.16793863 0.89099997 2.3462239e-38
0.0023433301 0.16793863 0.89099997 2.3461887e-38
0.0062488797 0.16793863 0.89099997 2.3460103e-38
0.0093733193 0.16793863 0.89099997 2.3461178e-38
0.014059979 0.16793863 0.89099997 2.3461901e-38
0.016403308 0.16793863 0.89099997 2.346262e-38
-0.0085922098 0.17106308 0.89099997 2.3462614e-38
-0.0062458115 0.17018598 0.89050001 2.3459023e-38
-0.0023407 0.17008996 0.88999999 2.3456488e-38
0.0023383624 0.16996317 0.88933337 2.3455766e-38
0.0062348531 0.16989973 0.889 2.345431e-38
0.010139818 0.17002657 0.88966668 2.3453611e-38
0.01402842 0.16989973 0.889 2.3456874e-38
0.017556563 0.1704814 0.88999999 2.345866e-38
-0.013278869 0.17496863 0.89099997 2.2995149e-38
-0.0099514807 0.1742353 0.89024997 2.3178448e-38
-0.0063907243 0.17348479 0.88900006 2.3362114e-38
-0.0027277484 0.17262749 0.889 2.3454313e-38
0.00233807 0.17223781 0.88900006 2.3453977e-38
0.0062348531 0.17223781 0.889 2.3453605e-38
0.010131637 0.17223781 0.88900006 2.345291e-38
0.013249063 0.17223781 0.889 2.3456174e-38
0.01870456 0.17223781 0.889 2.3455057e-38
0.021846823 0.17399085 0.88999999 2.3453979e-38
0.024214407 0.17496863 0.89099997 2.3452159e-38
-0.01379961 0.17835343 0.89099997 2.2349767e-38
-0.010136019 0.17775965 0.88933337 2.2903343e-38
-0.0070142099 0.17691395 0.889 2.3179919e-38
0.022081774 0.17743354 0.88900006 2.3451124e-38
0.025430871 0.17800908 0.88980001 2.2988692e-38
-0.017438654 0.1824507 0.89066666 2.1983185e-38
-0.014033972 0.1816576 0.88933337 2.2813306e-38
-0.011170778 0.18055096 0.88900006 2.3465893e-38
0.026238341 0.18107051 0.88900006 2.2434811e-38
0.029512981 0.18222867 0.89060003 2.2066742e-38
0.032025509 0.18356083 0.89099997 2.1697949e-38
-0.021074191 0.18654442 0.89033335 2.0322569e-38
-0.018154139 0.18588026 0.88928574 2.1521819e-38
-0.01402842 0.18470752 0.889 2.1978133e-38
0.027277483 0.18548688 0.889 2.234584e-38
0.029638348 0.18640535 0.88966668 2.160683e-38
0.03280662 0.18590416 0.89099997 2.151499e-38
-0.024828427 0.19003625 0.89059991 1.9583564e-38
-0.021998195 0.18986513 0.88980001 1.9952701e-38
0.031174267 0.19016302 0.889 2.1147994e-38
0.033557571 0.1896386 0.89019996 2.1055444e-38
0.036712166 0.19137195 0.89099997 1.9948756e-38
-0.025290456 0.19418404 0.88957143 1.8660908e-38
-0.022601342 0.19405979 0.88900006 1.9491374e-38
0.031174265 0.19250108 0.889 2.0780292e-38
0.034317993 0.19420473 0.88966668 2.0133499e-38
0.036712166 0.19371527 0.89099997 1.9948039e-38
-0.026690817 0.19775513 0.89019996 1.7188687e-38
0.035071049 0.19795658 0.889 1.9212632e-38
0.03763302 0.19815628 0.89060003 1.8936408e-38
-0.025739223 0.20200473 0.88966668 1.6365389e-38
-0.021821987 0.20185338 0.88900006 1.7650711e-38
0.035071053 0.20185338 0.88900006 1.7831512e-38
0.038246918 0.20215613 0.89033329 1.7189392e-38
-0.02575851 0.20605874 0.89033329 1.4436837e-38
-0.021821987 0.20575017 0.889 1.6639085e-38
0.034311417 0.20586631 0.88949996 1.7556364e-38
0.037945461 0.2059646 0.89059991 1.6181012e-38
-0.025246829 0.20951979 0.89066666 1.2226689e-38
-0.021838933 0.20980476 0.88966668 1.581007e-38
-0.019483916 0.20964694 0.88900006 1.6546174e-38
0.030914482 0.21016651 0.88900006 1.7277988e-38
0.033572648 0.21002495 0.89060003 1.6912082e-38
0.037493277 0.20855635 0.89099997 1.5080792e-38
-0.024214407 0.21402413 0.89099997 8.8255613e-39
-0.021847408 0.21378392 0.88999999 1.1218319e-38
-0.01818499 0.21432309 0.88900006 8.5515038e-39
0.029473359 0.21410778 0.88940001 1.663622e-38
0.032025509 0.21402413 0.89099997 1.5260489e-38
-0.021089969 0.21714857 0.89099997 3.3165358e-39
-0.018473413 0.218027 0.89033335 1.4729679e-39
0.030463289 0.21792969 0.89099997 1.1947232e-38
0.032025509 0.21792969 0.89099997 8.5464675e-39
-0.00078373996 0.16693661 0.89399999 2.3464412e-38
0.0026647158 0.16630962 0.89399999 2.3467311e-38
0.006008673 0.16641411 0.89399999 2.3468759e-38
0.010188621 0.16693661 0.89399999 2.3468036e-38
0.014107319 0.16693661 0.89399999 2.3462995e-38
-0.013323579 0.17163906 0.89399999 2.3458301e-38
-0.010188621 0.17111656 0.89399999 2.346193e-38
-0.0062699197 0.16850409 0.89399999 2.3460835e-38
-0.0031349596 0.16850409 0.89399999 2.3462251e-38
0.0117561 0.16850409 0.89399999 2.346153e-38
0.01880976 0.17007157 0.89399999 2.3461183e-38
0.02194472 0.17163906 0.89399999 2.3460835e-38
0.024295939 0.17163906 0.89399999 2.3456175e-38
-0.016458539 0.17477401 0.89399999 2.3085909e-38
-0.014368566 0.17372903 0.89399999 2.2903315e-38
-0.0117561 0.17320654 0.89399999 2.3457593e-38
0.025863418 0.17399026 0.89399999 2.3361767e-38
-0.017085532 0.17822246 0.89399999 2.2348362e-38
-0.014891059 0.17712523 0.89399999 2.2627073e-38
0.026908405 0.176864 0.89399999 2.3173416e-38
0.029520875 0.17895398 0.89399999 2.2710665e-38
-0.021160979 0.18261142 0.89399999 2.0875051e-38
-0.019071007 0.18156642 0.89399999 2.1612254e-38
0.03056586 0.18104392 0.89399999 2.2250057e-38
0.032133337 0.18182766 0.89399999 2.1789066e-38
-0.02468781 0.18613824 0.89399999 1.9951633e-38
-0.022336589 0.1853545 0.89399999 2.0873955e-38
0.034745809 0.18574637 0.89399999 2.1144767e-38
-0.026908405 0.18940383 0.89399999 1.9121513e-38
0.035268299 0.18966508 0.89399999 2.096253e-38
0.036835779 0.19044882 0.89399999 2.0778498e-38
-0.029390249 0.19397564 0.89399999 1.5541754e-38
-0.027430898 0.19280003 0.89399999 1.8291407e-38
-0.02978212 0.19828621 0.89399999 1.4074237e-38
0.038403258 0.19750246 0.89399999 1.8471853e-38
-0.02978212 0.20220491 0.89399999 1.2884691e-38
-0.032133337 0.20690735 0.89399999 1.0503472e-38
-0.02978212 0.20612362 0.89399999 1.0956171e-38
-0.032133337 0.20925857 0.89399999 1.1703415e-38
-0.029520875 0.20978105 0.89399999 9.6718755e-39
-0.027430898 0.21082604 0.89399999 9.9326011e-39
0.035268299 0.21082604 0.89399999 1.5538154e-38
0.037619516 0.21082604 0.89399999 1.4073486e-38
-0.028998379 0.21239354 0.89399999 5.7089264e-39
-0.026490411 0.21364751 0.89399999 5.7935662e-39
0.034223314 0.21396101 0.89399999 1.4157026e-38
0.036835779 0.21239354 0.89399999 1.3334093e-38
-0.024295939 0.21787971 0.89399999 4.6044117e-39
-0.02272846 0.21787971 0.89399999 3.9590437e-39
0.03370082 0.21787971 0.89399999 8.3595497e-39
-0.021160979 0.22023094 0.89399999 9.3629158e-41
0.03370082 0.22023094 0.89399999 5.3275462e-39
-0.0015744932 0.16296005 0.898 2.3460805e-38
0.00236174 0.16296005 0.898 2.3459747e-38
0.006297973 0.16296005 0.898 2.34601e-38
0.010234207 0.16217279 0.89799994 2.3458653e-38
0.013383193 0.16296005 0.898 2.3461911e-38
-0.016532179 0.16768354 0.898 2.28086e-38
-0.01417044 0.16768354 0.898 2.2994442e-38
-0.010234207 0.16768354 0.898 2.3365747e-38
-0.0062909597 0.16670956 0.89700001 2.3457572e-38
-0.0025559217 0.16572638 0.89699996 2.3459376e-38
0.0019637332 0.16456085 0.89600003 2.3459011e-38
0.0065457779 0.16469178 0.89600009 2.3463341e-38
0.010215797 0.16501468 0.8963334 2.3464063e-38
0.014154659 0.16513683 0.89700001 2.3459753e-38
0.018100537 0.16683404 0.89766663 2.3457235e-38
0.021255659 0.16768354 0.898 2.3453614e-38
-0.017057011 0.17030768 0.898 2.2532012e-38
-0.01415466 0.16985504 0.89699996 2.2994091e-38
-0.010525611 0.16950946 0.89600003 2.3369006e-38
0.018851839 0.16888106 0.89600003 2.3461537e-38
0.022018358 0.16985504 0.89699996 2.346047e-38
0.025571927 0.17034379 0.89749998 2.345253e-38
0.029915374 0.17083251 0.898 2.2713183e-38
0.033064358 0.17083251 0.898 2.234151e-38
-0.021255659 0.175556 0.898 2.1423861e-38
-0.01808463 0.17376009 0.89685714 2.2346189e-38
-0.014924373 0.17202303 0.89600003 2.2625301e-38
0.026989058 0.1726747 0.89666671 2.3450377e-38
0.029882353 0.17378661 0.89700001 2.2987972e-38
0.033826474 0.17385118 0.89733326 2.234259e-38
0.037000593 0.17476876 0.898 2.206815e-38
-0.024771092 0.17850509 0.89700001 2.0410442e-38
-0.022010177 0.17843848 0.89666671 2.142459e-38
-0.019244587 0.17791423 0.89600003 2.1886292e-38
0.030110579 0.17725967 0.89600009 2.2987609e-38
0.033776212 0.178307 0.89600003 2.2066007e-38
0.037703682 0.178307 0.89600003 2.1240913e-38
-0.029128127 0.18342847 0.898 1.6835039e-38
-0.026155129 0.18189803 0.89724994 2.0042757e-38
-0.022255644 0.18197262 0.89600009 2.133386e-38
0.034561705 0.18223445 0.89600003 2.1605742e-38
0.037745759 0.18243872 0.89700001 2.1147634e-38
-0.032277111 0.18657745 0.898 1.2613865e-38
-0.029731274 0.18672474 0.89720005 1.6740309e-38
-0.026863873 0.18584773 0.89600003 1.9674696e-38
0.035347197 0.18459094 0.89600003 2.1514976e-38
0.037580945 0.18601325 0.89679998 2.0961453e-38
-0.032229185 0.18944357 0.89666671 1.2337997e-38
-0.029848747 0.19008939 0.89600003 1.6828905e-38
0.038160861 0.18962079 0.89750004 2.0130986e-38
0.040149577 0.18893918 0.898 2.0130989e-38
-0.032863777 0.19387518 0.89680004 1.21547e-38
-0.030634239 0.19323136 0.89600003 1.6280025e-38
0.038489174 0.19401686 0.89600009 1.9209416e-38
0.040149577 0.19366267 0.898 1.9854789e-38
-0.033162896 0.19756034 0.89639997 1.2066451e-38
0.040743612 0.19773708 0.89720005 1.7834049e-38
-0.032990716 0.2018718 0.89600003 1.0777918e-38
0.041631147 0.20108628 0.89600003 1.4257876e-38
-0.033252548 0.20553742 0.89600009 1.0413092e-38
-0.033383466 0.21011946 0.89600003 1.2348085e-38
-0.030634239 0.21129771 0.89600003 1.2162262e-38
-0.032728888 0.21339236 0.89600009 1.0686777e-38
-0.030110579 0.21391603 0.89600009 8.3822423e-39
0.035347197 0.21443968 0.89600003 1.1589241e-38
0.037703678 0.21365419 0.89600003 1.0489399e-38
-0.029848747 0.21758166 0.89600003 6.8188669e-39
-0.026863873 0.21789585 0.89600003 5.2501062e-39
0.035347201 0.21758166 0.89600009 7.4480527e-39
0.036918186 0.21758166 0.89600009 8.4625633e-39
-0.029128127 0.22121631 0.898 5.2526468e-39
-0.025557462 0.22136359 0.89699996 3.5034003e-39
-0.02280473 0.2217572 0.89700001 3.4119207e-39
0.035347197 0.22072361 0.89600003 4.1426895e-39
0.0063330396 0.15911762 0.903 2.3460458e-38
0.0087079294 0.15911762 0.903 2.3459362e-38
-0.016624229 0.16386741 0.903 2.2902961e-38
-0.013985462 0.16333966 0.90300006 2.3179137e-38
-0.010687004 0.16347159 0.903 2.3457917e-38
-0.0063190134 0.16350447 0.90100002 2.3466592e-38
-0.0039493833 0.16350447 0.90100002 2.346299e-38
0.0026897888 0.16157895 0.90259999 2.3468025e-38
0.0063220812 0.16122381 0.90149999 2.3459753e-38
0.010268397 0.16034496 0.90100002 2.3457613e-38
0.014225231 0.16201369 0.90149999 2.3463699e-38
0.017802469 0.16338086 0.90250003 2.3464416e-38
-0.017127436 0.16626072 0.90166664 2.2716767e-38
-0.014217779 0.16587409 0.90100002 2.3087339e-38
-0.010268397 0.16587411 0.90100002 2.3459353e-38
-0.0063190134 0.16508423 0.90100002 2.3462624e-38
0.018181775 0.16520637 0.90166664 2.3459023e-38
-0.02137401 0.17099208 0.903 2.0872128e-38
-0.01897808 0.17001109 0.90200001 2.2439446e-38
0.022906424 0.16824374 0.90100002 2.3451821e-38
0.026428169 0.1691751 0.90259999 2.3451439e-38
0.029773643 0.1694214 0.90166664 2.2897199e-38
-0.02611473 0.17409401 0.90266669 2.0434993e-38
-0.022129256 0.17386885 0.90149999 2.0598785e-38
-0.019746916 0.17298298 0.90100002 2.262135e-38
-0.029290307 0.1797 0.903 1.4998687e-38
-0.026612967 0.17732659 0.90166664 1.8851792e-38
-0.022906424 0.1761425 0.90100002 2.1331707e-38
-0.030049503 0.18187326 0.90200001 1.6007451e-38
-0.034040086 0.1876163 0.903 1.3074843e-38
-0.030805189 0.18483113 0.90100002 1.6281861e-38
0.040952783 0.18610249 0.90179998 1.9031491e-38
-0.034040086 0.18999121 0.903 1.2983008e-38
0.041882753 0.19076073 0.90140003 1.8297511e-38
-0.034040086 0.19236608 0.903 1.2891531e-38
0.042724788 0.19423689 0.90250003 1.7472083e-38
0.042980921 0.19749808 0.90233338 1.7104772e-38
-0.0055598198 0.15964626 0.90600002 2.3455065e-38
-0.00238278 0.15964626 0.90600002 2.3463696e-38
0.0027018867 0.15915112 0.90679997 2.3465865e-38
0.0055598198 0.15805773 0.90600002 2.3462624e-38
-0.01509094 0.1628233 0.90600002 2.2533059e-38
-0.0092663672 0.16229379 0.90600002 2.3454656e-38
-0.0063540796 0.16202903 0.90600002 2.3467285e-38
-0.00238278 0.16202903 0.90600008 2.347236e-38
0.00079426001 0.16123477 0.90600002 2.3471605e-38
0.017738475 0.16176428 0.90600002 2.3466237e-38
-0.021492358 0.16795881 0.90799999 2.0880401e-38
-0.019238627 0.16582851 0.90680009 2.0971889e-38
0.023033539 0.16758886 0.90600002 2.3455395e-38
0.02621058 0.16758887 0.90600002 2.3452536e-38
-0.022239279 0.16997164 0.90600002 1.9501456e-38
-0.0198565 0.16917737 0.90600002 2.2256835e-38
-0.025416318 0.17235442 0.90600002 2.0620838e-38
-0.023033539 0.17235442 0.90600002 1.8765351e-38
-0.029452493 0.17830698 0.90799999 1.6205909e-38
0.043732516 0.18924165 0.90700001 1.7748325e-38
0.0436843 0.1945937 0.90600002 1.7564256e-38
0.04527282 0.19379944 0.90600002 1.3347801e-38
0.045908224 0.19745302 0.90600008 1.2889367e-38
0.0436843 0.20094778 0.90600002 1.6278974e-38
0.04527282 0.20094778 0.90600002 1.2614939e-38
0.00079776667 0.15875557 0.91000003 2.3465512e-38
