# .PCD v0.7 - Point Cloud Data file format
VERSION 0.7
FIELDS x y z rgb
SIZE 4 4 4 4
TYPE F F F F
COUNT 1 1 1 1
WIDTH 820
HEIGHT 1
VIEWPOINT 0 0 0 1 0 0 0
POINTS 820
DATA ascii
-0.11803263 0.11860423 0.97800004 2.3509797e-38
-0.11403155 0.11831843 0.97800004 2.3414171e-38
-0.12517747 0.12260534 0.97799999 2.350987e-38
-0.12146217 0.12203376 0.97800004 2.3509758e-38
-0.11831843 0.12174796 0.97799999 2.3323471e-38
-0.11517471 0.12146217 0.97800004 2.3504506e-38
-0.12603484 0.12603487 0.97799999 2.3417546e-38
-0.12174796 0.12603486 0.97800004 2.3322681e-38
-0.11860423 0.12489168 0.97800004 2.3503071e-38
-0.1157463 0.12432009 0.97799999 2.3503071e-38
-0.12689224 0.12946437 0.97799999 2.3509624e-38
-0.12508281 0.11128056 0.98400003 2.3509886e-38
-0.12249488 0.11128056 0.98400003 2.3509886e-38
-0.11818168 0.11128056 0.98400009 2.3509886e-38
-0.1136949 0.11024828 0.98250002 2.3509886e-38
-0.11041792 0.11128056 0.98400003 2.3509876e-38
-0.10696736 0.11128056 0.98400003 2.3509823e-38
-0.12508281 0.11386848 0.98400003 2.3509886e-38
-0.12230815 0.11369359 0.98250002 2.3509886e-38
-0.11788228 0.11357874 0.98150003 2.3509886e-38
-0.11352132 0.11352132 0.98100001 2.3509869e-38
-0.11024828 0.11369491 0.98250002 2.3507928e-38
-0.10696736 0.11386848 0.98400003 2.3132166e-38
-0.13370919 0.11904432 0.98400003 2.3509866e-38
-0.13025865 0.11904433 0.98400009 2.350988e-38
-0.12569033 0.11794059 0.98200005 2.3509886e-38
-0.12212142 0.11782136 0.98100007 2.3509886e-38
-0.11825136 0.11653134 0.98100001 2.350987e-38
-0.11352132 0.11610134 0.98100001 2.3506436e-38
-0.11030483 0.11806069 0.98300004 2.3503431e-38
-0.10739867 0.11775035 0.98400003 2.3506324e-38
-0.13457184 0.12249488 0.98400003 2.3509752e-38
-0.12999476 0.12224503 0.98200005 2.3509851e-38
-0.12556145 0.1212614 0.98100001 2.3509886e-38
-0.12298143 0.1212614 0.98100001 2.3509848e-38
-0.11323465 0.12240809 0.98100007 2.3503071e-38
-0.11024828 0.12230815 0.98250002 2.350056e-38
-0.10783 0.12163224 0.98400003 2.3505944e-38
-0.13457184 0.12594545 0.98400003 2.3509671e-38
-0.13072151 0.12556145 0.98100001 2.3509743e-38
-0.11696135 0.12642147 0.98100001 2.3502712e-38
-0.11403944 0.12553078 0.98300004 2.3502362e-38
-0.11128056 0.12508281 0.98400003 2.35013e-38
-0.13370919 0.13025865 0.98400009 2.3509638e-38
-0.13041043 0.13016471 0.98142862 2.3509668e-38
-0.12527478 0.13100819 0.98100007 2.3138651e-38
-0.12212142 0.13072152 0.98100001 2.3502712e-38
-0.11838155 0.12906672 0.98280001 2.3503789e-38
-0.13370919 0.13457184 0.98400003 2.3504904e-38
-0.13012803 0.13443509 0.98300004 2.3508187e-38
-0.12556145 0.13416156 0.98100001 2.3504526e-38
-0.12240809 0.13387489 0.98100007 2.3503116e-38
-0.13370919 0.13802241 0.98400003 1.9243124e-38
-0.13025865 0.13802241 0.98400009 2.3498141e-38
-0.126233 0.13773486 0.98400009 2.3500952e-38
-0.13370919 0.14061031 0.98400003 1.1499167e-38
-0.13025865 0.14061031 0.98400009 2.0263385e-38
-0.12680808 0.14061031 0.98400003 2.3503444e-38
-0.12200306 0.10642821 0.98699999 2.3509886e-38
-0.11767671 0.10642821 0.98699999 2.3509886e-38
-0.11421563 0.10642821 0.98699999 2.3509886e-38
-0.13411686 0.11161982 0.98699999 2.3509886e-38
-0.12961745 0.11023539 0.98699999 2.3509886e-38
-0.12650248 0.10954317 0.98699999 2.3509886e-38
-0.12200306 0.10902401 0.98699999 2.3509886e-38
-0.11767671 0.10902401 0.98699999 2.3509886e-38
-0.11421563 0.10815874 0.98699999 2.3509886e-38
-0.10988929 0.10902401 0.98699999 2.3509886e-38
-0.10538989 0.10954317 0.98699999 2.3509855e-38
-0.10227491 0.11023539 0.98699999 2.3507149e-38
-0.13757792 0.1150809 0.98699999 2.3509886e-38
-0.13411686 0.11421563 0.98699999 2.3509886e-38
-0.1297905 0.11421563 0.98699999 2.3509886e-38
-0.12719469 0.11421563 0.98699999 2.3509886e-38
-0.10469767 0.11421563 0.98699999 2.3505233e-38
-0.10296712 0.11421563 0.98699999 2.3505334e-38
-0.13815477 0.11796513 0.98699999 2.3509814e-38
-0.13454948 0.11724408 0.98699999 2.3509872e-38
-0.1297905 0.11681144 0.98699999 2.3509886e-38
-0.10527452 0.11796513 0.98699999 2.3506799e-38
-0.10296712 0.11681144 0.98699999 2.3509863e-38
-0.1384432 0.12200306 0.98699999 2.3509709e-38
-0.13584739 0.12027252 0.98699999 2.3509828e-38
-0.10815874 0.1237336 0.98699999 2.3506315e-38
-0.10585137 0.12084936 0.98699999 2.3505054e-38
-0.1384432 0.12632942 0.98699999 2.3508899e-38
-0.11335036 0.12719469 0.98699999 2.3499171e-38
-0.11075455 0.12632942 0.98699999 2.3499147e-38
-0.13757792 0.1297905 0.98699999 2.3506353e-38
-0.13584739 0.1297905 0.98699999 2.3509241e-38
-0.11681144 0.13065577 0.98699999 2.3502712e-38
-0.11450405 0.12950209 0.98699999 2.3500201e-38
-0.13757792 0.13411686 0.98699999 1.9242765e-38
-0.13584739 0.13411686 0.98699999 2.3492389e-38
-0.12084936 0.13411686 0.98699999 2.3501324e-38
-0.11854198 0.13238631 0.98699999 2.3503108e-38
-0.13584739 0.1384432 0.98699999 1.1777964e-38
-0.12546416 0.13930847 0.98699999 2.3500266e-38
-0.1237336 0.1384432 0.98699999 2.3499908e-38
-0.13411686 0.14190426 0.98699999 5.8871856e-39
-0.1297905 0.14276955 0.98699999 1.9522988e-38
-0.12632942 0.14190426 0.98699999 2.3502089e-38
-0.13238631 0.14450008 0.98699999 2.9423232e-39
-0.1297905 0.14450008 0.98699999 8.8201649e-39
-0.12719469 0.14450008 0.98699999 1.4262842e-38
-0.13044798 0.098270826 0.99199998 2.3509886e-38
-0.12609974 0.098270826 0.99199998 2.3509886e-38
-0.12262111 0.098270826 0.99199998 2.3509886e-38
-0.14088383 0.10348874 0.99199998 2.3509886e-38
-0.13714872 0.1020347 0.99139994 2.3509886e-38
-0.1337916 0.10164513 0.99100006 2.3509886e-38
-0.13018499 0.10154255 0.99000001 2.3509886e-38
-0.12637725 0.10132363 0.99028569 2.3509886e-38
-0.12217128 0.10177256 0.990125 2.3509886e-38
-0.118094 0.1024626 0.99050003 2.3509886e-38
-0.11369314 0.10328009 0.99000001 2.3509886e-38
-0.10957631 0.10348874 0.99199998 2.3509886e-38
-0.1060977 0.10348874 0.99199998 2.3509886e-38
-0.10261908 0.10348874 0.99199998 2.3509886e-38
-0.097973637 0.10230875 0.98900002 2.3509886e-38
-0.094505541 0.10317577 0.98900002 2.3509886e-38
-0.14088383 0.1060977 0.99199998 2.3509886e-38
-0.13698968 0.10577685 0.98900002 2.3509886e-38
-0.13352159 0.10577685 0.98900002 2.3509886e-38
-0.13005349 0.10577685 0.98900002 2.3509886e-38
-0.12658539 0.10577685 0.98900002 2.3509886e-38
-0.12225029 0.10490982 0.98900002 2.3509886e-38
-0.11791517 0.10490982 0.98900002 2.3509886e-38
-0.11444708 0.10490982 0.98900002 2.3509886e-38
-0.11011197 0.10577685 0.98900002 2.3509886e-38
-0.1058564 0.1058564 0.98975003 2.3509886e-38
-0.102387 0.1058564 0.98975003 2.3509886e-38
-0.097973637 0.10577685 0.98900002 2.3509881e-38
-0.093927532 0.10606585 0.98900002 2.3509842e-38
-0.14161059 0.11033288 0.99100006 2.3509886e-38
-0.13807347 0.10989521 0.98899996 2.3509886e-38
-0.13352159 0.10924494 0.98900002 2.3509886e-38
-0.13092051 0.10837791 0.98900002 2.3509886e-38
-0.10144173 0.10837791 0.98900002 2.3509866e-38
-0.097973622 0.11011197 0.98900002 2.3504631e-38
-0.093638524 0.11011197 0.98900002 2.3505678e-38
-0.091037445 0.11184601 0.98900002 2.3509541e-38
-0.14240879 0.11462066 0.99049997 2.3509776e-38
-0.13901274 0.11415808 0.98900002 2.3509849e-38
-0.10144173 0.11444708 0.98900002 2.3508205e-38
-0.098071828 0.11456367 0.99000001 2.3506855e-38
-0.094212443 0.11450436 0.99199998 2.3504252e-38
-0.14240879 0.118094 0.99050003 2.3509689e-38
-0.13959076 0.11704814 0.98900002 2.3509757e-38
-0.10121591 0.11823165 0.99020004 2.3505543e-38
-0.098270826 0.11740319 0.99199998 2.3503377e-38
-0.14219199 0.12205076 0.99019998 2.3509639e-38
-0.10577685 0.12311731 0.98900002 2.3504372e-38
-0.10280465 0.12133972 0.99100006 2.350554e-38
-0.14581186 0.12725928 0.99199998 1.233322e-38
-0.1426256 0.126294 0.99080002 2.3128973e-38
-0.10895593 0.12687442 0.98900002 2.3504157e-38
-0.10627975 0.12597261 0.99100006 2.3408963e-38
-0.10348874 0.12436043 0.99199998 2.092264e-38
-0.14219183 0.13005351 0.98900002 1.5647221e-38
-0.13959076 0.13005349 0.98900002 2.3495605e-38
-0.11358006 0.13092051 0.98900002 2.3499843e-38
-0.11059131 0.13003789 0.99020004 2.3408017e-38
-0.10696735 0.12957834 0.99199998 2.2393045e-38
-0.1413248 0.13265456 0.98900002 9.6427271e-39
-0.13959076 0.13352159 0.98900002 1.5361003e-38
-0.11774451 0.13394648 0.99000001 2.3498811e-38
-0.11496753 0.13350259 0.99100006 2.3500619e-38
-0.13843474 0.13785672 0.98900002 4.7772395e-39
-0.12109427 0.13727871 0.98900002 2.3313321e-38
-0.1191425 0.13740522 0.99199998 2.2758707e-38
-0.1250394 0.14327581 0.99049997 2.3502536e-38
-0.12252709 0.14077666 0.99125004 2.3408095e-38
-0.12918648 0.14652695 0.98900002 0
-0.12677607 0.14587952 0.99049997 1.2790998e-38
-0.14218217 0.098568007 0.99500006 2.3509886e-38
-0.13869305 0.098568007 0.995 2.3509886e-38
-0.13433163 0.097695723 0.995 2.3509886e-38
-0.12997022 0.096823446 0.99500006 2.3509886e-38
-0.1256088 0.096823446 0.995 2.3509886e-38
-0.12211967 0.097695723 0.995 2.3509886e-38
-0.11950281 0.098568007 0.995 2.3509886e-38
-0.14610745 0.10249329 0.995 2.3509886e-38
-0.14243141 0.10155871 0.995 2.3509886e-38
-0.13869305 0.10031258 0.995 2.3509886e-38
-0.11732211 0.10074873 0.995 2.3509886e-38
-0.11339682 0.10205714 0.995 2.3509886e-38
-0.10990769 0.10205714 0.995 2.3509886e-38
-0.10641856 0.10205714 0.995 2.3509886e-38
-0.10292943 0.10205714 0.995 2.3509886e-38
-0.14654359 0.10641856 0.995 2.3509873e-38
-0.14392674 0.10641856 0.995 2.3509886e-38
-0.14654359 0.10990769 0.995 2.3509813e-38
-0.14392674 0.10990769 0.995 2.3509862e-38
-0.14625284 0.11310606 0.99500006 2.3509747e-38
-0.14392674 0.11252454 0.995 2.3509806e-38
-0.091589741 0.11426912 0.995 2.350847e-38
-0.14567131 0.11601368 0.995 2.3509703e-38
-0.097404972 0.11892129 0.99500006 2.331706e-38
-0.094206601 0.11688596 0.995 2.3502798e-38
-0.091589741 0.11601368 0.995 2.3508494e-38
-0.14567131 0.12211967 0.995 2.3507807e-38
-0.10089411 0.12241043 0.99500006 2.3320427e-38
-0.098568007 0.12124739 0.995 2.2211566e-38
-0.14567131 0.12473652 0.995 2.3492668e-38
-0.10554628 0.12648107 0.995 2.073421e-38
-0.10292943 0.1256088 0.995 2.0643129e-38
-0.14567131 0.12997022 0.995 6.8876622e-39
-0.10903541 0.13171478 0.995 2.3500924e-38
-0.10554628 0.12822564 0.995 1.981226e-38
-0.11339682 0.13433163 0.995 2.3498087e-38
-0.11688596 0.13782077 0.995 2.3126761e-38
-0.12182891 0.14334522 0.99500006 2.3507918e-38
-0.11950281 0.14130989 0.995 2.3318037e-38
-0.1256088 0.14654359 0.995 1.5098003e-38
-0.12299194 0.14567131 0.995 2.1741022e-38
-0.11023907 0.091865897 0.99800003 2.3509886e-38
-0.14436069 0.095365554 0.99800003 2.3509886e-38
-0.14173597 0.095365554 0.99800003 2.3509886e-38
-0.13823631 0.095365554 0.99800003 2.3509886e-38
-0.13386175 0.095365554 0.99800003 2.3509886e-38
-0.12948719 0.094490632 0.99800003 2.3509886e-38
-0.12598753 0.095365554 0.99800003 2.3509886e-38
-0.12336278 0.095365554 0.99800003 2.3509886e-38
-0.11023907 0.093615726 0.99800003 2.3509886e-38
-0.14611052 0.097990289 0.99800003 2.3509886e-38
-0.14173597 0.097115375 0.99800003 2.3509886e-38
-0.13794468 0.097698651 0.99800003 2.3509886e-38
-0.12161295 0.097115375 0.99800003 2.3509886e-38
-0.11723839 0.098865204 0.99800003 2.3509886e-38
-0.11461364 0.098865204 0.99800003 2.3509886e-38
-0.10411468 0.098865204 0.99800003 2.3509886e-38
-0.10178159 0.098281935 0.99800003 2.3509886e-38
-0.14961018 0.10148995 0.99800003 2.3509886e-38
-0.14786035 0.10148995 0.99800003 2.3509886e-38
-0.11373873 0.10061503 0.99800003 2.3509886e-38
-0.11023907 0.10061503 0.99800003 2.3509886e-38
-0.10586451 0.10061504 0.99800003 2.3509886e-38
-0.10148995 0.10061503 0.99800003 2.3509886e-38
-0.098865204 0.10061503 0.99800003 2.3509886e-38
-0.15004763 0.10630197 0.99800003 2.3509823e-38
-0.15019345 0.10994744 0.99800003 2.3509737e-38
-0.14961018 0.11373873 0.99800003 2.3509654e-38
-0.14786035 0.11461364 0.99800003 2.3509626e-38
-0.089241162 0.11461364 0.99800003 2.1475921e-38
-0.14961018 0.11723839 0.99800003 2.3508519e-38
-0.14716043 0.11846327 0.99800009 2.3509259e-38
-0.094199002 0.11927985 0.99800003 2.35024e-38
-0.089766107 0.11741336 0.99800009 2.1751409e-38
-0.14961018 0.12248787 0.99800003 1.9517195e-38
-0.14786035 0.12248787 0.99800003 2.3492029e-38
-0.097698651 0.12277951 0.99800003 2.3130442e-38
-0.095365554 0.12161295 0.99800003 2.3500201e-38
-0.14961018 0.12511261 0.99800003 1.1491993e-38
-0.14786035 0.12598753 0.99800003 1.5920274e-38
-0.10148995 0.12598753 0.99800003 2.2761086e-38
-0.098865204 0.12511261 0.99800003 2.3314281e-38
-0.10469797 0.12977883 0.99800003 2.0825684e-38
-0.10236486 0.12861226 0.99800003 2.2210379e-38
-0.11286382 0.13561156 0.99800003 2.3495556e-38
-0.11053072 0.13444501 0.99800003 2.294637e-38
-0.10703107 0.13269518 0.99800003 2.1565105e-38
-0.11461364 0.13823631 0.99800003 2.3310449e-38
-0.11753003 0.14144433 0.99800003 2.313145e-38
-0.12511261 0.14786035 0.99800003 1.6204302e-38
-0.12219623 0.14727709 0.99800003 1.8513169e-38
-0.11986312 0.14436069 0.99800003 2.3509757e-38
-0.12861226 0.14961018 0.99800003 5.7895823e-39
-0.12686244 0.14961018 0.99800003 4.5917748e-39
-0.14610875 0.090657845 1.0039999 2.3509886e-38
-0.14258808 0.090657845 1.0039999 2.3509886e-38
-0.13378634 0.090657845 1.0039999 2.3509886e-38
-0.13026565 0.090657845 1.0039999 2.3509886e-38
-0.12674496 0.090657845 1.0039999 2.3509886e-38
-0.11354235 0.090657845 1.0039999 2.3509886e-38
-0.11178201 0.090657845 1.0039999 2.3509886e-38
-0.15226997 0.095058709 1.0039999 2.3509886e-38
-0.14927565 0.094416998 1.0028 2.3509886e-38
-0.14602233 0.093656577 1.0022 2.3509886e-38
-0.14216202 0.09301959 1.001 2.3509886e-38
-0.13777432 0.09301959 1.001 2.3509886e-38
-0.13338658 0.09301959 1.001 2.3509886e-38
-0.12987641 0.092142045 1.001 2.3509886e-38
-0.12591389 0.092899315 1.0016001 2.3509886e-38
-0.12168447 0.094056442 1.0027144 2.3509886e-38
-0.11794321 0.095058709 1.0039999 2.3509886e-38
-0.1142529 0.094037831 1.0025001 2.3509886e-38
-0.11057046 0.09565223 1.001 2.3509886e-38
-0.10706028 0.09565223 1.001 2.3509886e-38
-0.15431029 0.098676436 1.0020001 2.3509863e-38
-0.15041094 0.09810935 1.001 2.3509886e-38
-0.12022344 0.097407311 1.001 2.3509886e-38
-0.11759081 0.097407311 1.001 2.3509886e-38
-0.11390296 0.09808965 1.0020001 2.3509886e-38
-0.11057046 0.098284855 1.001 2.3509886e-38
-0.10653376 0.09810935 1.001 2.3509886e-38
-0.15461712 0.1018067 1.0039999 2.3509823e-38
-0.151815 0.10179503 1.001 2.350986e-38
-0.15445833 0.10595796 1.0022 2.3509699e-38
-0.151815 0.10530519 1.001 2.350975e-38
-0.15490244 0.11024117 1.0028 2.3509258e-38
-0.151815 0.111448 1.001 2.3509632e-38
-0.15479544 0.11433771 1.00325 2.350098e-38
-0.151815 0.11408064 1.001 2.350961e-38
-0.15755101 0.11794321 1.0039999 8.6336128e-39
-0.15468037 0.11776702 1.0025001 1.8965513e-38
-0.151815 0.11759081 1.001 2.3500622e-38
-0.086876795 0.11846835 1.001 1.2989482e-38
-0.15427212 0.1216275 1.001 5.8817765e-39
-0.15137622 0.12153975 1.001 1.6755368e-38
-0.093546115 0.12232955 1.001 2.3505256e-38
-0.08950942 0.12197852 1.001 1.7508707e-38
-0.086876795 0.12197852 1.0010002 1.1882767e-38
-0.15093745 0.12636624 1.001 3.8570908e-39
-0.10091748 0.12724379 1.001 2.3498992e-38
-0.097992346 0.12665877 1.0010002 2.349669e-38
-0.094130754 0.12609549 1.0035 2.313831e-38
-0.089777671 0.12674496 1.0039999 1.5570072e-38
-0.087137155 0.12586477 1.0039999 1.1614835e-38
-0.10150251 0.13016891 1.0010002 2.294471e-38
-0.098432131 0.13007234 1.0024999 2.3501063e-38
-0.095938884 0.12938547 1.0039999 2.35082e-38
-0.10501269 0.13367909 1.0010002 2.1748054e-38
-0.10229092 0.13336056 1.003 2.2668156e-38
-0.099459581 0.13290615 1.0039999 2.3509705e-38
-0.11320309 0.13865185 1.001 2.275692e-38
-0.11009414 0.13849872 1.0020001 2.3129712e-38
-0.10668653 0.13746367 1.003 2.3041614e-38
-0.11671327 0.14303957 1.001 2.3509625e-38
-0.11433639 0.14248222 1.0032499 2.350391e-38
-0.11178201 0.1417079 1.0039999 2.3495672e-38
-0.12022344 0.14654973 1.001 2.0820212e-38
-0.11759081 0.1456722 1.001 2.0276091e-38
-0.1147159 0.14581537 1.0039999 1.9357401e-38
-0.1254887 0.15005991 1.001 6.6121557e-39
-0.12197852 0.15035242 1.001 7.2647012e-39
-0.14301413 0.087397523 1.007 2.3509886e-38
-0.14978229 0.090340197 1.007 2.3509886e-38
-0.14654535 0.089163132 1.007 2.3509886e-38
-0.14168993 0.089604534 1.007 2.3509886e-38
-0.13771731 0.090045929 1.007 2.3509886e-38
-0.13418609 0.089163132 1.007 2.3509886e-38
-0.12800647 0.089163132 1.007 2.3509886e-38
-0.12535806 0.090045929 1.007 2.3509886e-38
-0.12182686 0.090928733 1.007 2.3509886e-38
-0.11829564 0.090928733 1.007 2.3509886e-38
-0.11564723 0.090928733 1.007 2.3509886e-38
-0.15360777 0.093577147 1.007 2.3509886e-38
-0.15095936 0.09269435 1.007 2.3509886e-38
-0.11829564 0.09269435 1.007 2.3509886e-38
-0.15731554 0.097638048 1.007 2.3509862e-38
-0.15449058 0.09622556 1.007 2.3509886e-38
-0.15743324 0.10269945 1.007 2.3509726e-38
-0.15802178 0.10593639 1.007 2.350966e-38
-0.15802178 0.10946761 1.007 2.3507798e-38
-0.15802178 0.11388162 1.007 2.1368255e-38
-0.09622556 0.13153769 1.007 2.3501405e-38
-0.093577147 0.12888928 1.007 2.0092609e-38
-0.10152237 0.13506891 1.007 2.3498541e-38
-0.098873965 0.13418609 1.007 2.350358e-38
-0.10505359 0.13860011 1.007 2.3503302e-38
-0.10328799 0.13771731 1.007 2.3505829e-38
-0.11211601 0.14389692 1.007 2.3314161e-38
-0.10946761 0.14301413 1.007 1.9902988e-38
-0.10564213 0.14154279 1.007 2.0095274e-38
-0.10328799 0.14036572 1.007 1.1792969e-38
-0.14432563 0.082345299 1.01 2.3509886e-38
-0.14166933 0.082345299 1.01 2.3509886e-38
-0.1381276 0.082345299 1.01 2.3509886e-38
-0.1540654 0.086772457 1.01 2.3509886e-38
-0.15034658 0.086241208 1.0100001 2.3509886e-38
-0.14631784 0.085665666 1.0100001 2.3509886e-38
-0.14149225 0.085532852 1.0100001 2.3509886e-38
-0.13812761 0.08588703 1.0100001 2.3509886e-38
-0.13458586 0.08588703 1.0100001 2.3509886e-38
-0.13086703 0.086595379 1.0100001 2.3509886e-38
-0.12573153 0.087657891 1.01 2.3509886e-38
-0.12130436 0.087657891 1.01 2.3509886e-38
-0.11864807 0.087657891 1.01 2.3509886e-38
-0.11510632 0.087657891 1.01 2.3509886e-38
-0.15760712 0.091199629 1.01 2.3509886e-38
-0.1540654 0.090314202 1.01 2.3509886e-38
-0.15140909 0.089428768 1.01 2.3509886e-38
-0.13104412 0.089428768 1.01 2.3509886e-38
-0.1248461 0.089428768 1.01 2.3509886e-38
-0.12218979 0.089428768 1.01 2.3509886e-38
-0.11864807 0.089428768 1.01 2.3509886e-38
-0.11510632 0.089428768 1.01 2.3509886e-38
-0.16085371 0.094151072 1.01 2.3509873e-38
-0.15760712 0.093855925 1.01 2.3509886e-38
-0.15495083 0.09297049 1.01 2.3509886e-38
-0.1616801 0.097574763 1.0100001 2.3509738e-38
-0.16203429 0.10182483 1.0100001 2.350967e-38
-0.1620343 0.10625201 1.0100001 2.3504946e-38
-0.16085371 0.10949858 1.01 2.3499512e-38
-0.16026342 0.1142209 1.01 1.4908994e-38
-0.16026342 0.11776263 1.01 1.8367099e-40
-0.093560778 0.13133928 1.01 1.4375159e-38
-0.097397663 0.13458586 1.01 1.8336348e-38
-0.10123454 0.13783246 1.01 2.0179519e-38
-0.10271026 0.14166933 1.01 4.1465879e-39
-0.14534637 0.078445598 1.013 2.3509886e-38
-0.14209013 0.078149572 1.013 2.3509886e-38
-0.1388339 0.078445598 1.013 2.3509886e-38
-0.13409756 0.079037629 1.013 2.3509886e-38
-0.12965724 0.079037629 1.013 2.3509886e-38
-0.154227 0.081997842 1.013 2.3509886e-38
-0.15008271 0.08170183 1.013 2.3509886e-38
-0.14593841 0.081405804 1.013 2.3509886e-38
-0.14209013 0.080813758 1.013 2.3509886e-38
-0.13853787 0.080813758 1.013 2.3509886e-38
-0.13409756 0.08170183 1.013 2.3509886e-38
-0.12965724 0.081701823 1.013 2.3509886e-38
-0.12699306 0.081701823 1.013 2.3509886e-38
-0.11811243 0.082589887 1.013 2.3509886e-38
-0.16073945 0.087918267 1.013 2.3509886e-38
-0.15789764 0.086497366 1.013 2.3509886e-38
-0.15452302 0.084366016 1.013 2.3509886e-38
-0.15185884 0.084366016 1.013 2.3509886e-38
-0.12965724 0.085254073 1.013 2.3509886e-38
-0.126105 0.085254073 1.013 2.3509886e-38
-0.12255274 0.086142138 1.013 2.3509886e-38
-0.11811243 0.085254073 1.013 2.3509886e-38
-0.11456016 0.086142138 1.013 2.3509886e-38
-0.16429171 0.091470525 1.013 2.3509846e-38
-0.16162752 0.09058246 1.013 2.3509886e-38
-0.15807526 0.089694396 1.013 2.3509886e-38
-0.16517977 0.094134711 1.013 2.3509758e-38
-0.16251558 0.093246646 1.013 2.3509886e-38
-0.1696201 0.098575026 1.013 2.3504924e-38
-0.16606784 0.097686961 1.013 2.3509667e-38
-0.1696201 0.10212728 1.013 1.8782511e-38
-0.16695589 0.10212728 1.013 2.3500297e-38
-0.1696201 0.10656759 1.013 6.3377254e-39
-0.1669559 0.1065676 1.013 1.5188392e-38
-0.16606784 0.11011985 1.013 9.1064502e-39
-0.16251558 0.11100791 1.013 2.0537072e-38
-0.16562381 0.11322807 1.013 3.6806029e-39
-0.16251558 0.11367211 1.013 1.0483596e-38
-0.16251558 0.11722436 1.013 4.781903e-39
-0.09058246 0.1305453 1.013 1.1055529e-38
-0.096798897 0.13587368 1.013 8.7484072e-39
-0.094134711 0.13409756 1.013 1.0040217e-38
-0.091470525 0.13232143 1.013 9.675809e-39
-0.097686961 0.1376498 1.013 9.3908969e-39
-0.16169153 0.075932488 1.0190001 2.3509886e-38
-0.15811823 0.075932488 1.0190001 2.3509886e-38
-0.15365161 0.075039163 1.0190001 2.3509886e-38
-0.14989966 0.074503176 1.0190001 2.3509886e-38
-0.14651117 0.074413739 1.0178001 2.3509886e-38
-0.14222741 0.074771076 1.0178 2.3509886e-38
-0.1378632 0.075083695 1.0172001 2.3509886e-38
-0.1341639 0.075262427 1.0180001 2.3509886e-38
-0.13042521 0.075932488 1.0190001 2.3509886e-38
-0.16615814 0.079505771 1.0190001 2.3509886e-38
-0.16258484 0.078612447 1.0190001 2.3509886e-38
-0.15838246 0.07838697 1.0184001 2.3509886e-38
-0.15373366 0.078559153 1.016 2.3509886e-38
-0.14963648 0.078381017 1.016 2.3509886e-38
-0.14696439 0.077490322 1.016 2.3509886e-38
-0.13716677 0.077490322 1.016 2.3509886e-38
-0.13379994 0.077604726 1.0175 2.3509886e-38
-0.13042521 0.07771913 1.0190001 2.3509886e-38
-0.12647846 0.079271704 1.016 2.3509886e-38
-0.16615814 0.082185745 1.0190001 2.3509886e-38
-0.16234684 0.082064763 1.0175 2.3509886e-38
-0.15854341 0.081943788 1.016 2.3509886e-38
-0.15587133 0.081053093 1.016 2.3509886e-38
-0.12558776 0.081943788 1.016 2.3509886e-38
-0.12321257 0.082240686 1.016 2.3509886e-38
-0.1688381 0.086652361 1.0190001 2.3509841e-38
-0.1660365 0.085695267 1.01825 2.3509886e-38
-0.16210619 0.085506558 1.016 2.3509886e-38
-0.1594341 0.084615864 1.016 2.3509886e-38
-0.12380636 0.084615864 1.016 2.3509886e-38
-0.16867241 0.090135366 1.0180001 2.3509737e-38
-0.16594546 0.089655831 1.0166 2.3509873e-38
-0.16299689 0.088178635 1.016 2.3509886e-38
-0.17777134 0.0955856 1.0190001 1.2603346e-38
-0.17394283 0.094309419 1.0190001 2.3226203e-38
-0.16951035 0.093933254 1.0166 2.3509664e-38
-0.17777134 0.097372249 1.0190001 5.7856363e-39
-0.17419806 0.098265573 1.0190001 1.7772007e-38
-0.16923173 0.097085573 1.016 2.3509659e-38
-0.17368521 0.10153905 1.016 8.4488656e-39
-0.17190382 0.10153905 1.016 1.5728705e-38
-0.17190382 0.10421111 1.016 8.2651947e-40
-0.16655965 0.11489944 1.016 5.4380372e-39
-0.16477826 0.11668083 1.016 3.9621994e-39
-0.091741413 0.13449469 1.016 1.1703412e-38
-0.16037562 0.067196488 1.022 2.3509886e-38
-0.15858373 0.067196488 1.022 2.3509886e-38
-0.16664732 0.070780307 1.022 2.3509886e-38
-0.16180916 0.070063554 1.022 2.3509886e-38
-0.15768778 0.06988436 1.022 2.3509886e-38
-0.15410396 0.06988436 1.022 2.3509886e-38
-0.15052015 0.06988436 1.022 2.3509886e-38
-0.14648835 0.070332333 1.022 2.3509886e-38
-0.14156061 0.070780307 1.022 2.3509886e-38
-0.13887276 0.070780307 1.022 2.3509886e-38
-0.16664732 0.073468164 1.022 2.3509886e-38
-0.16216753 0.073468171 1.022 2.3509886e-38
-0.15768777 0.073468164 1.022 2.3509886e-38
-0.15410396 0.072572216 1.022 2.3509886e-38
-0.15141609 0.072572216 1.022 2.3509886e-38
-0.14514443 0.072572216 1.022 2.3509886e-38
-0.14156061 0.072572216 1.022 2.3509886e-38
-0.1379768 0.072572216 1.022 2.3509886e-38
-0.13349704 0.074364118 1.022 2.3509886e-38
-0.13080917 0.074364118 1.022 2.3509886e-38
-0.16978315 0.078395911 1.022 2.3509886e-38
-0.16664732 0.077051982 1.022 2.3509886e-38
-0.16395944 0.076156028 1.022 2.3509886e-38
-0.12812132 0.077051982 1.022 2.3509886e-38
-0.12573211 0.07794793 1.0220001 2.3509886e-38
-0.17023112 0.082427703 1.022 2.3509886e-38
-0.1227456 0.081531748 1.022 2.3509886e-38
-0.17291898 0.086907469 1.022 2.3509719e-38
-0.17052977 0.085712865 1.0220001 2.350986e-38
-0.17650278 0.090491273 1.022 2.350964e-38
-0.17381492 0.089595318 1.022 2.3509666e-38
-0.17112708 0.089595318 1.022 2.3509757e-38
-0.17769741 0.092880487 1.0220001 2.2019011e-38
-0.17471088 0.092283189 1.022 2.3509562e-38
-0.17213173 0.063986145 1.028 2.3509886e-38
-0.16942808 0.06308493 1.028 2.3509886e-38
-0.16520023 0.063260853 1.026 2.3509886e-38
-0.16198169 0.062991567 1.0265 2.3509886e-38
-0.15860535 0.063260853 1.026 2.3509886e-38
-0.17393416 0.066689782 1.028 2.3509886e-38
-0.16893366 0.066495165 1.025 2.3509886e-38
-0.16533932 0.066495165 1.025 2.3509886e-38
-0.16204451 0.066195637 1.025 2.3509886e-38
-0.15785113 0.066195637 1.025 2.3509886e-38
-0.15455632 0.066495165 1.025 2.3509886e-38
-0.15013574 0.066527165 1.0255001 2.3509886e-38
-0.14615405 0.066924438 1.027 2.3509886e-38
-0.14197615 0.06739375 1.025 2.3509886e-38
-0.13878685 0.067590997 1.028 2.3509886e-38
-0.13478749 0.06739375 1.025 2.3509886e-38
-0.18114388 0.071195848 1.028 2.3509873e-38
-0.17813985 0.070595041 1.0280001 2.3509886e-38
-0.17445336 0.070140123 1.02575 2.3509886e-38
-0.17019168 0.069909781 1.025 2.3509886e-38
-0.16533932 0.069190912 1.025 2.3509886e-38
-0.14557049 0.069190912 1.025 2.3509886e-38
-0.14197615 0.069190912 1.025 2.3509886e-38
-0.1380823 0.069789968 1.025 2.3509886e-38
-0.1338889 0.070089504 1.0250001 2.3509886e-38
-0.13029458 0.070089497 1.025 2.3509886e-38
-0.18114388 0.072998278 1.028 2.3509846e-38
-0.17844024 0.073899493 1.028 2.3509886e-38
-0.17432515 0.073683828 1.025 2.3509886e-38
-0.17073083 0.073683828 1.025 2.3509886e-38
-0.13388892 0.072785251 1.025 2.3509886e-38
-0.12909648 0.073384307 1.025 2.3509886e-38
-0.17794912 0.077907786 1.0262001 2.3509832e-38
-0.17432515 0.078176752 1.0250001 2.3509884e-38
-0.1716294 0.077278167 1.025 2.3509886e-38
-0.17841323 0.082274102 1.0268 2.3509734e-38
-0.17432515 0.08266966 1.025 2.3509834e-38
-0.18114388 0.087417692 1.028 2.3509266e-38
-0.17818117 0.086390235 1.0265 2.3509646e-38
-0.17462468 0.085964471 1.025 2.3509731e-38
-0.18114388 0.090121329 1.028 2.3492756e-38
-0.17821901 0.089558803 1.025 2.3508172e-38
-0.18061523 0.093452662 1.025 1.371118e-38
-0.17353791 0.062365185 1.031 2.3509886e-38
-0.16992255 0.060557503 1.031 2.3509886e-38
-0.16660845 0.061160065 1.031 2.3509886e-38
-0.15817258 0.061461344 1.031 2.3509886e-38
-0.15455721 0.062365185 1.031 2.3509886e-38
-0.1816725 0.065980569 1.031 2.3509886e-38
-0.17857362 0.065722324 1.0310001 2.3509886e-38
-0.17444175 0.064172879 1.031 2.3509886e-38
-0.1563649 0.064172879 1.031 2.3509886e-38
-0.15365335 0.064172879 1.031 2.3509886e-38
-0.15094183 0.064172879 1.031 2.3509886e-38
-0.14551876 0.065980561 1.031 2.3509886e-38
-0.14145148 0.065528639 1.031 2.3509886e-38
-0.13828802 0.065076724 1.031 2.3509886e-38
-0.18287763 0.070198499 1.031 2.350988e-38
-0.17986482 0.069595933 1.031 2.3509886e-38
-0.18287763 0.074416429 1.031 2.3509828e-38
-0.18227506 0.07742925 1.031 2.3509715e-38
-0.1816725 0.081345901 1.031 2.350967e-38
-0.18227506 0.08586511 1.031 2.3506405e-38
-0.18348019 0.090384334 1.031 1.8045675e-38
-0.1731364 0.055294871 1.034 2.3509886e-38
-0.17041698 0.055294871 1.034 2.3509886e-38
-0.1767623 0.058920763 1.034 2.3509886e-38
-0.17404288 0.058014296 1.034 2.3509886e-38
-0.17041698 0.058014292 1.034 2.3509886e-38
-0.16588461 0.058014296 1.034 2.3509886e-38
-0.16135225 0.058014292 1.034 2.3509886e-38
-0.15863283 0.058920763 1.034 2.3509886e-38
-0.18492055 0.062546656 1.034 2.3509886e-38
-0.18129468 0.062546656 1.034 2.3509886e-38
-0.17766878 0.061640181 1.034 2.3509886e-38
-0.17404288 0.060733709 1.034 2.3509886e-38
-0.16407168 0.060733709 1.034 2.3509886e-38
-0.16225873 0.060733709 1.034 2.3509886e-38
-0.15681988 0.060733709 1.034 2.3509886e-38
-0.15410048 0.061640181 1.034 2.3509886e-38
-0.15047458 0.062546656 1.034 2.3509886e-38
-0.14775515 0.062546656 1.034 2.3509886e-38
-0.14140984 0.062546656 1.034 2.3509886e-38
-0.18492055 0.066172555 1.034 2.3509883e-38
-0.1495681 0.064359605 1.034 2.3509886e-38
-0.14594221 0.064359605 1.0340002 2.3509886e-38
-0.14231631 0.064359605 1.034 2.3509886e-38
-0.18945292 0.070704922 1.034 2.3509696e-38
-0.18673351 0.070704922 1.034 2.35098e-38
-0.18945292 0.074330814 1.034 2.3509674e-38
-0.18673351 0.074330814 1.034 2.3509722e-38
-0.18945292 0.077050239 1.034 2.350966e-38
-0.18582702 0.077956706 1.034 2.3509668e-38
-0.18492055 0.081582598 1.034 2.3509638e-38
-0.18492055 0.08520849 1.034 2.3503874e-38
-0.1774461 0.055508777 1.038 2.3509886e-38
-0.17562613 0.055508777 1.038 2.3509886e-38
-0.16834629 0.055508777 1.038 2.3509886e-38
-0.16531304 0.054902129 1.038 2.3509886e-38
-0.16197644 0.054598797 1.038 2.3509886e-38
-0.15924649 0.055508777 1.038 2.3509886e-38
-0.18897252 0.058542043 1.038 2.3509886e-38
-0.18563591 0.058238715 1.038 2.3509886e-38
-0.18199599 0.058238715 1.038 2.3509886e-38
-0.17865941 0.057935387 1.038 2.3509886e-38
-0.15803319 0.057935387 1.038 2.3509886e-38
-0.15469658 0.059148699 1.038 2.3509886e-38
-0.15014669 0.059148699 1.038 2.3509886e-38
-0.14559679 0.059148699 1.038 2.3509886e-38
-0.14286685 0.059148699 1.038 2.3509886e-38
-0.18927583 0.06187864 1.038 2.3509881e-38
-0.18563591 0.060968656 1.038 2.3509886e-38
-0.18199599 0.060968656 1.038 2.3509886e-38
-0.15378661 0.060968656 1.038 2.3509886e-38
-0.15014671 0.06096866 1.038 2.3509886e-38
-0.14559679 0.061878636 1.038 2.3509886e-38
-0.14195687 0.060968656 1.038 2.3509886e-38
-0.19200577 0.066428542 1.038 2.3509804e-38
-0.18927583 0.065518558 1.038 2.3509856e-38
-0.19200578 0.070068464 1.038 2.3509708e-38
-0.18927583 0.068248495 1.038 2.3509811e-38
-0.19261241 0.074921682 1.038 2.35082e-38
-0.19261241 0.077954948 1.038 2.3498831e-38
-0.18927583 0.079168253 1.038 2.3509589e-38
-0.19200577 0.081898198 1.038 1.7955274e-38
-0.18927583 0.081898198 1.038 2.3314804e-38
-0.19200577 0.084628135 1.038 7.3468397e-39
-0.18927583 0.085538112 1.038 1.7121974e-38
-0.18836585 0.088268057 1.038 1.2136276e-38
-0.18654588 0.089178041 1.038 1.7946757e-38
-0.18982288 0.055669207 1.041 2.3509886e-38
-0.1859899 0.054209031 1.041 2.3509886e-38
-0.182522 0.053843986 1.041 2.3509886e-38
-0.17821971 0.05332249 1.041 2.3509886e-38
-0.1733959 0.05293138 1.041 2.3509886e-38
-0.16974546 0.053843986 1.041 2.3509886e-38
-0.16609502 0.052931376 1.041 2.3509886e-38
-0.16244458 0.052018769 1.041 2.3509886e-38
-0.15848994 0.054452397 1.0410001 2.3509886e-38
-0.15331846 0.055669207 1.041 2.3509886e-38
-0.19347331 0.058407038 1.041 2.3509879e-38
-0.19073549 0.057494428 1.041 2.3509886e-38
-0.1560563 0.057494428 1.041 2.3509886e-38
-0.15331846 0.057494428 1.041 2.3509886e-38
-0.14966804 0.057494428 1.041 2.3509886e-38
-0.14601758 0.057494428 1.041 2.3509886e-38
-0.19347331 0.06205748 1.041 2.3509848e-38
-0.19377753 0.065403715 1.0410001 2.3509771e-38
-0.19438592 0.069358349 1.041 2.3509671e-38
-0.19438592 0.073008791 1.041 2.3509618e-38
-0.19621114 0.079397067 1.041 1.2975351e-38
-0.19438592 0.079397067 1.041 2.0443169e-38
-0.19621114 0.082134902 1.041 7.4483946e-39
-0.19438592 0.082134902 1.041 8.8327528e-39
-0.19347331 0.085785344 1.041 3.4897489e-39
-0.1925607 0.088523164 1.041 5.0627905e-39
-0.19012707 0.089739978 1.0410001 3.5830193e-39
-0.18877527 0.046199463 1.0470002 2.3509886e-38
-0.18540975 0.045893505 1.0470001 2.3509886e-38
-0.18173826 0.045893505 1.0470001 2.3509886e-38
-0.17806679 0.046811372 1.0470001 2.3509886e-38
-0.17439529 0.046811372 1.0470001 2.3509886e-38
-0.17164169 0.046811372 1.0470001 2.3509886e-38
-0.1942825 0.049870938 1.0470002 2.3509886e-38
-0.19036625 0.049381405 1.0470001 2.3509886e-38
-0.18658185 0.049774509 1.0450001 2.3509886e-38
-0.18221912 0.049446195 1.0445001 2.3509886e-38
-0.17755654 0.049422961 1.044 2.3509886e-38
-0.17401986 0.049457807 1.04475 2.3509886e-38
-0.17047922 0.049492653 1.0455 2.3509886e-38
-0.16631015 0.049323544 1.0458001 2.3509886e-38
-0.16230607 0.050434634 1.046 2.3509886e-38
-0.15879151 0.050482851 1.0470001 2.3509886e-38
-0.19734205 0.05599007 1.0470001 2.3509886e-38
-0.19431011 0.054074999 1.0455 2.3509886e-38
-0.19050732 0.053121395 1.0447501 2.3509886e-38
-0.1876242 0.052168682 1.044 2.3509886e-38
-0.17023464 0.052168682 1.044 2.3509886e-38
-0.16748892 0.052168682 1.044 2.3509886e-38
-0.16016701 0.052168682 1.044 2.3509886e-38
-0.1571885 0.053617813 1.0455 2.3509886e-38
-0.1510146 0.0549144 1.044 2.3509886e-38
-0.20560288 0.059661549 1.0470001 2.3509771e-38
-0.20101354 0.059661549 1.0470001 2.3509741e-38
-0.19797719 0.058659516 1.0455 2.3509818e-38
-0.20560288 0.06149729 1.0470001 2.3508264e-38
-0.20101354 0.06241516 1.0470001 2.3509702e-38
-0.1979772 0.062325738 1.0455 2.3509762e-38
-0.20101354 0.06608665 1.0470001 2.3509593e-38
-0.19797719 0.06599196 1.0455 2.3509671e-38
-0.20101354 0.06884025 1.0470001 2.3507059e-38
-0.1979772 0.069658175 1.0455 2.350892e-38
-0.19737691 0.073728763 1.0447501 2.3224382e-38
-0.1967766 0.077795401 1.044 1.8780718e-38
-0.19550632 0.087197646 1.0470001 4.6050549e-39
-0.18962298 0.043263495 1.05 2.3509886e-38
-0.18594098 0.042342991 1.05 2.3509886e-38
-0.18225899 0.042342991 1.05 2.3509886e-38
-0.17888382 0.042649828 1.05 2.3509886e-38
-0.17581548 0.043263495 1.05 2.3509886e-38
-0.19606648 0.046945497 1.05 2.3509886e-38
-0.19330499 0.046025001 1.05 2.3509886e-38
-0.19054349 0.045104496 1.05 2.3509886e-38
-0.17857698 0.045104496 1.05 2.3509886e-38
-0.17397448 0.045104496 1.05 2.3509886e-38
-0.16937199 0.046025001 1.05 2.3509886e-38
-0.16568998 0.046945497 1.05 2.3509886e-38
-0.16200799 0.046945497 1.05 2.3509886e-38
-0.1972938 0.049400162 1.05 2.3509886e-38
-0.16200799 0.048786495 1.05 2.3509886e-38
-0.15832599 0.049706995 1.05 2.3509886e-38
-0.19852114 0.053695828 1.05 2.3509879e-38
-0.15556449 0.053388998 1.05 2.3509886e-38
-0.20527148 0.057991493 1.05 2.3509726e-38
-0.20250998 0.057991493 1.05 2.3509759e-38
-0.19974849 0.056150492 1.05 2.3509832e-38
-0.20527148 0.063514493 1.05 2.3509647e-38
-0.20343047 0.062593997 1.05 2.3509629e-38
-0.20527148 0.066275991 1.05 2.3499489e-38
-0.20343047 0.066275991 1.05 2.3506686e-38
-0.20281681 0.070264831 1.05 2.2664777e-38
-0.20158949 0.072719492 1.05 2.081473e-38
-0.19974849 0.074560493 1.05 2.228777e-38
-0.19974849 0.076401494 1.05 1.5742666e-38
-0.18664932 0.038808279 1.054 2.3509886e-38
-0.18239892 0.038993087 1.054 2.3509886e-38
-0.1940414 0.043428313 1.054 2.3509886e-38
-0.19034538 0.041580297 1.054 2.3509886e-38
-0.17740928 0.041580297 1.054 2.3509886e-38
-0.17402124 0.04281231 1.0540001 2.3509886e-38
-0.17094123 0.043428313 1.054 2.3509886e-38
-0.19773743 0.046200335 1.054 2.3509886e-38
-0.16632119 0.045276325 1.054 2.3509886e-38
-0.15985316 0.047124341 1.054 2.3509886e-38
-0.20420547 0.049896359 1.054 2.3509775e-38
-0.20143345 0.049896359 1.054 2.3509886e-38
-0.20482147 0.053900387 1.0540001 2.3509757e-38
-0.20174146 0.053284388 1.0540001 2.3509879e-38
-0.20512947 0.056364402 1.054 2.350974e-38
-0.20235746 0.074844539 1.054 1.5096536e-38
-0.20235746 0.076692551 1.054 1.0487542e-38
-0.18957038 0.034382861 1.0599999 2.3509886e-38
-0.18585332 0.033453599 1.0599999 2.3509886e-38
-0.18213624 0.033453599 1.0599999 2.3509886e-38
-0.17841919 0.033453599 1.0599999 2.3509886e-38
-0.17501187 0.033763357 1.0599999 2.3509886e-38
-0.16959116 0.033918232 1.0599999 2.3509886e-38
-0.16633871 0.033453599 1.0599999 2.1948503e-38
-0.19700451 0.039029196 1.0599999 2.3509886e-38
-0.19388588 0.038033132 1.0582 2.3509886e-38
-0.19035926 0.038009197 1.0575001 2.3509886e-38
-0.18532732 0.036138833 1.057 2.3509886e-38
-0.18131191 0.03675659 1.057 2.3509886e-38
-0.17825088 0.038062237 1.059 2.3509886e-38
-0.17470211 0.03809993 1.0599999 2.3509886e-38
-0.16982348 0.03809993 1.0599999 2.3509886e-38
-0.16571921 0.036860909 1.0599999 2.3509886e-38
-0.20536792 0.043675527 1.0599999 2.3509886e-38
-0.20258011 0.043675527 1.0599999 2.3509886e-38
-0.19858167 0.042684458 1.0585001 2.3509886e-38
-0.1945937 0.04169865 1.057 2.3509886e-38
-0.17328106 0.04169865 1.057 2.3509886e-38
-0.16969351 0.042191554 1.0577501 2.3509886e-38
-0.16587181 0.042907394 1.0594 2.3509886e-38
-0.16262165 0.042746261 1.0599999 2.3509886e-38
-0.20536792 0.046463329 1.0599999 2.3509807e-38
-0.20229346 0.046396267 1.0585001 2.3509886e-38
-0.19922689 0.045405198 1.057 2.3509886e-38
-0.16401468 0.045405198 1.057 2.3509886e-38
-0.16146226 0.045469631 1.0585001 2.3509886e-38
-0.20663998 0.052818287 1.057 2.3509754e-38
-0.18917501 0.030752588 1.063 2.3509886e-38
-0.18637931 0.030752588 1.063 2.3509886e-38
-0.18265173 0.030752588 1.063 2.3509886e-38
-0.17799225 0.03075259 1.063 2.3509886e-38
-0.19383448 0.034480173 1.063 2.3509886e-38
-0.1901069 0.032616381 1.063 2.3509886e-38
-0.17333277 0.032616381 1.063 2.3509886e-38
-0.17053707 0.032616381 1.063 2.3509886e-38
-0.19787273 0.036965232 1.063 2.3509886e-38
-0.17240088 0.038207762 1.063 2.3509886e-38
-0.20408536 0.041935347 1.063 2.3509886e-38
-0.20128967 0.041003451 1.063 2.3509886e-38
-0.1658776 0.040071554 1.063 2.3509886e-38
-0.16121811 0.04379914 1.063 2.3509886e-38
-0.19861731 0.033986323 1.0670002 2.3509886e-38
-0.20111172 0.038351536 1.067 2.3509886e-38
-0.20298252 0.040222343 1.067 2.3509886e-38
-0.2022426 0.033863876 1.073 2.3509886e-38
-0.20412393 0.038567193 1.073 2.3509879e-38
-0.2022426 0.036685869 1.073 2.3509886e-38
-0.20811714 0.035161342 1.084 2.350981e-38
-0.2054556 0.034084801 1.08 2.3509814e-38
-0.20875069 0.037695497 1.084 2.3509841e-38
-0.2054556 0.0369252 1.08 2.350983e-38
-0.20811714 0.040863186 1.084 2.3509886e-38
