# .PCD v0.7 - Point Cloud Data file format
VERSION 0.7
FIELDS x y z rgb
SIZE 4 4 4 4
TYPE F F F F
COUNT 1 1 1 1
WIDTH 842
HEIGHT 1
VIEWPOINT 0 0 0 1 0 0 0
POINTS 842
DATA ascii
-0.24540529 0.015040969 0.903 2.3509677e-38
-0.24540529 0.016624229 0.903 2.3509738e-38
-0.24517208 0.011144185 0.90799999 2.3509841e-38
-0.24331884 0.011168733 0.91000003 2.3509797e-38
-0.24544621 0.014093879 0.91000003 2.3509767e-38
-0.24555258 0.018667741 0.91000003 2.350971e-38
-0.24331884 0.018348632 0.91000003 2.3509698e-38
-0.24491435 0.022337466 0.91000003 2.350971e-38
-0.24331884 0.022337466 0.91000003 2.3509715e-38
-0.24970096 0.043079399 0.91000003 2.3509811e-38
-0.24597806 0.043345325 0.91000003 2.3509849e-38
-0.24252108 0.043877166 0.91000003 2.3509821e-38
-0.24970096 0.046270471 0.91000003 2.350964e-38
-0.24571213 0.046270467 0.91000003 2.3509675e-38
-0.2417233 0.046270467 0.91000003 2.3509689e-38
-0.24810544 0.049461532 0.91000003 2.3509776e-38
-0.24555258 0.049940195 0.91000003 2.3509795e-38
-0.24217917 0.050031368 0.91000003 2.3509809e-38
-0.25049871 0.054248132 0.91000003 2.3509869e-38
-0.24571213 0.054248132 0.91000003 2.3509877e-38
-0.24331884 0.055045899 0.91000003 2.3509877e-38
-0.24810544 0.057439197 0.91000003 2.3509807e-38
-0.24571213 0.057439193 0.91000003 2.3509821e-38
-0.24331884 0.057439197 0.91000003 2.3509834e-38
-0.24892335 0.013606743 0.91299999 2.3509802e-38
-0.24438836 0.014422043 0.91400003 2.3509738e-38
-0.24946864 0.01844945 0.91500002 2.3509783e-38
-0.24305144 0.01844945 0.91500002 2.3509886e-38
-0.24946864 0.0224602 0.91500002 2.3509696e-38
-0.24732256 0.022411104 0.91299999 2.3509701e-38
-0.24251756 0.022046413 0.9145 2.350981e-38
-0.24946864 0.0256688 0.91500002 2.3509786e-38
-0.24572176 0.025612695 0.91300005 2.3509776e-38
-0.24198367 0.025640747 0.91400003 2.3509831e-38
-0.24946074 0.030031968 0.91349995 2.3509877e-38
-0.24572177 0.029614674 0.91299999 2.350987e-38
-0.24180776 0.029626071 0.91333336 2.3509877e-38
-0.25267723 0.034492448 0.91500002 2.3509886e-38
-0.25013447 0.033672325 0.9145 2.3509886e-38
-0.24572179 0.033616662 0.91300005 2.3509886e-38
-0.24211648 0.033672325 0.9145 2.3509886e-38
-0.2580249 0.038770586 0.91500008 2.3509867e-38
-0.25405234 0.038159423 0.91500008 2.3509886e-38
-0.24990609 0.037644945 0.91366667 2.3509886e-38
-0.24578118 0.03762741 0.91322219 2.3509886e-38
-0.24219723 0.037988245 0.91420001 2.3509886e-38
-0.2615009 0.0417118 0.91500002 2.3509853e-38
-0.25801086 0.04166621 0.91400003 2.3509685e-38
-0.2540459 0.041460544 0.91300005 2.3509862e-38
-0.24972373 0.04082023 0.91299999 2.3509886e-38
-0.24540161 0.041460544 0.91300005 2.3509886e-38
-0.24171978 0.041620627 0.91299999 2.3509886e-38
-0.23823854 0.042513952 0.91500008 2.3509869e-38
-0.23422779 0.042513952 0.91500002 2.350983e-38
-0.27112669 0.047326848 0.91500002 8.2010572e-39
-0.26069874 0.045722548 0.91500002 2.3509884e-38
-0.25801086 0.045672581 0.91400003 2.3509405e-38
-0.25452614 0.04562261 0.91300005 2.3509657e-38
-0.24091938 0.044021815 0.91299999 2.350981e-38
-0.23823854 0.045722552 0.91500008 2.3509731e-38
-0.23449516 0.044653021 0.91500008 2.3509743e-38
-0.27112669 0.048931152 0.91500002 6.5455142e-39
-0.26069874 0.0497333 0.91500002 2.3509886e-38
-0.25801086 0.049678944 0.91400003 2.350988e-38
-0.25372574 0.049624592 0.91300005 2.350983e-38
-0.25052413 0.049624592 0.91299999 2.3509789e-38
-0.24091938 0.050424989 0.91299999 2.3509851e-38
-0.2385594 0.049572866 0.91500008 2.3509841e-38
-0.26134047 0.054064907 0.91500008 2.3508983e-38
-0.2578221 0.053645562 0.91333342 2.3509842e-38
-0.25418311 0.053397886 0.91300011 2.350987e-38
-0.24932355 0.053226374 0.91299999 2.350987e-38
-0.24572176 0.052826174 0.91299999 2.3509874e-38
-0.2415597 0.05394673 0.91300005 2.3509881e-38
-0.23920111 0.053744048 0.91500008 2.3509886e-38
-0.26123351 0.057487421 0.91500008 2.3499502e-38
-0.25815159 0.057723675 0.9145 2.3503888e-38
-0.25372574 0.057628557 0.91300005 2.3508993e-38
-0.25052413 0.057628557 0.91299999 2.3509761e-38
-0.24171978 0.057628557 0.91299999 2.3509852e-38
-0.23823856 0.0577548 0.91500008 2.3509797e-38
-0.25829232 0.061765548 0.91500008 2.3500276e-38
-0.25403529 0.061706323 0.91411114 2.3501713e-38
-0.24981521 0.061653625 0.91333342 2.3503155e-38
-0.24572179 0.06163054 0.91299999 2.3505671e-38
-0.24171978 0.061630543 0.91300005 2.3506403e-38
-0.23823854 0.061765544 0.91500008 2.3508197e-38
-0.23502994 0.062567696 0.91500002 2.3508204e-38
-0.25347936 0.064974152 0.91500002 2.3502456e-38
-0.25027078 0.064974152 0.91500002 2.3503535e-38
-0.24583223 0.065587468 0.91460001 2.3504205e-38
-0.24211648 0.065740794 0.9145 2.3506019e-38
-0.23823856 0.065776303 0.91500008 2.3505678e-38
-0.24626267 0.0088525796 0.91799998 2.3509545e-38
-0.24241352 0.0096643735 0.91866672 1.5666766e-38
-0.2390027 0.0099472441 0.92000002 4.4113324e-39
-0.25244492 0.015324133 0.92000002 2.3509823e-38
-0.24247217 0.013694895 0.91888893 1.0150765e-38
-0.23954038 0.012097999 0.92000002 3.5873241e-42
-0.25244492 0.016937198 0.92000002 2.3509692e-38
-0.25189611 0.018509939 0.91799998 2.3509813e-38
-0.24233766 0.017575061 0.91960001 2.3509872e-38
-0.25728413 0.021776401 0.92000002 2.0736401e-38
-0.25443998 0.021769134 0.91971433 2.3508421e-38
-0.25135958 0.021192539 0.91799998 2.3509832e-38
-0.24205291 0.020685241 0.9193334 2.3509842e-38
-0.25441158 0.025522104 0.9193334 2.3509886e-38
-0.25189611 0.025752958 0.91799998 2.3509886e-38
-0.25728413 0.031454798 0.92000002 2.3509886e-38
-0.25459275 0.030150671 0.91960001 2.3509886e-38
-0.25189611 0.028972078 0.91799998 2.3509886e-38
-0.26534945 0.033067867 0.92000002 2.3509886e-38
-0.26221734 0.033682935 0.91920006 2.3509886e-38
-0.25823689 0.033990469 0.9188 2.3509886e-38
-0.25457871 0.0335325 0.91799998 2.3509886e-38
-0.26857561 0.039520133 0.92000002 2.350986e-38
-0.2659418 0.038106069 0.91833341 2.3509886e-38
-0.26235831 0.037824661 0.9180001 2.350987e-38
-0.25873676 0.036617488 0.91799998 2.3509886e-38
-0.25511524 0.036215097 0.91799998 2.3509886e-38
-0.24116266 0.037441991 0.91850001 2.3509886e-38
-0.23812895 0.037705433 0.92000002 2.3509886e-38
-0.23409404 0.038112957 0.91942859 2.3509884e-38
-0.23050724 0.038552292 0.92000002 2.3509849e-38
-0.26857561 0.041133199 0.92000002 2.3509796e-38
-0.2658667 0.041895024 0.91900003 2.3509886e-38
-0.24062921 0.041043781 0.91799998 2.3509886e-38
-0.23821487 0.041043781 0.91799998 2.3509886e-38
-0.23378858 0.041446172 0.91799998 2.3509824e-38
-0.22969428 0.041909348 0.91933334 2.3509799e-38
-0.27341479 0.045972399 0.92000002 1.0132482e-38
-0.27018869 0.046778932 0.92000002 1.6406082e-38
-0.26615596 0.045972403 0.92000002 2.3509886e-38
-0.26276067 0.045872457 0.91799998 2.3509886e-38
-0.23373888 0.046426218 0.91833341 2.3509817e-38
-0.22963913 0.045928761 0.91911113 2.3509876e-38
-0.26857561 0.050005067 0.92000002 2.2762115e-38
-0.26601177 0.049977452 0.91949999 2.3509723e-38
-0.26316306 0.049896356 0.91799998 2.3509886e-38
-0.23741008 0.050701138 0.91799998 2.3509886e-38
-0.23427543 0.049914181 0.91833341 2.350988e-38
-0.23041782 0.049949836 0.91899997 2.3509886e-38
-0.26857561 0.052424666 0.92000002 1.7867864e-38
-0.26577088 0.053958833 0.91866672 2.1656738e-38
-0.26316306 0.052310698 0.91799998 2.3509856e-38
-0.23751283 0.053943753 0.91839999 2.3509883e-38
-0.23411731 0.053950068 0.91850007 2.3509876e-38
-0.22968754 0.053747997 0.91850007 2.3509848e-38
-0.22620222 0.054535098 0.91933334 2.3509709e-38
-0.26557738 0.057944156 0.91799998 1.7866446e-38
-0.26316306 0.058748938 0.91799998 2.3404109e-38
-0.23419097 0.05794416 0.9180001 2.3509674e-38
-0.22978345 0.058130711 0.91839999 2.3509646e-38
-0.22638865 0.057604887 0.91900003 2.350964e-38
-0.26546341 0.061634045 0.91899997 1.6117634e-38
-0.26264438 0.06203673 0.91900003 2.2668e-38
-0.23387638 0.061775696 0.91857153 2.3508919e-38
-0.23066854 0.062103063 0.92000002 2.3509633e-38
-0.26534945 0.065329202 0.92000002 1.1417104e-38
-0.26212332 0.066135734 0.92000002 2.2480071e-38
-0.25812504 0.065860115 0.91839999 2.3500287e-38
-0.25431046 0.066796735 0.91799998 2.3502097e-38
-0.25028655 0.066796735 0.91799998 2.3502806e-38
-0.23631425 0.066135734 0.92000002 2.3505322e-38
-0.23470119 0.065329202 0.92000002 2.3509635e-38
-0.254058 0.06855534 0.92000002 2.3501733e-38
-0.25002533 0.068555333 0.92000002 2.3503168e-38
-0.24606016 0.070332773 0.91949999 2.3503521e-38
-0.24250177 0.068884082 0.91900003 2.3506039e-38
-0.23954038 0.068555333 0.92000002 2.3506389e-38
-0.24032149 0.014564939 0.92299998 1.0143236e-38
-0.23816374 0.012676891 0.92300004 3.5059381e-39
-0.24193981 0.021847408 0.92299998 2.3509886e-38
-0.25758362 0.026162948 0.92300004 2.3509886e-38
-0.24113065 0.026702389 0.92299998 2.3509886e-38
-0.26459637 0.031557366 0.92299998 2.3509886e-38
-0.26216891 0.031557366 0.92299998 2.3509886e-38
-0.25812307 0.029534459 0.92299998 2.3509886e-38
-0.24113065 0.029939041 0.92299998 2.3509886e-38
-0.26945135 0.034794021 0.92299998 2.3509886e-38
-0.26702389 0.034794021 0.92299998 2.3509886e-38
-0.24113065 0.033984859 0.92299998 2.3509886e-38
-0.23789401 0.033984859 0.92299998 2.3509886e-38
-0.2338482 0.033984859 0.92299998 2.3509886e-38
-0.22980237 0.034794021 0.92299998 2.3509886e-38
-0.27026051 0.038030673 0.92299998 2.1847815e-38
-0.26783305 0.036412347 0.92299998 2.3509886e-38
-0.22980237 0.037221514 0.92299998 2.3509842e-38
-0.2273749 0.039648999 0.92299998 2.3509809e-38
-0.27053028 0.042346209 0.92300004 2.230692e-38
-0.2273749 0.041267328 0.92299998 2.3509838e-38
-0.27042237 0.045798641 0.92299998 1.9816943e-38
-0.2273749 0.046122305 0.92300004 2.3509886e-38
-0.27268803 0.050977286 0.92299998 7.5571648e-39
-0.27106971 0.050168123 0.92299998 1.343704e-38
-0.22899319 0.050168123 0.92299998 2.3509886e-38
-0.22616115 0.050572705 0.92299998 2.3509872e-38
-0.27026051 0.053404778 0.92299998 1.1970243e-38
-0.22454283 0.05380936 0.92299998 2.3509691e-38
-0.22467768 0.058529478 0.92300004 2.3509626e-38
-0.22899321 0.062305577 0.92300004 2.3509617e-38
-0.22656572 0.062305577 0.92299998 2.3509612e-38
-0.26459637 0.067160554 0.92299998 1.5655545e-38
-0.23352452 0.066513225 0.92299998 2.3509618e-38
-0.23061153 0.066351391 0.92299998 2.3509262e-38
-0.26459637 0.06877888 0.92299998 1.4737494e-38
-0.2618992 0.069318324 0.92300004 2.3128664e-38
-0.25920197 0.069318324 0.92300004 2.3500297e-38
-0.25407726 0.070397206 0.92299998 2.3501719e-38
-0.2508406 0.070397206 0.92299998 2.3503877e-38
-0.24193981 0.070397206 0.92299998 2.3506388e-38
-0.237894 0.06877888 0.92299998 2.3506035e-38
-0.23546651 0.06877888 0.92299998 2.3507823e-38
-0.25326809 0.072015531 0.92299998 2.3501014e-38
-0.25003147 0.072554976 0.92300004 2.3502436e-38
-0.24598563 0.073633857 0.92299998 2.3503522e-38
-0.24355815 0.072824694 0.92299998 2.3502083e-38
-0.23999624 0.015457386 0.92799997 2.314111e-38
-0.24123278 0.017870411 0.92649996 2.3509886e-38
-0.26114848 0.023592852 0.92799997 2.350983e-38
-0.24190359 0.021940336 0.92699999 2.3509886e-38
-0.26169083 0.026304673 0.92799997 2.3509869e-38
-0.24165316 0.025138417 0.92500001 2.3509886e-38
-0.23999624 0.026847038 0.92799997 2.3509886e-38
-0.23430142 0.026847038 0.92799997 2.3509886e-38
-0.23186077 0.026847038 0.92799997 2.3509886e-38
-0.26440266 0.029287677 0.92799997 2.3509855e-38
-0.26132751 0.02921601 0.92574996 2.3509886e-38
-0.23828138 0.029798526 0.92585725 2.3509886e-38
-0.23434156 0.030229658 0.92575008 2.3509886e-38
-0.23079827 0.030067034 0.92699999 2.3509886e-38
-0.22973576 0.033283524 0.926 2.3509886e-38
-0.22786759 0.034869418 0.92500001 2.3509886e-38
-0.27416521 0.039863784 0.92799997 1.2528491e-38
-0.22718799 0.037837107 0.92620003 2.3509845e-38
-0.27470759 0.042575609 0.92799997 1.31681e-38
-0.22621278 0.04238455 0.92620003 2.3509884e-38
-0.27497876 0.044745062 0.92799997 1.0590208e-38
-0.22543484 0.046222251 0.92500007 2.3509886e-38
-0.22372532 0.047999252 0.92799997 2.3509883e-38
-0.22543484 0.049465913 0.92500001 2.3509886e-38
-0.2227008 0.050602369 0.926 2.3509608e-38
-0.22264054 0.054076482 0.92620003 2.3509617e-38
-0.22255015 0.057667132 0.92649996 2.3509266e-38
-0.22462392 0.06162966 0.92500001 2.3509614e-38
-0.2233637 0.061730918 0.92649996 2.3509242e-38
-0.2294894 0.066495165 0.92500001 2.3509614e-38
-0.22686362 0.066094875 0.92620003 2.3508881e-38
-0.26516974 0.070549749 0.92500001 1.372162e-38
-0.2635479 0.070549749 0.92500001 2.0544096e-38
-0.25787151 0.070549749 0.92500001 2.3501741e-38
-0.24084224 0.070549749 0.92500001 2.3507827e-38
-0.23840949 0.070549749 0.92500001 2.3506391e-38
-0.23418151 0.069946781 0.92560005 2.3507836e-38
-0.23040919 0.069757588 0.92740005 2.3508922e-38
-0.25708073 0.073219195 0.92799997 2.3500658e-38
-0.25382182 0.07421457 0.92620003 2.3501364e-38
-0.25003263 0.07487464 0.92500007 2.3502075e-38
-0.24570775 0.075415246 0.92500007 2.3502446e-38
-0.24165316 0.072982498 0.92500001 2.3505658e-38
-0.23838528 0.073288277 0.92679995 2.350674e-38
-0.23473364 0.072695389 0.92649996 2.350711e-38
-0.23186077 0.072405644 0.92799997 2.3508193e-38
-0.25301301 0.077286929 0.92799997 2.3500641e-38
-0.24975881 0.077286929 0.92799997 2.3501719e-38
-0.24569108 0.077286929 0.92799997 2.3503521e-38
-0.23833936 0.014403633 0.93000001 1.8625537e-38
-0.2633419 0.023643699 0.93000001 1.71393e-38
-0.24092114 0.022420751 0.93000001 2.3509886e-38
-0.26497248 0.0269049 0.93000001 2.3509778e-38
-0.2633419 0.025274299 0.93000001 2.3509828e-38
-0.24051349 0.025274299 0.93000001 2.3509886e-38
-0.2380676 0.0269049 0.93000001 2.3509886e-38
-0.23480639 0.025274299 0.93000001 2.3509886e-38
-0.23072989 0.0269049 0.93000001 2.3509886e-38
-0.22909932 0.030166101 0.93000001 2.3509886e-38
-0.22746868 0.0342426 0.93000001 2.3509844e-38
-0.22583811 0.038319096 0.93000001 2.3509874e-38
-0.22420749 0.043210898 0.93000001 2.3509886e-38
-0.22420749 0.0456568 0.93000001 2.3509886e-38
-0.22257689 0.046472099 0.93000001 2.3509886e-38
-0.22159854 0.049407177 0.93000001 2.3509695e-38
-0.22094628 0.052994497 0.93000001 2.3509582e-38
-0.22257689 0.059516896 0.93000001 2.3508538e-38
-0.22257689 0.061147496 0.93000001 2.3508879e-38
-0.22583811 0.066854596 0.93000001 2.3508871e-38
-0.2290993 0.070931099 0.93000001 2.3509282e-38
-0.22746868 0.069300503 0.93000001 2.3509245e-38
-0.26497248 0.073376998 0.93000001 1.8790604e-38
-0.26171133 0.073377006 0.93000001 2.2762032e-38
-0.25790656 0.07527937 0.93000001 2.3223725e-38
-0.24295938 0.075822897 0.93000001 2.3505289e-38
-0.23317578 0.074192293 0.93000001 2.350747e-38
-0.22991461 0.072561704 0.93000001 2.35093e-38
-0.25763479 0.077453494 0.93000001 2.3499938e-38
-0.25464538 0.078540564 0.93000001 2.3498489e-38
-0.2502971 0.079084098 0.93000001 2.3501719e-38
-0.24622059 0.079084098 0.93000001 2.350315e-38
-0.2437747 0.077453494 0.93000001 2.3504924e-38
-0.25437361 0.080714695 0.93000001 2.3499211e-38
-0.25192767 0.080714695 0.93000001 2.3500285e-38
-0.24128935 0.01799446 0.93300003 2.3509872e-38
-0.23835659 0.018020174 0.93433332 2.3141459e-38
-0.23442942 0.018033033 0.935 1.2093762e-38
-0.23197038 0.018852714 0.935 1.8995097e-38
-0.23824361 0.022104369 0.93388897 2.3509886e-38
-0.23434559 0.022122975 0.93466663 2.3509886e-38
-0.23131464 0.021803578 0.93500006 2.3141102e-38
-0.23883557 0.025355829 0.93300003 2.3509886e-38
-0.23311004 0.025355829 0.93300003 2.3509886e-38
-0.23054785 0.025919234 0.93366671 2.3509886e-38
-0.22836553 0.030283865 0.93366671 2.3509867e-38
-0.22705227 0.031147964 0.935 2.3509866e-38
-0.22598976 0.03438988 0.93400002 2.3509869e-38
-0.22377354 0.035246383 0.935 2.3509886e-38
-0.22493075 0.037624776 0.93300003 2.3509886e-38
-0.22236632 0.037852891 0.9346 2.3509886e-38
-0.22493075 0.040896498 0.93300003 2.3509886e-38
-0.22181663 0.041743454 0.93366665 2.3509886e-38
-0.21803574 0.041803848 0.93500006 2.1758319e-38
-0.21503025 0.042896759 0.93500006 1.042233e-38
-0.22133186 0.045640498 0.93300003 2.3509792e-38
-0.21803576 0.045902267 0.935 2.3230852e-38
-0.21429767 0.04580408 0.93300003 1.3273864e-38
-0.21184386 0.04580408 0.93300003 9.0308221e-39
-0.22018038 0.04993055 0.93366671 2.3416327e-38
-0.21803574 0.050000679 0.93500006 2.3508175e-38
-0.21414323 0.050174762 0.9338572 1.5392926e-38
-0.21184386 0.049075797 0.93300003 8.2050355e-39
-0.22088288 0.054333173 0.93433332 2.3509219e-38
-0.21830899 0.05382587 0.93500006 2.3506382e-38
-0.22107694 0.058135279 0.93400002 2.3507424e-38
-0.22189572 0.062229306 0.93400002 2.3507777e-38
-0.22493075 0.066252336 0.93300003 2.3509258e-38
-0.2228342 0.065540031 0.93450004 2.3507813e-38
-0.22820246 0.071159914 0.93300003 2.3509255e-38
-0.22598976 0.070417374 0.93400002 2.3508915e-38
-0.22377354 0.068853393 0.935 2.3508557e-38
-0.22967482 0.074102439 0.93400002 2.3507488e-38
-0.22705227 0.073771499 0.935 2.3507843e-38
-0.26500934 0.077703357 0.93300003 1.4275835e-38
-0.26173761 0.077703357 0.93300003 2.331271e-38
-0.25846589 0.079339206 0.93300003 2.3499234e-38
-0.24456106 0.079339206 0.93300003 2.3505288e-38
-0.24182062 0.078333676 0.93400002 2.3505295e-38
-0.23800361 0.077562205 0.93374997 2.3506389e-38
-0.23426227 0.077815562 0.93433332 2.3507814e-38
-0.23061681 0.076599628 0.93450004 2.3506401e-38
-0.22705227 0.076230548 0.935 2.3507843e-38
-0.26557738 0.081148647 0.935 1.0498066e-38
-0.26215884 0.081924938 0.93449998 2.2204629e-38
-0.25808629 0.081991993 0.93340009 2.3406311e-38
-0.25355828 0.082610928 0.93300003 2.3500659e-38
-0.25000903 0.082027428 0.93380004 2.3502082e-38
-0.24691813 0.081579387 0.93366671 2.3502435e-38
-0.24098688 0.081148647 0.935 2.3504592e-38
-0.25656086 0.084427379 0.935 2.3496699e-38
-0.2549215 0.084427379 0.935 2.3500263e-38
-0.24836403 0.084427379 0.935 2.3502801e-38
-0.24672467 0.084427379 0.935 2.350208e-38
-0.23024772 0.023847086 0.93800002 2.3509886e-38
-0.22991461 0.026370132 0.94 2.3509886e-38
-0.22826646 0.028842334 0.94 2.3509886e-38
-0.22579426 0.030490464 0.94 2.3509886e-38
-0.22167394 0.030490464 0.94 2.3508428e-38
-0.22519931 0.032641225 0.9386667 2.3509886e-38
-0.22146352 0.033754002 0.93911117 2.3509886e-38
-0.21837766 0.0346108 0.94 2.3509886e-38
-0.22120228 0.037004102 0.93800002 2.3509886e-38
-0.21873534 0.037826415 0.93800002 2.3509823e-38
-0.21697032 0.054585941 0.9386667 2.3412407e-38
-0.2140294 0.054331414 0.93900001 1.4008199e-38
-0.21885149 0.057593051 0.93849999 2.3506356e-38
-0.22120228 0.063318126 0.93800002 2.350599e-38
-0.21908565 0.061396468 0.93880004 2.3505983e-38
-0.22120228 0.065785065 0.93800002 2.3504928e-38
-0.21955764 0.065785065 0.93800002 2.3504223e-38
-0.22449154 0.071541257 0.93800002 2.3507854e-38
-0.22187382 0.069961004 0.93885726 2.3507104e-38
-0.21955764 0.068252005 0.93800002 2.3506391e-38
-0.2254335 0.074048087 0.93850005 2.3507131e-38
-0.22277269 0.073891312 0.94 2.3507471e-38
-0.23271467 0.079764389 0.93800002 2.3506382e-38
-0.22994931 0.079174571 0.93880004 2.3506389e-38
-0.22609513 0.077561155 0.93920004 2.3507481e-38
-0.26699758 0.083230734 0.94 9.3005496e-39
-0.24504936 0.082231328 0.93800002 2.3504938e-38
-0.24176013 0.083053641 0.93800002 2.3503866e-38
-0.23781687 0.082290366 0.93866676 2.3504961e-38
-0.23390999 0.082363263 0.93950003 2.3507096e-38
-0.23101334 0.082131974 0.94 2.3506385e-38
-0.26452538 0.084878862 0.94 1.8145896e-38
-0.26177853 0.085428238 0.94 2.3129684e-38
-0.25848252 0.086434066 0.93900001 2.3405595e-38
-0.25436455 0.086160265 0.93900007 2.3500634e-38
-0.24970403 0.085977763 0.93850005 2.3502435e-38
-0.2453106 0.085612632 0.93900001 2.3503878e-38
-0.24201787 0.085612632 0.93900001 2.350386e-38
-0.23856729 0.085290894 0.94 2.3504945e-38
-0.23485899 0.084878862 0.94 2.350636e-38
-0.26205319 0.088175133 0.94 2.0452528e-38
-0.25793287 0.089273892 0.94 2.3405225e-38
-0.25463659 0.088175133 0.94 2.3499903e-38
-0.25051627 0.089823268 0.94 2.350027e-38
-0.22899497 0.026454292 0.94300002 2.3509886e-38
-0.22568819 0.028934386 0.94300002 2.3509886e-38
-0.2215547 0.028934384 0.94300002 2.0192218e-38
-0.21742122 0.05704207 0.94300002 2.3507851e-38
-0.21576782 0.05704207 0.94300002 1.9814985e-38
-0.21907461 0.063655637 0.94300002 2.3506005e-38
-0.21907461 0.065309033 0.94300002 2.3505296e-38
-0.22072801 0.071922608 0.94300002 2.3506371e-38
-0.21907461 0.069442518 0.94300002 2.3506038e-38
-0.2215547 0.074402705 0.94300002 2.3507098e-38
-0.2240348 0.077709489 0.94300002 2.3506385e-38
-0.22954611 0.082945228 0.94300002 2.3507473e-38
-0.22734158 0.081842966 0.94300002 2.3508183e-38
-0.2686764 0.085149758 0.94300002 7.4624356e-39
-0.26619631 0.085976452 0.94300002 1.3353531e-38
-0.26371625 0.086803146 0.94300002 1.9993654e-38
-0.23808864 0.086803146 0.94300002 2.3503143e-38
-0.23395514 0.085976452 0.94300002 2.350494e-38
-0.23064837 0.085149758 0.94300002 2.3505682e-38
-0.26123613 0.090109937 0.94300002 2.349351e-38
-0.25792935 0.091763332 0.94300002 2.322011e-38
-0.25445724 0.090440623 0.94300002 2.3499921e-38
-0.2488357 0.089283243 0.94300002 2.3501343e-38
-0.24635561 0.089283243 0.94300002 2.3501352e-38
-0.2425528 0.089117907 0.94300002 2.3503501e-38
-0.23891534 0.088456541 0.94300002 2.3503866e-38
-0.25296918 0.093416721 0.94300002 2.3498134e-38
-0.25048909 0.093416721 0.94300002 2.3500637e-38
-0.22806482 0.026538452 0.94599998 2.3509886e-38
-0.22557685 0.027367778 0.94599998 2.3509886e-38
-0.22308886 0.027367778 0.94599998 7.1008614e-39
-0.2175124 0.058944434 0.94700003 2.2767394e-38
-0.21441863 0.058175601 0.94800001 1.2627447e-38
-0.21751241 0.062265247 0.94700003 2.3505671e-38
-0.21483417 0.061915457 0.94800001 1.6686146e-38
-0.21805647 0.066596508 0.9472 2.3505324e-38
-0.2152497 0.065655313 0.94800001 2.2675592e-38
-0.21857403 0.068979636 0.94800001 2.3504975e-38
-0.22593276 0.081840336 0.94680005 2.3506744e-38
-0.23304078 0.087079294 0.94599998 2.3505676e-38
-0.22948818 0.086452655 0.94639999 2.3505685e-38
-0.22688484 0.08560124 0.94800001 2.3504963e-38
-0.24133404 0.090396598 0.94599998 2.3503138e-38
-0.23768499 0.089733139 0.94600004 2.3504582e-38
-0.23399328 0.089615047 0.94650006 2.3505686e-38
-0.23062469 0.089341104 0.94800001 2.3505322e-38
-0.26262128 0.092249878 0.94800001 2.3124772e-38
-0.25680372 0.093912035 0.94800001 2.3498157e-38
-0.25347939 0.0955742 0.94800001 2.3314456e-38
-0.25017482 0.094178982 0.94650006 2.3499913e-38
-0.24631 0.093713902 0.94599998 2.3501715e-38
-0.24202664 0.093799822 0.94685715 2.3503885e-38
-0.23835105 0.092185006 0.94733334 2.3504187e-38
-0.23436454 0.092249878 0.94800001 2.3503903e-38
-0.21342975 0.062528245 0.95099998 9.2180538e-39
-0.21426344 0.065307282 0.95099998 1.4105077e-38
-0.21815412 0.070309542 0.95099998 2.3504251e-38
-0.22148895 0.074200191 0.95099998 2.3504931e-38
-0.21926571 0.072532766 0.95099998 2.3502445e-38
-0.22426797 0.078368738 0.95099998 2.3507104e-38
-0.22260055 0.078368738 0.95099998 2.3506364e-38
-0.22426797 0.080869861 0.95099998 2.3506385e-38
-0.22649121 0.085872129 0.95099998 2.3506388e-38
-0.23010394 0.090874381 0.95099998 2.3507122e-38
-0.22760281 0.089206964 0.95099998 2.3505687e-38
-0.26178491 0.094209224 0.95099998 2.2300712e-38
-0.258728 0.095320836 0.95099998 2.3498151e-38
-0.25594896 0.095876642 0.95099998 2.3406652e-38
-0.24094217 0.095876642 0.95099998 2.3503187e-38
-0.23844105 0.094209224 0.95099998 2.350458e-38
-0.23427248 0.093653426 0.95099998 2.3505697e-38
-0.23010394 0.092541806 0.95099998 2.3506033e-38
-0.25428152 0.097544067 0.95099998 2.3222992e-38
-0.25011298 0.098377772 0.95099998 2.3499917e-38
-0.21410304 0.066907197 0.954 1.2994784e-38
-0.21661206 0.070252553 0.954 2.3504237e-38
-0.21455188 0.070399836 0.95599997 1.5760244e-38
-0.21813183 0.073826902 0.95480007 2.3503877e-38
-0.21538997 0.072914116 0.95599997 2.1012808e-38
-0.22163008 0.077779613 0.954 2.3504924e-38
-0.21853778 0.077870585 0.95511109 2.3504946e-38
-0.21497092 0.078361727 0.95599997 2.2951443e-38
-0.22497545 0.082797654 0.954 2.3504943e-38
-0.22186124 0.082047522 0.95499992 2.3503513e-38
-0.21790424 0.081295043 0.95599997 2.3504959e-38
-0.21538997 0.081295043 0.95599997 2.3504608e-38
-0.22562945 0.086652353 0.95499992 2.3506389e-38
-0.22300683 0.085952953 0.95559996 2.3504952e-38
-0.22832079 0.091161057 0.954 2.3506775e-38
-0.22604761 0.090419397 0.95499998 2.3504241e-38
-0.22377092 0.089675985 0.95599997 2.3504566e-38
-0.23333883 0.09450642 0.954 2.3506045e-38
-0.22957531 0.094088249 0.954 2.3506402e-38
-0.22616641 0.093817793 0.95550001 2.3504236e-38
-0.26219016 0.098138668 0.95474994 2.2298535e-38
-0.25787151 0.098966897 0.954 2.3129732e-38
-0.25424737 0.099524453 0.954 2.3222273e-38
-0.24839298 0.098688111 0.954 2.350099e-38
-0.24588396 0.098688118 0.954 2.3500284e-38
-0.2414633 0.098329686 0.95400006 2.3502448e-38
-0.23760323 0.097886555 0.95433331 2.3503175e-38
-0.23391482 0.098216027 0.95549995 2.3504245e-38
-0.23003499 0.097430974 0.95533335 2.3504932e-38
-0.22712328 0.096380726 0.95599997 2.3505666e-38
-0.25813276 0.10140929 0.95599997 2.2761308e-38
-0.25380945 0.10219434 0.95550001 2.2946051e-38
-0.25004423 0.10199489 0.9551999 2.3407737e-38
-0.24639942 0.10224737 0.95599997 2.3500626e-38
-0.24220896 0.10140929 0.95600003 2.3502066e-38
-0.2380185 0.10140929 0.95599997 2.3503172e-38
-0.23550421 0.10140929 0.95599997 2.3503183e-38
-0.25226608 0.10476166 0.95599997 2.3037542e-38
-0.25058988 0.10476166 0.95599997 2.3498497e-38
-0.21606588 0.07482437 0.95899999 2.3502089e-38
-0.21858805 0.083231606 0.95899999 2.350352e-38
-0.22111022 0.084913053 0.95899999 2.3504954e-38
-0.21942878 0.084913053 0.95899999 2.3502434e-38
-0.22447313 0.091638841 0.95899999 2.3505672e-38
-0.22279167 0.088275947 0.95899999 2.3504943e-38
-0.22447313 0.094161004 0.95899999 2.350494e-38
-0.22671506 0.097804144 0.95899999 2.3503881e-38
-0.26146495 0.10172752 0.95899999 2.2760977e-38
-0.25726134 0.10340896 0.95899999 2.3130052e-38
-0.24465048 0.10340896 0.95899999 2.3500926e-38
-0.24212831 0.10340896 0.95899999 2.3501678e-38
-0.2379247 0.10340896 0.95899999 2.3501352e-38
-0.23372108 0.10172752 0.95899999 2.3503168e-38
-0.23007795 0.10116705 0.95899999 2.3503482e-38
-0.22699529 0.10004608 0.95899999 2.3503845e-38
-0.25642061 0.10509041 0.95899999 2.2946418e-38
-0.25473917 0.10509041 0.95899999 2.3037542e-38
-0.2488541 0.10509041 0.95899999 2.3500301e-38
-0.24549121 0.10509041 0.95899999 2.3499917e-38
-0.24296904 0.10509041 0.95899999 2.3500606e-38
-0.21719241 0.083665557 0.96399999 2.35046e-38
-0.22095856 0.086865388 0.96200001 2.3503116e-38
-0.21816784 0.085860148 0.96333331 2.3502419e-38
-0.22183208 0.089712806 0.96359998 2.3502424e-38
-0.21888261 0.088736199 0.96399999 2.3503141e-38
-0.22395325 0.093806833 0.96399999 2.3503503e-38
-0.22564347 0.09803237 0.96399999 2.3503504e-38
-0.26508734 0.10299693 0.963 2.0174899e-38
-0.26228288 0.10317023 0.96200007 2.2758823e-38
-0.23445222 0.10373246 0.96200001 2.3501745e-38
-0.22993258 0.1033647 0.96249998 2.3503888e-38
-0.22625276 0.10130672 0.963 2.3502442e-38
-0.26113796 0.10563833 0.96399999 2.2393286e-38
-0.2583335 0.10637385 0.963 2.2669114e-38
-0.25384936 0.10710587 0.96200007 2.3222275e-38
-0.24989295 0.10721721 0.963 2.3407392e-38
-0.24625917 0.10710587 0.96200001 2.3499939e-38
-0.24190564 0.10652025 0.96279997 2.3499575e-38
-0.23807286 0.10637385 0.963 2.3501727e-38
-0.23433474 0.10627057 0.96359998 2.350139e-38
-0.22986901 0.10563833 0.96399999 2.3503889e-38
-0.25691241 0.10986386 0.96399999 2.2484726e-38
-0.25353199 0.10901875 0.96399999 2.2946781e-38
-0.25015154 0.10901875 0.96399999 2.3130811e-38
-0.24592602 0.10901876 0.96399999 2.3499941e-38
-0.2417005 0.10901875 0.96399999 2.3499952e-38
-0.21786831 0.087316871 0.96700001 2.3501332e-38
-0.2195638 0.090707824 0.96700001 2.350205e-38
-0.22253087 0.093674898 0.96700001 2.3502778e-38
-0.2246502 0.098337449 0.96700001 2.3502784e-38
-0.26703703 0.10427161 0.96700001 1.5288573e-38
-0.26195061 0.10681482 0.96700001 2.2208515e-38
-0.23312756 0.10766255 0.96700001 2.3502089e-38
-0.22917148 0.10596709 0.96700001 2.3503176e-38
-0.25432098 0.1110535 0.96700001 2.239289e-38
-0.25008234 0.1110535 0.96700001 2.322264e-38
-0.24584362 0.1110535 0.96700001 2.3501017e-38
-0.24245268 0.1110535 0.96700001 2.3500682e-38
-0.23855309 0.11003621 0.96700001 2.3501731e-38
-0.23397531 0.10935803 0.96700001 2.3501008e-38
-0.2314321 0.10935803 0.96700001 2.3503877e-38
-0.25008231 0.11359671 0.96700001 2.2945696e-38
-0.24584363 0.11359671 0.96700001 2.313082e-38
-0.24245268 0.11274898 0.96700001 2.3500671e-38
-0.23990947 0.11274898 0.96700001 2.3502823e-38
-0.26279837 0.11698765 0.96700001 1.6484928e-38
-0.21854423 0.090138867 0.97000003 2.3500975e-38
-0.22109534 0.093540333 0.97000003 2.3502417e-38
-0.22364642 0.097792163 0.97000003 2.3503131e-38
-0.26956624 0.10289437 0.97000003 1.0221442e-38
-0.22534718 0.10119363 0.97000003 2.3502789e-38
-0.26956624 0.1045951 0.97000003 8.8424736e-39
-0.26616478 0.10629583 0.97000003 2.2385746e-38
-0.26276329 0.10799656 0.97000003 2.3219727e-38
-0.23044935 0.10799656 0.97000003 2.3503884e-38
-0.26446402 0.11054766 0.97000003 2.0176936e-38
-0.26219639 0.1102642 0.97000003 2.2944253e-38
-0.2372523 0.11139803 0.97000003 2.3500261e-38
-0.23470119 0.11139803 0.97000003 2.350135e-38
-0.26446402 0.11479949 0.97000003 1.5287488e-38
-0.26191294 0.11479949 0.97000003 2.2019149e-38
-0.25851148 0.11479949 0.97000003 2.275915e-38
-0.25510997 0.11309877 0.97000003 2.26684e-38
-0.24405524 0.11479949 0.97000003 2.3499566e-38
-0.24150413 0.11479949 0.97000003 2.3500655e-38
-0.23838612 0.11366569 0.97000003 2.3500301e-38
-0.26106256 0.11735059 0.97000003 2.2666972e-38
-0.25851148 0.11650023 0.97000003 2.2207077e-38
-0.24660634 0.11650023 0.97000003 2.2854219e-38
-0.21710651 0.077782243 0.97500002 1.4564226e-38
-0.21709333 0.085643023 0.97366667 2.0738756e-38
-0.21727744 0.089748755 0.97500002 2.2579432e-38
-0.22092614 0.094682626 0.97299999 2.3502411e-38
-0.21781103 0.093958214 0.97433329 2.3316251e-38
-0.21454224 0.094022498 0.97500002 1.9908613e-38
-0.22433811 0.099800602 0.97299999 2.3502421e-38
-0.22200619 0.097341552 0.97400004 2.3501699e-38
-0.21830316 0.097270548 0.97500002 2.3499536e-38
-0.21454224 0.096586749 0.97500002 2.1383412e-38
-0.22596434 0.10294434 0.97449994 2.3501706e-38
-0.22223499 0.10000575 0.97500002 2.3500274e-38
-0.2271294 0.10588029 0.97399998 2.3502089e-38
-0.26669866 0.10966574 0.97350001 1.8238771e-38
-0.26186997 0.11174256 0.97299999 2.3127941e-38
-0.23286808 0.11174256 0.97299999 2.3502438e-38
-0.22972514 0.11016632 0.97414285 2.3501729e-38
-0.22650874 0.10940799 0.97500002 2.3501015e-38
-0.26640934 0.11356515 0.97399998 1.5105209e-38
-0.26186997 0.11344855 0.97299999 2.2482954e-38
-0.25760499 0.11430155 0.97299999 2.2852775e-38
-0.25504598 0.11515454 0.97299999 2.2760595e-38
-0.23684874 0.11458588 0.97299999 2.3502467e-38
-0.23408096 0.1144782 0.97449994 2.3502436e-38
-0.23163724 0.11368175 0.97500002 2.3501021e-38
-0.26016396 0.11856653 0.97299999 2.3034998e-38
-0.25732064 0.11799787 0.97299999 2.2207768e-38
-0.25388882 0.11798163 0.9738 2.2300332e-38
-0.249928 0.11771353 0.97299999 2.2761669e-38
-0.24554762 0.11807911 0.97366667 2.3131124e-38
-0.24183777 0.11793288 0.97340006 2.3407716e-38
-0.2380348 0.11773651 0.97459996 2.3501377e-38
-0.23420149 0.11710075 0.97500002 2.3501349e-38
-0.26411778 0.12222925 0.97500008 1.4000367e-38
-0.26198089 0.12180187 0.97500002 1.9900406e-38
-0.25813448 0.12051975 0.97500002 2.2117749e-38
-0.25386074 0.12051975 0.97500008 2.2209576e-38
-0.249587 0.12051975 0.97500002 2.2485804e-38
-0.246168 0.1213745 0.97500002 2.3037889e-38
-0.24203697 0.12110466 0.97419995 2.3130068e-38
-0.23847523 0.12051975 0.97500002 2.3498866e-38
-0.21777451 0.083165854 0.97799999 1.8342403e-38
-0.21691713 0.084880613 0.97799999 1.5944221e-38
-0.21520236 0.085737996 0.97799999 1.1889237e-38
-0.21691713 0.090024889 0.97799999 2.1840068e-38
-0.21520238 0.090024889 0.97800004 1.6499627e-38
-0.21691713 0.098598696 0.97799999 2.3501315e-38
-0.22181645 0.10251815 0.97800004 2.3500647e-38
-0.21863189 0.10117084 0.97799999 2.349914e-38
-0.22549093 0.10631511 0.97799999 2.3499911e-38
-0.22291878 0.10545773 0.97799999 2.3501701e-38
-0.22549093 0.10974464 0.97799999 2.3501367e-38
-0.23234996 0.1157463 0.97799999 2.350211e-38
-0.23006365 0.11403154 0.97800004 2.3501017e-38
-0.22720568 0.11231677 0.97799999 2.350136e-38
-0.23363602 0.11874712 0.97799999 2.3501723e-38
-0.23063521 0.11746105 0.97799999 2.3501035e-38
-0.25378448 0.12260534 0.97799999 2.2302125e-38
-0.25035495 0.12260534 0.97799999 2.239361e-38
-0.23749426 0.12089057 0.97799999 2.3500306e-38
-0.2349221 0.12089057 0.97799999 2.3501007e-38
-0.25378448 0.12432009 0.97799999 2.2025898e-38
-0.25035495 0.12432009 0.97799999 2.2578e-38
-0.24606806 0.12432009 0.97800004 2.2669469e-38
-0.24263851 0.12432009 0.97799999 2.3498515e-38
-0.21652263 0.099203601 0.98400003 2.2303239e-38
-0.21722923 0.10129707 0.98200005 2.3130757e-38
-0.22446261 0.10750125 0.98100001 2.3501349e-38
-0.22159591 0.10692792 0.98100007 2.3222597e-38
-0.21930254 0.10406121 0.98100001 2.3314402e-38
-0.22446261 0.11008128 0.98100001 2.3499566e-38
-0.22239082 0.11033442 0.98325002 2.3406272e-38
-0.22962266 0.11438133 0.98100001 2.3500634e-38
-0.22652714 0.11369491 0.98250002 2.3500267e-38
-0.22342375 0.11300584 0.98400003 2.3498492e-38
-0.22963056 0.1183252 0.98314297 2.3500636e-38
-0.22687431 0.11645639 0.98400003 2.3501353e-38
-0.26144305 0.12298143 0.98100001 2.248291e-38
-0.258003 0.12298143 0.98100001 2.2209185e-38
-0.24166282 0.12298143 0.98100001 2.349958e-38
-0.23822276 0.12298143 0.98100007 2.340703e-38
-0.23314424 0.12251802 0.98280001 2.3500295e-38
-0.26483047 0.12680808 0.98400003 1.4642837e-38
-0.26184279 0.12575476 0.98250002 2.2296416e-38
-0.25827441 0.12611797 0.98400003 2.2024452e-38
-0.25447878 0.12680808 0.98400003 2.2301048e-38
-0.2494029 0.12642147 0.98100001 2.2670539e-38
-0.24596286 0.12642147 0.98100001 2.2485091e-38
-0.24203101 0.12618476 0.98250002 2.3221926e-38
-0.23831378 0.12562038 0.98280001 2.3223361e-38
-0.23550072 0.12594545 0.98400003 2.3499202e-38
-0.26224256 0.12853335 0.98400003 2.1468105e-38
-0.25792935 0.12853335 0.98400009 2.193193e-38
-0.25447878 0.12853335 0.98400003 2.1841519e-38
-0.25016558 0.12853335 0.98400003 2.2578005e-38
-0.24671504 0.12939599 0.98400003 2.220959e-38
-0.21718276 0.10296712 0.98699999 2.2579806e-38
-0.21545222 0.10210185 0.98699999 1.6864041e-38
-0.22064383 0.10642821 0.98699999 2.3129715e-38
-0.21833646 0.10527452 0.98699999 2.3222977e-38
-0.21545222 0.10469767 0.98699999 1.9260405e-38
-0.22064383 0.10902402 0.98699999 2.3314819e-38
-0.2189133 0.10815874 0.98699999 2.3499219e-38
-0.22497019 0.1150809 0.98699999 2.3498473e-38
-0.22237438 0.11335036 0.98699999 2.3498852e-38
-0.2264123 0.11796513 0.98699999 2.3501014e-38
-0.2301618 0.12286832 0.98699999 2.350063e-38
-0.22756599 0.12027252 0.98699999 2.3500311e-38
-0.25352409 0.12719469 0.98699999 2.2393244e-38
-0.23391131 0.126041 0.98699999 2.3499575e-38
-0.23102707 0.12546416 0.98699999 2.3502075e-38
-0.26217681 0.13065577 0.98699999 2.0453937e-38
-0.25785047 0.13065577 0.98699999 2.1840433e-38
-0.25438938 0.1297905 0.98699999 2.1748966e-38
-0.25092828 0.13065577 0.98699999 2.2210295e-38
-0.24487138 0.1297905 0.98699999 2.3222228e-38
-0.24227557 0.1297905 0.98699999 2.3405919e-38
-0.23794924 0.12979051 0.98699999 2.340594e-38
-0.24833247 0.13238631 0.98699999 2.2026282e-38
-0.24573666 0.13238631 0.98699999 2.2209206e-38
-0.24314085 0.13238631 0.98699999 2.2669437e-38
-0.21762285 0.10664387 0.98900002 2.2855661e-38
-0.21473277 0.10606585 0.98900002 1.732651e-38
-0.22109094 0.11184601 0.98900002 2.3130401e-38
-0.21848989 0.11011196 0.98900002 2.3315179e-38
-0.21415477 0.10924494 0.98900002 1.6772594e-38
-0.22142495 0.11462066 0.99050003 2.3222954e-38
-0.21741331 0.11305492 0.99199998 2.2579073e-38
-0.21480437 0.11218527 0.99199998 1.8530055e-38
-0.22455904 0.11791517 0.98900002 2.3500997e-38
-0.22269583 0.11786461 0.99100006 2.3406994e-38
-0.22802712 0.12311731 0.98900002 2.3500299e-38
-0.22559635 0.12147597 0.98975003 2.34063e-38
-0.23322928 0.12745243 0.98900002 2.3407008e-38
-0.22976117 0.12658539 0.98900002 2.349954e-38
-0.22697949 0.12523007 0.99199998 2.3497769e-38
-0.25403783 0.13092051 0.98900002 2.1564578e-38
-0.23369914 0.13031648 0.99100006 2.3407718e-38
-0.23045813 0.12957834 0.99199998 2.3500615e-38
-0.26444212 0.13265456 0.98900002 1.5841711e-38
-0.26136851 0.1337254 0.99050003 2.137732e-38
-0.25837296 0.13265456 0.98900002 2.1105064e-38
-0.25399819 0.13351123 0.99019998 2.1840444e-38
-0.25024509 0.13394648 0.99000001 2.1933377e-38
-0.24623463 0.13438861 0.98900002 2.2302143e-38
-0.2415527 0.13369499 0.98900002 2.2669464e-38
-0.23774388 0.1336235 0.98975003 2.2946411e-38
-0.23480639 0.13305695 0.99199998 2.3316277e-38
-0.2495905 0.13653557 0.99199998 2.2394708e-38
-0.24631087 0.13749658 0.99140006 2.2301767e-38
-0.24244851 0.13686718 0.99125004 2.2578004e-38
-0.22068767 0.11601368 0.995 2.2301376e-38
-0.2189431 0.11601368 0.995 2.2485777e-38
-0.22417681 0.12124739 0.995 2.3406655e-38
-0.22592136 0.1256088 0.995 2.3497762e-38
-0.22999203 0.12997022 0.99500006 2.340773e-38
-0.22766595 0.12822564 0.995 2.3222967e-38
-0.26430187 0.13520391 0.995 1.7596183e-38
-0.25819588 0.13520391 0.995 2.1746815e-38
-0.23638876 0.13520391 0.995 2.2946765e-38
-0.23377192 0.13433163 0.995 2.3039683e-38
-0.23115507 0.13345934 0.995 2.2947491e-38
-0.26168498 0.13694848 0.995 2.1373736e-38
-0.25732356 0.13694848 0.995 2.2116692e-38
-0.25383446 0.13782077 0.995 2.1931935e-38
-0.25034532 0.13869305 0.995 2.2209579e-38
-0.24162246 0.13869305 0.995 2.2853499e-38
-0.23929641 0.13753001 0.99500006 2.285351e-38
-0.2459839 0.14043762 0.995 2.285245e-38
-0.24336705 0.14043762 0.995 2.2391819e-38
-0.22222799 0.11898822 0.99800003 2.2762331e-38
-0.22485271 0.12336278 0.99800003 2.3497756e-38
-0.2231029 0.12161295 0.99800003 2.3314765e-38
-0.22835237 0.13036209 0.99800003 2.3315554e-38
-0.22660254 0.12948719 0.99800003 2.3498843e-38
-0.23360185 0.13561156 0.99800003 2.2946751e-38
-0.22975226 0.13351177 0.99800009 2.3038618e-38
-0.26509875 0.13736139 0.99800003 1.473314e-38
-0.262474 0.13911122 0.99800003 1.7594406e-38
-0.25897434 0.13823631 0.99800003 2.2298931e-38
-0.23768479 0.13852796 0.99800003 2.2854226e-38
-0.23476842 0.13794468 0.99800003 2.2854224e-38
-0.25634959 0.14086105 0.99800003 2.229933e-38
-0.25343323 0.14144433 0.99800003 2.2392557e-38
-0.25022519 0.14173597 0.99800003 2.2209622e-38
-0.24585065 0.14261088 0.99800003 2.2577663e-38
-0.24147609 0.14173596 0.99800003 2.2669137e-38
-0.2167532 0.11495818 1.001 1.9817531e-38
-0.22026338 0.11846835 1.001 2.2669074e-38
-0.21814154 0.11741664 1.0020001 2.2117726e-38
-0.22201847 0.12153975 1.001 2.2853456e-38
-0.22552864 0.12636624 1.001 2.2852031e-38
-0.22377354 0.12636624 1.001 2.2669799e-38
-0.22498642 0.13007103 1.0024999 2.2852752e-38
-0.22614896 0.13337098 1.0022 2.3315181e-38
-0.26063037 0.13952939 1.001 2.3034616e-38
-0.233134 0.13894437 1.0010002 2.3222654e-38
-0.22991638 0.13777432 1.001 2.3037909e-38
-0.22796486 0.13642685 1.0039999 2.3499949e-38
-0.26493216 0.1417079 1.0039999 1.1421711e-38
-0.26229161 0.1417079 1.0039999 1.952835e-38
-0.25854889 0.14259744 1.0020001 2.0637222e-38
-0.2553651 0.14303957 1.001 2.1930821e-38
-0.23805094 0.14230493 1.0020001 2.2670225e-38
-0.2339531 0.1420124 1.0020001 2.1841235e-38
-0.23079389 0.14128448 1.001 2.2669952e-38
-0.25004759 0.14567237 1.0022 1.8431818e-38
-0.24608032 0.14589179 1.0025001 1.8337805e-38
-0.24256489 0.14589179 1.0025001 1.7784655e-38
-0.23828763 0.14508395 1.003 2.0828927e-38
-0.2180524 0.11917844 1.007 2.1382361e-38
-0.22158362 0.12270965 1.007 2.3127897e-38
-0.21981801 0.12094405 1.007 2.2852036e-38
-0.22334923 0.12535806 1.007 2.248469e-38
-0.22334924 0.1297721 1.007 2.3222612e-38
-0.22864604 0.13860011 1.007 2.349966e-38
-0.22688043 0.13771731 1.007 2.3038286e-38
-0.22952884 0.14124852 1.007 2.027355e-38
-0.22047289 0.12307522 1.01 2.2666919e-38
-0.22135833 0.12573153 1.01 2.3311921e-38
-0.22153543 0.12980452 1.0100001 2.2207059e-38
-0.2246049 0.134881 1.01 2.3037923e-38
-0.22224376 0.13458586 1.01 1.9356541e-38
-0.27005714 0.1381276 1.01 9.210896e-39
-0.22578548 0.1381276 1.01 2.0000492e-38
-0.21935163 0.12255274 1.013 2.2024453e-38
-0.21935163 0.126105 1.013 2.1747887e-38
-0.21935163 0.12965724 1.013 1.787961e-38
-0.22112778 0.13409756 1.013 9.7664898e-39
-0.21854204 0.12309583 1.0175 1.4464808e-38
-0.21821988 0.12647846 1.016 1.0868874e-38
-0.21854204 0.13023454 1.0175 6.6322447e-39
-0.21950854 0.12095369 1.022 1.5665872e-38
-0.21771665 0.12543346 1.022 8.3818121e-39
-0.218181 0.12274532 1.027 1.115023e-38
