# .PCD v0.7 - Point Cloud Data file format
VERSION 0.7
FIELDS x y z rgb
SIZE 4 4 4 4
TYPE F F F F
COUNT 1 1 1 1
WIDTH 813
HEIGHT 1
VIEWPOINT 0 0 0 1 0 0 0
POINTS 813
DATA ascii
-0.11041792 0.11386848 0.98400003 2.3509813e-38
-0.10696736 0.11386848 0.98400003 2.3509636e-38
-0.11688771 0.118613 0.98400003 2.3509802e-38
-0.11404101 0.11852673 0.98400003 2.3509723e-38
-0.11041792 0.11904431 0.98400003 2.3508491e-38
-0.11731903 0.12249488 0.98400003 2.3509659e-38
-0.11386848 0.12249488 0.98400003 2.3508133e-38
-0.11070547 0.12220734 0.98400009 2.3504865e-38
-0.11645639 0.12508281 0.98400003 2.350958e-38
-0.11473113 0.12508281 0.98400003 2.3506685e-38
-0.11421563 0.10642821 0.98699999 2.3509886e-38
-0.10954318 0.10573599 0.98699999 2.3509886e-38
-0.10556294 0.10642821 0.98699999 2.3509886e-38
-0.10210185 0.10642821 0.98699999 2.3509886e-38
-0.09864077 0.10642821 0.98699999 2.3509804e-38
-0.12027252 0.11161982 0.98699999 2.3509886e-38
-0.11767671 0.10988928 0.98699999 2.3509886e-38
-0.11421563 0.10988928 0.98699999 2.3509886e-38
-0.10988929 0.10988929 0.98699993 2.3509884e-38
-0.10556294 0.10988928 0.98699999 2.3509841e-38
-0.10210185 0.10988928 0.98699999 2.3508655e-38
-0.098813832 0.10954318 0.98699999 2.3507454e-38
-0.12113778 0.11421563 0.98699999 2.350988e-38
-0.11767671 0.11421563 0.98699999 2.3509886e-38
-0.11421563 0.11421563 0.98699999 2.3509879e-38
-0.10469767 0.11421563 0.98699999 2.3509528e-38
-0.10239027 0.11392721 0.98699999 2.3508818e-38
-0.12113778 0.11767671 0.98699999 2.3509831e-38
-0.11854198 0.11767671 0.98699999 2.3509856e-38
-0.11335036 0.11681144 0.98699999 2.3509729e-38
-0.10945665 0.11724408 0.98699999 2.3508522e-38
-0.10556294 0.11767671 0.98699999 2.3507771e-38
-0.10296712 0.11681144 0.98699999 2.3507017e-38
-0.12200306 0.12200306 0.98699993 2.3509712e-38
-0.10859138 0.12243569 0.98699999 2.3504147e-38
-0.10585137 0.12084936 0.98699999 2.3503791e-38
-0.12200306 0.12632944 0.98699999 2.3509629e-38
-0.11796513 0.12661785 0.98699999 2.3508926e-38
-0.11392721 0.12661785 0.98699999 2.3502731e-38
-0.11075455 0.12632942 0.98699999 2.3503085e-38
-0.12027252 0.12892523 0.98699999 2.350967e-38
-0.11767671 0.12892523 0.98699999 2.3507101e-38
-0.1150809 0.12892523 0.98699999 2.3498778e-38
-0.11392459 0.098270826 0.99199998 2.3509886e-38
-0.10957631 0.097401172 0.99199998 2.3509886e-38
-0.1060977 0.098270826 0.99199998 2.3509886e-38
-0.12575187 0.10209729 0.99200004 2.3509886e-38
-0.12196525 0.10186378 0.99071431 2.3509886e-38
-0.11809444 0.10159384 0.99049997 2.3509886e-38
-0.11422316 0.10132363 0.99028569 2.3509886e-38
-0.10997806 0.10173409 0.98974991 2.3509886e-38
-0.1058838 0.10154255 0.98999995 2.3509886e-38
-0.10206905 0.10132363 0.99028569 2.3509886e-38
-0.098438263 0.10260629 0.99019998 2.3509886e-38
-0.093922555 0.10348874 0.99199998 2.3509851e-38
-0.12696938 0.1060977 0.99199998 2.3509886e-38
-0.12225029 0.10577685 0.98900002 2.3509886e-38
-0.11791517 0.10577685 0.98900002 2.3509886e-38
-0.11444708 0.10490982 0.98900002 2.3509886e-38
-0.11184601 0.10490982 0.98900002 2.3509886e-38
-0.10577685 0.10490982 0.98900002 2.3509886e-38
-0.10230875 0.10490982 0.98900002 2.3509886e-38
-0.097540125 0.10534334 0.98900002 2.3507651e-38
-0.093779221 0.10593726 0.99049997 2.3320988e-38
-0.12957834 0.11044597 0.99199998 2.3509775e-38
-0.12656663 0.1098977 0.99020004 2.350988e-38
-0.12246704 0.1098952 0.98899996 2.3509886e-38
-0.096673086 0.11054547 0.98900002 2.3503092e-38
-0.093638524 0.11011197 0.98900002 2.3502407e-38
-0.12957834 0.11392459 0.99199998 2.3509713e-38
-0.12699078 0.11413357 0.99080002 2.3509795e-38
-0.12398433 0.11444708 0.98900002 2.3509876e-38
-0.10144173 0.1153141 0.98900002 2.3505591e-38
-0.097973637 0.11444709 0.98900002 2.3502722e-38
-0.094212443 0.11450436 0.99199998 2.3507515e-38
-0.12957834 0.11827284 0.99199998 2.3509647e-38
-0.12677871 0.118094 0.99050003 2.3509719e-38
-0.12398433 0.11791517 0.98900002 2.3509799e-38
-0.10151734 0.11843875 0.98975003 2.3503794e-38
-0.098170005 0.11728485 0.99100006 2.3502033e-38
-0.12957834 0.12175146 0.99199998 2.3508553e-38
-0.12656663 0.12205075 0.99020004 2.3509628e-38
-0.10548785 0.12340632 0.98900002 2.3502355e-38
-0.10270034 0.12121612 0.99000001 2.3502375e-38
-0.12683612 0.1261404 0.9896 2.3504915e-38
-0.10837791 0.12658539 0.98900002 2.3503081e-38
-0.10627975 0.12655239 0.99100006 2.349989e-38
-0.10348874 0.12436043 0.99199998 2.3500638e-38
-0.12658539 0.13005349 0.98900002 2.0907684e-38
-0.1225971 0.1302269 0.98900002 2.3507061e-38
-0.11791517 0.13092051 0.98900002 2.3501657e-38
-0.11366487 0.1305863 0.98975003 2.322039e-38
-0.11027765 0.12981723 0.99049997 2.3404061e-38
-0.12590773 0.1337254 0.99050003 1.3707922e-38
-0.12219804 0.13367219 0.99139994 2.3498475e-38
-0.11827284 0.13305695 0.99199998 2.3501692e-38
-0.11566389 0.13305695 0.99199998 2.350056e-38
-0.11252454 0.095078878 0.995 2.3509886e-38
-0.10990769 0.094206601 0.995 2.3509886e-38
-0.12822564 0.098568007 0.995 2.3509886e-38
-0.1256088 0.098568007 0.995 2.3509886e-38
-0.12211967 0.098568007 0.995 2.3509886e-38
-0.11863053 0.098568007 0.995 2.3509886e-38
-0.11339682 0.096823446 0.995 2.3509886e-38
-0.10641856 0.096823446 0.995 2.3509886e-38
-0.10322019 0.09798649 0.99500006 2.3509886e-38
-0.12997021 0.10205715 0.995 2.3509886e-38
-0.12648107 0.10031258 0.995 2.3509886e-38
-0.096823446 0.10205714 0.995 2.3509886e-38
-0.094206601 0.10205714 0.995 2.3509886e-38
-0.089845181 0.10292944 0.995 2.3509776e-38
-0.08548376 0.10380171 0.995 2.3509636e-38
-0.13084251 0.10641856 0.995 2.3509886e-38
-0.089845181 0.10641857 0.995 2.3503482e-38
-0.08548376 0.10554628 0.995 2.35063e-38
-0.13113326 0.10961694 0.99500006 2.3509828e-38
-0.090717465 0.10990769 0.995 2.3503529e-38
-0.13171478 0.11339682 0.995 2.3509715e-38
-0.091589741 0.11339682 0.995 2.3506193e-38
-0.13171479 0.11775824 0.99500006 2.3509652e-38
-0.097695723 0.11950281 0.995 2.3504638e-38
-0.094206601 0.11775824 0.995 2.3505834e-38
-0.13345934 0.12211967 0.995 2.3303703e-38
-0.13171478 0.12211967 0.995 2.3502424e-38
-0.10089411 0.12241043 0.99500006 2.3502083e-38
-0.097695723 0.12124739 0.995 2.3227747e-38
-0.13345934 0.1256088 0.995 1.1590333e-38
-0.13084251 0.12560879 0.995 2.1737788e-38
-0.10292943 0.1256088 0.995 2.3501015e-38
-0.13055174 0.12880717 0.99500006 1.499795e-38
-0.10903541 0.13171478 0.995 2.3400832e-38
-0.1061278 0.1293887 0.99500006 2.3497708e-38
-0.11775824 0.13520393 0.99500006 2.3500986e-38
-0.11339682 0.13345934 0.995 2.3311867e-38
-0.11077998 0.13345934 0.995 2.3400832e-38
-0.12211967 0.13694848 0.995 2.1732853e-38
-0.11950281 0.13694848 0.995 2.3499268e-38
-0.11373873 0.091865897 0.99800003 2.3509886e-38
-0.11023907 0.091865897 0.99800003 2.3509886e-38
-0.10673942 0.091865897 0.99800003 2.3509886e-38
-0.12598753 0.095365554 0.99800003 2.3509886e-38
-0.1181133 0.095365554 0.99800003 2.3509886e-38
-0.11403038 0.094199002 0.99800003 2.3509886e-38
-0.10586452 0.09449064 0.99800009 2.3509886e-38
-0.10236486 0.095365554 0.99800003 2.3509886e-38
-0.09099099 0.095365554 0.99800003 2.3509886e-38
-0.13342428 0.09842775 0.99800003 2.3509886e-38
-0.12977883 0.097698651 0.99800003 2.3509886e-38
-0.12598753 0.097115375 0.99800003 2.3509886e-38
-0.12248787 0.097115375 0.99800003 2.3509886e-38
-0.1181133 0.097115383 0.99800003 2.3509886e-38
-0.10119831 0.097698651 0.99800003 2.3509886e-38
-0.097990289 0.098865204 0.99800003 2.3509886e-38
-0.094490632 0.097990289 0.99800003 2.3509886e-38
-0.090466045 0.098165274 0.99800009 2.3509886e-38
-0.086616419 0.098865204 0.99800003 2.3509886e-38
-0.1342117 0.10131496 0.99800009 2.3509886e-38
-0.097990289 0.10061503 0.99800003 2.3509886e-38
-0.09449064 0.10061503 0.99800003 2.3509886e-38
-0.090116076 0.10061504 0.99800003 2.3509886e-38
-0.086616419 0.10148995 0.99800003 2.3509862e-38
-0.13736139 0.10586451 0.99800003 2.3509689e-38
-0.13473666 0.10586451 0.99800009 2.3509811e-38
-0.085741505 0.10761434 0.99800003 2.350056e-38
-0.13736139 0.11023907 0.99800003 2.3509624e-38
-0.13473666 0.11023907 0.99800003 2.3509678e-38
-0.088366248 0.11023907 0.99800003 2.3502526e-38
-0.086033151 0.10994744 0.99800003 2.3501761e-38
-0.14173597 0.11461364 0.99800003 1.8319442e-38
-0.13736139 0.11373873 0.99800003 2.3508183e-38
-0.13473666 0.11373873 0.99800003 2.3509589e-38
-0.089532807 0.11344709 0.99800003 2.3506241e-38
-0.14173597 0.11636347 0.99800003 1.2690945e-38
-0.13736139 0.1181133 0.99800003 2.3114654e-38
-0.13473664 0.1181133 0.99800009 2.3504531e-38
-0.093615726 0.11986312 0.99800003 2.350445e-38
-0.091282628 0.11694675 0.99800003 2.3320792e-38
-0.13736139 0.12248787 0.99800003 6.9870507e-39
-0.13561156 0.12248787 0.99800003 1.7398163e-38
-0.097990289 0.12336278 0.99800003 2.2672435e-38
-0.095365554 0.12161295 0.99800003 1.9629721e-38
-0.13561156 0.12598753 0.99800003 6.7054261e-39
-0.10119831 0.12627918 0.99800003 2.2670267e-38
-0.097990289 0.12511261 0.99800003 1.9904776e-38
-0.13386174 0.12861226 0.99800003 2.3877229e-39
-0.10411468 0.12948719 0.99800003 2.3405993e-38
-0.10236486 0.12861226 0.99800003 2.350175e-38
-0.11373873 0.13561156 0.99800003 2.35063e-38
-0.11023907 0.13473666 0.99800003 2.3499138e-38
-0.10703107 0.13269518 0.99800003 2.3220035e-38
-0.12161295 0.13911122 0.99800003 1.5832296e-38
-0.1181133 0.13794468 0.99800003 2.2760226e-38
-0.11461364 0.13736139 0.99800003 2.350747e-38
-0.12621684 0.086433016 1.0039999 2.3509886e-38
-0.12146391 0.087137155 1.0039999 2.3509886e-38
-0.13378634 0.090657845 1.0039999 2.3509886e-38
-0.13026565 0.089777663 1.0039999 2.3509886e-38
-0.12636624 0.08950942 1.001 2.3509886e-38
-0.12209862 0.089598835 1.002 2.3509886e-38
-0.11776701 0.089642227 1.0025001 2.3509886e-38
-0.11425158 0.089642234 1.0025001 2.3509886e-38
-0.11057046 0.090386964 1.001 2.3509886e-38
-0.10618275 0.090386972 1.0010002 2.3509886e-38
-0.10179503 0.090386964 1.001 2.3509886e-38
-0.098284855 0.090386964 1.001 2.3509886e-38
-0.09565223 0.090386964 1.001 2.3509886e-38
-0.13776028 0.094559394 1.0027144 2.3509886e-38
-0.13351983 0.093989186 1.0020001 2.3509886e-38
-0.13000616 0.093989186 1.0020001 2.3509886e-38
-0.12636624 0.09301959 1.001 2.3509886e-38
-0.12219791 0.093677744 1.001 2.3509886e-38
-0.11759081 0.09301959 1.001 2.3509886e-38
-0.10442766 0.092142045 1.001 2.3509886e-38
-0.10161952 0.093546115 1.001 2.3509886e-38
-0.098284863 0.093897134 1.001 2.3509886e-38
-0.094482169 0.094189644 1.001 2.3509886e-38
-0.1417079 0.098579407 1.0039999 2.3509778e-38
-0.13812533 0.09810935 1.001 2.350988e-38
-0.13426413 0.097407311 1.001 2.3509886e-38
-0.098284855 0.097407311 1.001 2.3509886e-38
-0.14229469 0.10239349 1.0039999 2.350971e-38
-0.13865185 0.10179503 1.001 2.3509783e-38
-0.14224267 0.10602055 1.0028 2.3509626e-38
-0.13952939 0.10618275 1.0010002 2.3509681e-38
-0.082489073 0.10706028 1.001 2.3508162e-38
-0.14522858 0.11090183 1.0039999 2.1546996e-38
-0.14242327 0.11010864 1.0016 2.3503116e-38
-0.13952939 0.11057046 1.001 2.3509607e-38
-0.085121706 0.111448 1.001 2.3502169e-38
-0.082489073 0.11057046 1.001 2.3504901e-38
-0.07985644 0.11057046 1.001 2.3132234e-38
-0.14501162 0.11425027 1.0025001 7.4498379e-39
-0.14216202 0.11320309 1.001 2.183141e-38
-0.13952939 0.11408064 1.001 2.350205e-38
-0.088631876 0.11495818 1.001 2.2856565e-38
-0.086063027 0.11416677 1.00175 2.3500741e-38
-0.082159273 0.1145307 1.0034 2.3135806e-38
-0.07985644 0.11320309 1.001 2.1844406e-38
-0.14479466 0.11671327 1.001 0
-0.14128448 0.11846835 1.001 6.2448137e-39
-0.13952939 0.11759081 1.001 2.0348737e-38
-0.08921691 0.11788332 1.0010002 2.2304116e-38
-0.086256981 0.11706305 1.0039999 2.3502122e-38
-0.082736284 0.11706305 1.0039999 2.3133679e-38
-0.13952939 0.12110098 1.001 8.9998786e-39
-0.093546115 0.12232955 1.001 2.1657993e-38
-0.089890473 0.12092857 1.0020001 2.3129072e-38
-0.098284855 0.12724379 1.001 2.0827831e-38
-0.094130769 0.12609547 1.0035 2.2024914e-38
-0.090657845 0.12410443 1.0039999 2.3404487e-38
-0.10150251 0.13016891 1.0010002 2.2211522e-38
-0.09850511 0.13016899 1.00325 2.1381399e-38
-0.095938884 0.12938547 1.0039999 2.1472852e-38
-0.10501269 0.13367909 1.0010002 2.2576586e-38
-0.10229092 0.13336056 1.003 2.2302244e-38
-0.11759081 0.13952939 1.001 2.3499125e-38
-0.11378813 0.13894437 1.0010002 2.3508514e-38
-0.11009413 0.13849872 1.0020001 2.3506011e-38
-0.10745888 0.13674013 1.0020001 2.3312265e-38
-0.12110098 0.14128448 1.001 1.1587834e-38
-0.11776569 0.14149618 1.0025001 2.1554522e-38
-0.11442252 0.1417079 1.0039999 2.3404252e-38
-0.12859502 0.083277777 1.007 2.3509886e-38
-0.12535806 0.082983501 1.007 2.3509886e-38
-0.12182686 0.082983509 1.007 2.3509886e-38
-0.11829564 0.082983501 1.007 2.3509886e-38
-0.13418609 0.087397523 1.007 2.3509886e-38
-0.13065489 0.086514726 1.007 2.3509886e-38
-0.12447526 0.085631922 1.007 2.3509886e-38
-0.12182686 0.085631922 1.007 2.3509886e-38
-0.11829564 0.086514726 1.007 2.3509886e-38
-0.11423474 0.086691283 1.007 2.3509886e-38
-0.14301413 0.090928733 1.007 2.3509886e-38
-0.13742304 0.090340197 1.007 2.3509886e-38
-0.13418609 0.089163132 1.007 2.3509886e-38
-0.11211601 0.089163132 1.007 2.3509886e-38
-0.14248446 0.09340059 1.007 2.3509886e-38
-0.13860011 0.09269435 1.007 2.3509886e-38
-0.14566255 0.097991168 1.007 2.3509719e-38
-0.14345554 0.097549766 1.007 2.3509814e-38
-0.14566255 0.10240518 1.007 2.3509642e-38
-0.14389692 0.10152237 1.007 2.3509723e-38
-0.14919375 0.1068192 1.007 2.3476285e-38
-0.14654535 0.10593639 1.007 2.350604e-38
-0.14919375 0.10946761 1.007 1.2237122e-38
-0.14683962 0.10917334 1.007 2.1001288e-38
-0.14919375 0.11299881 1.007 1.5612034e-39
-0.14742814 0.11388162 1.007 6.9852374e-39
-0.086514726 0.11917844 1.007 2.3502382e-38
-0.082983509 0.11917844 1.007 2.1383009e-38
-0.089163132 0.12270965 1.007 2.3498493e-38
-0.087397523 0.12094405 1.007 2.3496974e-38
-0.082983509 0.12094405 1.007 1.889451e-38
-0.090045929 0.12535806 1.007 2.3502443e-38
-0.09622556 0.13153769 1.007 2.3498962e-38
-0.093577147 0.12888928 1.007 2.3499585e-38
-0.090928733 0.12800647 1.007 2.3502476e-38
-0.10152237 0.13506891 1.007 2.2114974e-38
-0.099168234 0.13389182 1.007 2.2763548e-38
-0.10593639 0.13771731 1.007 2.3406631e-38
-0.12182686 0.14389692 1.007 5.3264588e-39
-0.11829564 0.14389692 1.007 7.1631687e-39
-0.11211601 0.14213133 1.007 2.3498251e-38
-0.10946761 0.14213133 1.007 2.2297917e-38
-0.1068192 0.14036572 1.007 2.3497397e-38
-0.12838782 0.078803562 1.01 2.3509886e-38
-0.12573153 0.078803562 1.01 2.3509886e-38
-0.12218979 0.078803562 1.01 2.3509886e-38
-0.1381276 0.082345299 1.01 2.3509886e-38
-0.13458586 0.082345299 1.01 2.3509886e-38
-0.13051288 0.08128278 1.0100001 2.3509886e-38
-0.12573153 0.080574423 1.01 2.3509886e-38
-0.12218979 0.080574423 1.01 2.3509886e-38
-0.11864807 0.080574423 1.01 2.3509886e-38
-0.14491592 0.087067604 1.01 2.3509886e-38
-0.14149225 0.086241208 1.0100001 2.3509886e-38
-0.13812761 0.08588703 1.0100001 2.3509886e-38
-0.13458586 0.085001588 1.01 2.3509886e-38
-0.13192956 0.084116161 1.01 2.3509886e-38
-0.11377818 0.084558874 1.01 2.3509886e-38
-0.10979373 0.086772464 1.01 2.3509886e-38
-0.10713743 0.087657891 1.01 2.3509886e-38
-0.1455062 0.090019062 1.01 2.3509881e-38
-0.1413742 0.090019062 1.01 2.3509886e-38
-0.13901302 0.089428768 1.01 2.3509886e-38
-0.10979372 0.089428768 1.01 2.3509886e-38
-0.14609648 0.093855925 1.01 2.3509823e-38
-0.14786735 0.097397663 1.01 2.3509727e-38
-0.14786735 0.10182483 1.01 2.3509646e-38
-0.15081881 0.10595685 1.01 1.9336777e-38
-0.15140909 0.10890829 1.01 9.7442484e-39
-0.08588703 0.12263251 1.01 2.3504925e-38
-0.082345299 0.12307522 1.01 1.2805312e-38
-0.089428768 0.12661695 1.01 2.3509647e-38
-0.087067604 0.1254364 1.01 2.3504982e-38
-0.093560778 0.13133928 1.01 2.3505354e-38
-0.090314195 0.12927327 1.01 2.3504646e-38
-0.097397663 0.13458586 1.01 2.3508257e-38
-0.094741359 0.13370042 1.01 2.3502837e-38
-0.10536657 0.13901302 1.01 2.3502169e-38
-0.10300541 0.13783246 1.01 2.350535e-38
-0.106252 0.14166933 1.01 1.9811161e-38
-0.1035957 0.14078389 1.01 1.4371616e-38
-0.1376498 0.075485386 1.013 2.3509886e-38
-0.13587368 0.075485386 1.013 2.3509886e-38
-0.11722436 0.075485386 1.013 2.3509886e-38
-0.11367211 0.075485386 1.013 2.3509886e-38
-0.11100791 0.075485386 1.013 2.3509886e-38
-0.14209013 0.079037629 1.013 2.3509886e-38
-0.13853787 0.078149572 1.013 2.3509886e-38
-0.13409756 0.078149572 1.013 2.3509886e-38
-0.12995327 0.077853553 1.013 2.3509886e-38
-0.126105 0.077261508 1.013 2.3509886e-38
-0.12255274 0.077261508 1.013 2.3509886e-38
-0.11811243 0.078149572 1.013 2.3509886e-38
-0.1136721 0.078149572 1.013 2.3509886e-38
-0.11100791 0.078149572 1.013 2.3509886e-38
-0.14475432 0.081701823 1.013 2.3509886e-38
-0.14209013 0.081701823 1.013 2.3509886e-38
-0.13853787 0.080813758 1.013 2.3509886e-38
-0.13498563 0.080813758 1.013 2.3509886e-38
-0.11633629 0.081701823 1.013 2.3509886e-38
-0.11367211 0.081701823 1.013 2.3509886e-38
-0.11100791 0.081701823 1.013 2.3509886e-38
-0.14830658 0.087030202 1.013 2.3509886e-38
-0.14593841 0.084958062 1.013 2.3509886e-38
-0.14297819 0.084366016 1.013 2.3509886e-38
-0.11011985 0.084366016 1.013 2.3509886e-38
-0.10745566 0.085254073 1.013 2.3509886e-38
-0.14830658 0.09058246 1.013 2.3509877e-38
-0.14919464 0.094134711 1.013 2.3509768e-38
-0.15008271 0.097686961 1.013 2.3509635e-38
-0.15363495 0.10390341 1.013 2.2729081e-38
-0.15097076 0.10212728 1.013 2.3505245e-38
-0.15363495 0.10656759 1.013 6.7111897e-39
-0.15363495 0.10923178 1.013 1.9285454e-39
-0.084958062 0.12640102 1.013 1.5386816e-38
-0.082589887 0.12521693 1.013 1.0685921e-38
-0.089694396 0.1305453 1.013 1.612144e-38
-0.087326229 0.12936121 1.013 1.3632637e-38
-0.096798897 0.13587368 1.013 2.3509762e-38
-0.093838692 0.13528165 1.013 1.4098967e-38
-0.090878487 0.13291347 1.013 1.3356786e-38
-0.087918267 0.13232143 1.013 4.3162683e-39
-0.10123922 0.13853787 1.013 2.3502937e-38
-0.097686961 0.1376498 1.013 1.4741828e-38
-0.095022775 0.1376498 1.013 8.4729007e-39
-0.14918499 0.075932488 1.0190001 2.3509886e-38
-0.14620726 0.075336941 1.0190001 2.3509886e-38
-0.14215654 0.073866621 1.01825 2.3509886e-38
-0.1378632 0.073656492 1.0172001 2.3509886e-38
-0.13401936 0.074413754 1.0178001 2.3509886e-38
-0.13023323 0.07492739 1.0175 2.3509886e-38
-0.12666519 0.074927382 1.0175 2.3509886e-38
-0.12214509 0.075783454 1.0170001 2.3509886e-38
-0.11791869 0.074145839 1.0190001 2.3509886e-38
-0.11404762 0.073550291 1.0190001 2.3509886e-38
-0.15007833 0.078612447 1.0190001 2.3509886e-38
-0.14618219 0.078438215 1.0167501 2.3509886e-38
-0.14251092 0.077490322 1.016 2.3509886e-38
-0.10955527 0.079271704 1.016 2.3509886e-38
-0.15275829 0.08307907 1.0190001 2.3509886e-38
-0.14985871 0.082064763 1.0175 2.3509886e-38
-0.14696439 0.081943788 1.016 2.3509886e-38
-0.10955527 0.081943788 1.016 2.3509886e-38
-0.10777389 0.082834482 1.016 2.3509886e-38
-0.15275829 0.085759044 1.0190001 2.3509886e-38
-0.15008155 0.08529295 1.0170001 2.3509886e-38
-0.15633158 0.090225659 1.0190001 2.3509723e-38
-0.15298007 0.090091527 1.0175 2.3509782e-38
-0.15052718 0.089960024 1.016 2.3509806e-38
-0.15633158 0.092012309 1.0190001 2.3509716e-38
-0.15365039 0.094044767 1.0178 2.3509691e-38
-0.15633158 0.098265573 1.0190001 2.3502393e-38
-0.15342674 0.098120913 1.0175 2.3509255e-38
-0.15633158 0.10183886 1.0190001 2.0442007e-38
-0.15408994 0.10153905 1.016 2.3496325e-38
-0.15587133 0.10599251 1.016 6.8887384e-39
-0.082834482 0.12736915 1.016 1.2712156e-38
-0.08529295 0.130467 1.0170001 8.0098276e-39
-0.089069329 0.13449469 1.016 5.1535652e-39
-0.086524807 0.13380256 1.0175 8.3796583e-39
-0.15052015 0.06988436 1.022 2.3509886e-38
-0.14604038 0.070063554 1.022 2.3509886e-38
-0.14156061 0.06988436 1.022 2.3509886e-38
-0.1379768 0.070780307 1.022 2.3509886e-38
-0.13439299 0.070780307 1.022 2.3509886e-38
-0.12991323 0.070780307 1.0220001 2.3509886e-38
-0.12543346 0.070780307 1.022 2.3509886e-38
-0.15410396 0.073468171 1.022 2.3509886e-38
-0.15052015 0.073468164 1.022 2.3509886e-38
-0.14723498 0.073169515 1.0220001 2.3509886e-38
-0.13349704 0.072572216 1.022 2.3509886e-38
-0.12991323 0.072572216 1.0220001 2.3509886e-38
-0.12513481 0.073169515 1.0220001 2.3509886e-38
-0.121551 0.07376682 1.0220001 2.3509886e-38
-0.11826582 0.072572216 1.022 2.3509886e-38
-0.11557797 0.072572216 1.022 2.3509886e-38
-0.15738913 0.079142541 1.0220001 2.3509881e-38
-0.15410396 0.07794793 1.022 2.3509886e-38
-0.15141609 0.076156028 1.022 2.3509886e-38
-0.15768778 0.082427703 1.022 2.3509848e-38
-0.15440261 0.082129054 1.0220001 2.3509881e-38
-0.15768778 0.086011514 1.022 2.3509767e-38
-0.15499993 0.086011514 1.022 2.3509806e-38
-0.15798643 0.089296669 1.0220001 2.350967e-38
-0.15499993 0.088699371 1.022 2.3509733e-38
-0.15786698 0.094433479 1.022 2.3508535e-38
-0.15858373 0.098554857 1.022 2.3120371e-38
-0.16037562 0.10213867 1.022 7.6223462e-39
-0.15858373 0.10213867 1.022 1.2874254e-38
-0.16037562 0.10482653 1.022 4.1412069e-39
-0.15858373 0.10482653 1.022 5.5101298e-40
-0.083323658 0.12991321 1.022 1.3081934e-38
-0.15861353 0.063986145 1.028 2.3509886e-38
-0.15410747 0.063986145 1.0280001 2.3509886e-38
-0.1496014 0.063986145 1.028 2.3509886e-38
-0.1423917 0.063986145 1.028 2.3509886e-38
-0.16221839 0.066689782 1.028 2.3509886e-38
-0.15838209 0.066591159 1.0265 2.3509886e-38
-0.15455632 0.066495165 1.025 2.3509886e-38
-0.1500634 0.066495165 1.0250001 2.3509886e-38
-0.14578351 0.066591159 1.0265 2.3509886e-38
-0.14218393 0.066591159 1.0265 2.3509886e-38
-0.1380841 0.066430643 1.0268 2.3509886e-38
-0.13376249 0.066791125 1.0268 2.3509886e-38
-0.12977472 0.067590997 1.028 2.3509886e-38
-0.12707107 0.067590997 1.028 2.3509886e-38
-0.16492203 0.070294634 1.028 2.3509886e-38
-0.16174498 0.070089497 1.025 2.3509886e-38
-0.15815066 0.070089497 1.025 2.3509886e-38
-0.15455632 0.070089497 1.025 2.3509886e-38
-0.14646907 0.069190912 1.025 2.3509886e-38
-0.13838182 0.069190912 1.025 2.3509886e-38
-0.1338889 0.069190912 1.025 2.3509886e-38
-0.12939599 0.069190912 1.025 2.3509886e-38
-0.12598445 0.069292165 1.0265 2.3509886e-38
-0.12238748 0.071091965 1.0265 2.3509886e-38
-0.11831346 0.070389025 1.025 2.3509886e-38
-0.11591724 0.070988081 1.025 2.3509886e-38
-0.16492203 0.073899493 1.028 2.3509884e-38
-0.16174498 0.073683828 1.025 2.3509884e-38
-0.15815066 0.073683836 1.025 2.3509886e-38
-0.12310591 0.072785251 1.025 2.3509886e-38
-0.16513199 0.078289837 1.0265 2.3509771e-38
-0.16174498 0.078176752 1.0250001 2.3509842e-38
-0.15845019 0.076978639 1.025 2.3509886e-38
-0.16581097 0.082274102 1.0268 2.350966e-38
-0.16174498 0.08266966 1.025 2.3509768e-38
-0.16582325 0.086516477 1.028 2.3508874e-38
-0.16174498 0.086263999 1.025 2.3509691e-38
-0.16582325 0.090121336 1.028 2.3498489e-38
-0.16174498 0.089858323 1.025 2.3509265e-38
-0.16492203 0.093726188 1.028 2.0903696e-38
-0.16174498 0.093452662 1.025 2.3502417e-38
-0.16492203 0.096429825 1.028 1.2601193e-38
-0.16175568 0.097699754 1.0262001 1.9059133e-38
-0.1631196 0.10003468 1.028 4.0407618e-39
-0.15696746 0.061762627 1.031 2.3509886e-38
-0.15365335 0.061461344 1.031 2.3509886e-38
-0.15003799 0.061461344 1.031 2.3509886e-38
-0.14642262 0.061461344 1.031 2.3509886e-38
-0.14226495 0.061642118 1.031 2.3509886e-38
-0.13738418 0.062365185 1.031 2.3509886e-38
-0.13376881 0.062365185 1.031 2.3509886e-38
-0.13105728 0.062365185 1.031 2.3509886e-38
-0.16540332 0.066884406 1.031 2.3509886e-38
-0.1626918 0.064172879 1.031 2.3509886e-38
-0.14642262 0.064172879 1.031 2.3509886e-38
-0.14009571 0.064172879 1.031 2.3509886e-38
-0.13738418 0.064172879 1.031 2.3509886e-38
-0.13376881 0.064172879 1.031 2.3509886e-38
-0.13015343 0.065076724 1.031 2.3509886e-38
-0.12744191 0.065980561 1.031 2.3509886e-38
-0.12021116 0.067788251 1.031 2.3509886e-38
-0.16721101 0.070499778 1.031 2.3509872e-38
-0.12201886 0.069595933 1.031 2.3509886e-38
-0.16721101 0.07411515 1.031 2.3509813e-38
-0.1690187 0.078634366 1.031 2.3509681e-38
-0.16721101 0.076826684 1.031 2.3509736e-38
-0.1690187 0.081345901 1.031 2.3509608e-38
-0.1690187 0.084057428 1.031 2.3509601e-38
-0.16135225 0.055294871 1.034 2.3509886e-38
-0.15772635 0.054388396 1.034 2.3509886e-38
-0.15410048 0.054388396 1.034 2.3509886e-38
-0.15077674 0.054690555 1.0340002 2.3509886e-38
-0.14775515 0.055294871 1.034 2.3509886e-38
-0.16135225 0.058014296 1.034 2.3509886e-38
-0.15772635 0.058014296 1.034 2.3509886e-38
-0.15410048 0.058014296 1.034 2.3509886e-38
-0.15047458 0.058014296 1.034 2.3509886e-38
-0.1463048 0.058195591 1.034 2.3509886e-38
-0.14231631 0.058920763 1.034 2.3509886e-38
-0.16588461 0.061640184 1.034 2.3509886e-38
-0.16135225 0.061640181 1.034 2.3509886e-38
-0.15863283 0.060733709 1.034 2.3509886e-38
-0.14050336 0.060733709 1.034 2.3509886e-38
-0.13778394 0.060733709 1.034 2.3509886e-38
-0.13415805 0.060733709 1.034 2.3509886e-38
-0.13022999 0.061338022 1.0340002 2.3509886e-38
-0.12690628 0.062546656 1.034 2.3509886e-38
-0.1731364 0.067079023 1.034 2.3509872e-38
-0.17041698 0.066172555 1.034 2.3509881e-38
-0.16724432 0.065719321 1.034 2.3509886e-38
-0.12548181 0.065913565 1.034 2.3509886e-38
-0.1223739 0.067079023 1.034 2.3509886e-38
-0.1731364 0.071611397 1.034 2.3509748e-38
-0.17041698 0.070704922 1.034 2.3509828e-38
-0.1731364 0.074330814 1.034 2.3509689e-38
-0.17041698 0.074330814 1.034 2.3509752e-38
-0.1731364 0.077956706 1.034 2.3509652e-38
-0.17071915 0.077654555 1.0340002 2.3509685e-38
-0.17132346 0.081582598 1.034 2.3508182e-38
-0.17059828 0.086477563 1.034 2.3218638e-38
-0.16951051 0.090647332 1.034 1.7582193e-38
-0.16951051 0.093366757 1.034 9.3733191e-39
-0.16769756 0.093366757 1.034 1.7670542e-38
-0.16470636 0.05186886 1.038 2.3509886e-38
-0.16197643 0.05186886 1.038 2.3509886e-38
-0.15833652 0.050048899 1.0380001 2.3509886e-38
-0.15515158 0.050503891 1.038 2.3509886e-38
-0.15196665 0.05186886 1.038 2.3509886e-38
-0.16834629 0.055508777 1.038 2.3509886e-38
-0.16561635 0.054598797 1.038 2.3509886e-38
-0.16197643 0.053688817 1.038 2.3509886e-38
-0.14923671 0.053688817 1.038 2.3509886e-38
-0.14559679 0.055508777 1.038 2.3509886e-38
-0.14286685 0.055508777 1.038 2.3509886e-38
-0.16925627 0.058238715 1.038 2.3509886e-38
-0.16561635 0.058238715 1.038 2.3509886e-38
-0.1446868 0.057328735 1.038 2.3509886e-38
-0.14165355 0.057935387 1.038 2.3509886e-38
-0.13862029 0.058542043 1.038 2.3509886e-38
-0.13467704 0.059148699 1.038 2.3509886e-38
-0.17471614 0.06187864 1.038 2.350988e-38
-0.17107624 0.061878636 1.038 2.3509886e-38
-0.12830718 0.060968656 1.038 2.3509886e-38
-0.12648721 0.060968656 1.038 2.3509886e-38
-0.1774461 0.065518558 1.038 2.3509781e-38
-0.17501947 0.06521523 1.038 2.350982e-38
-0.1774461 0.070068464 1.038 2.3509673e-38
-0.17517114 0.070068456 1.038 2.3509715e-38
-0.17835607 0.074618354 1.038 2.3508518e-38
-0.17562613 0.074618354 1.038 2.3509612e-38
-0.1774461 0.078258276 1.038 2.3503479e-38
-0.17562613 0.078258276 1.038 2.3507795e-38
-0.17471614 0.081898198 1.038 2.3498838e-38
-0.17471614 0.085538119 1.038 1.8227957e-38
-0.17426115 0.089633033 1.038 6.2505535e-39
-0.17198621 0.090997994 1.038 8.9209813e-39
-0.16518241 0.050193548 1.041 2.3509886e-38
-0.16244458 0.050193548 1.041 2.3509886e-38
-0.15423109 0.050193548 1.041 2.3509886e-38
-0.1724833 0.055669207 1.041 2.3509886e-38
-0.16944127 0.053843986 1.0410001 2.3509886e-38
-0.16700763 0.052018769 1.041 2.3509886e-38
-0.14601758 0.053843986 1.041 2.3509886e-38
-0.14236715 0.054756597 1.041 2.3509886e-38
-0.13962932 0.055669207 1.041 2.3509886e-38
-0.17613372 0.058407038 1.041 2.3509886e-38
-0.1733959 0.058407038 1.041 2.3509886e-38
-0.13780411 0.057494428 1.041 2.3509886e-38
-0.13232845 0.059319649 1.041 2.3509886e-38
-0.17856734 0.062361684 1.0410001 2.3509834e-38
-0.17978416 0.065707922 1.041 2.3509712e-38
-0.17978416 0.069358349 1.041 2.3509642e-38
-0.17978416 0.072096184 1.041 2.3509603e-38
-0.17978416 0.078484461 1.041 2.3119673e-38
-0.17887154 0.082134902 1.041 1.5462118e-38
-0.17887154 0.085785344 1.041 4.2262265e-39
-0.17072383 0.046811372 1.0470001 2.3509886e-38
-0.16613448 0.046811372 1.0470002 2.3509886e-38
-0.16131499 0.046744306 1.0455 2.3509886e-38
-0.15764613 0.046744306 1.0455 2.3509886e-38
-0.15420216 0.046811372 1.0470001 2.3509886e-38
-0.14502347 0.046811372 1.0470001 2.3509886e-38
-0.14104603 0.046199463 1.0470002 2.3509886e-38
-0.18173826 0.050482851 1.0470001 2.3509886e-38
-0.17806679 0.04956498 1.0470001 2.3509886e-38
-0.17439529 0.04956498 1.0470001 2.3509886e-38
-0.17035758 0.049457811 1.0447501 2.3509886e-38
-0.16687876 0.049117886 1.044 2.3509886e-38
-0.16291273 0.04850772 1.044 2.3509886e-38
-0.15389621 0.049259022 1.0470002 2.3509886e-38
-0.15053068 0.04956498 1.0470001 2.3509886e-38
-0.14594135 0.04956498 1.0470001 2.3509886e-38
-0.14135198 0.04956498 1.0470001 2.3509886e-38
-0.13798647 0.049870938 1.0470002 2.3509886e-38
-0.18540975 0.0550722 1.0470001 2.3509832e-38
-0.18173826 0.054154333 1.0470001 2.3509886e-38
-0.1778976 0.054101732 1.046 2.3509886e-38
-0.17417912 0.053663045 1.0446001 2.3509886e-38
-0.17114988 0.053083919 1.044 2.3509886e-38
-0.15053068 0.052318592 1.0470001 2.3509886e-38
-0.14665011 0.052243635 1.0455 2.3509886e-38
-0.14165811 0.052960839 1.0452001 2.3509886e-38
-0.1374175 0.054049131 1.0450001 2.3509886e-38
-0.13446797 0.054613266 1.0470001 2.3509886e-38
-0.13125542 0.05599007 1.0470001 2.3509886e-38
-0.18816335 0.058743678 1.0470001 2.3509703e-38
-0.18540975 0.058743682 1.0470001 2.3509744e-38
-0.18160875 0.058700942 1.04625 2.3509852e-38
-0.17847179 0.058575362 1.044 2.3509886e-38
-0.13637075 0.057660121 1.044 2.3509886e-38
-0.13362503 0.057660121 1.044 2.3509886e-38
-0.13026917 0.058880441 1.044 2.3509886e-38
-0.18816335 0.06241516 1.0470001 2.3509628e-38
-0.18571572 0.062109202 1.0470002 2.3509688e-38
-0.18213277 0.06223632 1.044 2.3509758e-38
-0.18908122 0.066086642 1.0470001 2.3504582e-38
-0.18579371 0.065897278 1.044 2.35096e-38
-0.18304801 0.065897278 1.044 2.3509664e-38
-0.18999909 0.069299184 1.0470001 1.8419487e-38
-0.18658185 0.069929071 1.0450001 2.3313002e-38
-0.18304801 0.06955824 1.044 2.3509258e-38
-0.18908122 0.073429599 1.0470001 9.6624588e-39
-0.18625133 0.073676817 1.044 1.7308134e-38
-0.18304801 0.074134439 1.0440001 2.2757671e-38
-0.18816335 0.076183207 1.0470001 2.0210984e-39
-0.18540975 0.078018948 1.0470001 9.9272355e-39
-0.18213277 0.078710645 1.044 1.7489281e-38
-0.18213277 0.0823716 1.044 6.7986966e-39
-0.17898466 0.089033388 1.0470001 2.4874505e-39
-0.18133849 0.043263495 1.05 2.3509886e-38
-0.17949748 0.043263495 1.05 2.3509886e-38
-0.17213349 0.043263495 1.05 2.3509886e-38
-0.16937199 0.043263495 1.05 2.3509886e-38
-0.14912099 0.042342994 1.05 2.3509886e-38
-0.14543898 0.042342994 1.05 2.3509886e-38
-0.14206384 0.042036161 1.05 2.1570494e-38
-0.19606648 0.046024997 1.05 2.3509883e-38
-0.19422548 0.046024997 1.05 2.3509853e-38
-0.18594098 0.046945497 1.05 2.3509886e-38
-0.18225899 0.046025001 1.05 2.3509886e-38
-0.17857698 0.046024997 1.05 2.3509886e-38
-0.17434268 0.0458409 1.0500001 2.3509886e-38
-0.16937199 0.045104496 1.05 2.3509886e-38
-0.16568998 0.045104496 1.05 2.3509886e-38
-0.16200799 0.045104496 1.05 2.3509886e-38
-0.15832599 0.045104496 1.05 2.3509886e-38
-0.15464398 0.045104496 1.05 2.3509886e-38
-0.15004149 0.046025001 1.0500001 2.3509886e-38
-0.14543898 0.045104496 1.05 2.3509886e-38
-0.1426775 0.045104496 1.05 2.3509886e-38
-0.19698697 0.049706995 1.05 1.9544647e-38
-0.19422548 0.049706995 1.05 2.3509804e-38
-0.18870248 0.050627496 1.05 2.3509858e-38
-0.18594098 0.049706995 1.05 2.3509886e-38
-0.18225899 0.048786495 1.05 2.3509886e-38
-0.19698697 0.053388994 1.05 2.2674982e-38
-0.19422548 0.053388998 1.05 2.3509722e-38
-0.18931615 0.053695828 1.05 2.3509761e-38
-0.18594098 0.052468497 1.05 2.350988e-38
-0.19606648 0.057991497 1.05 2.350902e-38
-0.193305 0.057991497 1.0500001 2.3509645e-38
-0.19008324 0.057531245 1.05 2.3509715e-38
-0.19606648 0.061673496 1.05 2.349277e-38
-0.19299816 0.062287163 1.05 2.3505642e-38
-0.19054349 0.062593997 1.05 2.3509605e-38
-0.1923845 0.066275991 1.05 2.2753044e-38
-0.18502048 0.081003994 1.05 1.5612034e-39
-0.18664934 0.043428313 1.054 2.3509886e-38
-0.1824913 0.0420423 1.054 2.3509886e-38
-0.17740928 0.042504307 1.054 2.3509886e-38
-0.17402124 0.042196304 1.0540001 2.3509886e-38
-0.17001723 0.041580297 1.054 2.3509886e-38
-0.16632119 0.043428313 1.054 2.3509886e-38
-0.16262516 0.043428313 1.054 2.3509886e-38
-0.15892915 0.043428313 1.054 2.3509886e-38
-0.1533851 0.043428313 1.054 2.3509886e-38
-0.1931174 0.047124341 1.054 2.3509855e-38
-0.19003737 0.046508338 1.0540001 2.3509886e-38
-0.18664934 0.045276325 1.054 2.3509886e-38
-0.1931174 0.049896359 1.054 2.3509803e-38
-0.19065338 0.04958836 1.0540001 2.3509872e-38
-0.1931174 0.053592384 1.054 2.3509723e-38
-0.19126938 0.052668381 1.054 2.3509807e-38
-0.19496539 0.063756458 1.054 2.3494184e-38
-0.19496539 0.065604471 1.054 1.9248505e-38
-0.17748992 0.02694873 1.0599999 2.3509886e-38
-0.17563139 0.02694873 1.0599999 2.3509886e-38
-0.16448019 0.02694873 1.0599999 2.3509886e-38
-0.1614649 0.026910596 1.0585001 2.3509886e-38
-0.15775046 0.026910596 1.0585001 2.3509886e-38
-0.15518752 0.02694873 1.0599999 2.3509886e-38
-0.17748992 0.028807262 1.0599999 2.3509886e-38
-0.17563139 0.028807262 1.0599999 2.3509886e-38
-0.1704275 0.029550677 1.0599999 2.3509886e-38
-0.16540945 0.02973653 1.0599999 2.3509886e-38
-0.16157864 0.029716149 1.05925 2.3509886e-38
-0.15813518 0.0293996 1.059 2.3509886e-38
-0.15518752 0.028807262 1.0599999 2.3509886e-38
-0.17810944 0.033763357 1.0599999 2.3509886e-38
-0.17563139 0.033453599 1.0599999 2.3509886e-38
-0.17005579 0.034382861 1.0599999 2.3509886e-38
-0.16540945 0.034382861 1.0599999 2.3509886e-38
-0.18957038 0.039958462 1.0599999 2.3509886e-38
-0.18536912 0.039301258 1.059 2.3509886e-38
-0.1817442 0.038426403 1.0588001 2.3509886e-38
-0.17808257 0.038026296 1.0580001 2.3509886e-38
-0.17445445 0.038044266 1.0585001 2.3509886e-38
-0.17016712 0.037839338 1.05925 2.3509886e-38
-0.16560596 0.038316973 1.0587144 2.3509886e-38
-0.16200215 0.039338954 1.0599999 2.3509886e-38
-0.15797532 0.039958462 1.0599999 2.3509886e-38
-0.15425825 0.039958462 1.0599999 2.3509886e-38
-0.15054119 0.039958462 1.0599999 2.3509886e-38
-0.19672443 0.042684458 1.0585001 2.350987e-38
-0.19394058 0.042684458 1.0585001 2.3509866e-38
-0.18996054 0.042625286 1.057 2.3509886e-38
-0.18625396 0.04169865 1.057 2.3509886e-38
-0.16586797 0.04169865 1.057 2.3509886e-38
-0.16123477 0.04169865 1.057 2.3509886e-38
-0.15721935 0.042316407 1.057 2.3509886e-38
-0.15382168 0.04169865 1.057 2.3509886e-38
-0.19366707 0.045405198 1.057 2.3509855e-38
-0.1918138 0.045405198 1.057 2.3509886e-38
-0.18171982 0.027025001 1.063 2.3509886e-38
-0.17985605 0.027025001 1.063 2.3509886e-38
-0.18171982 0.029820692 1.063 2.3509886e-38
-0.1784582 0.03028664 1.063 2.3509886e-38
-0.17426465 0.029820692 1.063 2.3509886e-38
-0.16867329 0.030752588 1.063 2.3509886e-38
-0.15749052 0.030752588 1.063 2.3509886e-38
-0.15562673 0.030752588 1.063 2.3509886e-38
-0.18171982 0.033548277 1.063 2.3509886e-38
-0.17985605 0.032616381 1.063 2.3509886e-38
-0.1736434 0.033237647 1.063 2.3509886e-38
-0.16960518 0.032616381 1.063 2.3509886e-38
-0.1658776 0.032616381 1.063 2.3509886e-38
-0.16215 0.033548277 1.063 2.3509886e-38
-0.15842241 0.033548277 1.063 2.3509886e-38
-0.19290259 0.038207762 1.063 2.3509886e-38
-0.1901069 0.038207762 1.063 2.3509886e-38
-0.18668996 0.036965232 1.063 2.3509886e-38
-0.18358363 0.036343966 1.063 2.3509886e-38
-0.16183937 0.036965232 1.063 2.3509886e-38
-0.15842241 0.037275866 1.063 2.3509886e-38
-0.15469483 0.038207762 1.063 2.3509886e-38
-0.15096724 0.038207762 1.063 2.3509886e-38
-0.19663019 0.040071554 1.063 2.3509834e-38
-0.19383448 0.040071554 1.063 2.3509862e-38
-0.18895148 0.026191292 1.067 2.3509886e-38
-0.18427445 0.034609921 1.067 2.3509886e-38
-0.15621236 0.03367452 1.067 2.3509886e-38
-0.15340614 0.034609921 1.067 2.1856788e-38
-0.1973701 0.038351536 1.067 2.3509856e-38
-0.19549929 0.037416134 1.067 2.3509866e-38
-0.18988688 0.036480732 1.067 2.3509886e-38
-0.15621236 0.036480732 1.067 2.3509886e-38
-0.15340614 0.036480732 1.067 2.3509886e-38
-0.19229683 0.023450835 1.0700001 2.3509886e-38
-0.19042076 0.023450835 1.0700001 2.3509886e-38
-0.19229683 0.026264932 1.0700001 2.350986e-38
-0.18573061 0.027202966 1.0700001 2.3509886e-38
-0.18948273 0.029079033 1.0700001 2.3509886e-38
-0.18573061 0.030017067 1.0700001 2.3509886e-38
-0.1547755 0.0309551 1.0700001 2.3509886e-38
-0.18604329 0.033456519 1.0700001 2.3509886e-38
-0.1547755 0.032831166 1.0700001 2.3509886e-38
-0.19659862 0.02351658 1.073 2.3509886e-38
-0.19471729 0.02351658 1.073 2.3509886e-38
-0.19471729 0.02633857 1.073 2.3509855e-38
-0.19283597 0.030101225 1.073 2.3509809e-38
-0.19001397 0.031041885 1.073 2.3509886e-38
-0.19001397 0.033863876 1.073 2.3509886e-38
-0.19377664 0.036685869 1.073 2.3509886e-38
-0.19827569 0.026436761 1.077 2.3509877e-38
-0.1954432 0.030213438 1.077 2.3509803e-38
-0.19355485 0.033990115 1.077 2.3509876e-38
-0.19788121 0.0302976 1.08 2.3509769e-38
-0.19773626 0.034486897 1.0826668 2.3509521e-38
-0.1959876 0.033137999 1.08 2.3509866e-38
