# .PCD v0.7 - Point Cloud Data file format
VERSION 0.7
FIELDS x y z rgb
SIZE 4 4 4 4
TYPE F F F F
COUNT 1 1 1 1
WIDTH 429
HEIGHT 1
VIEWPOINT 0 0 0 1 0 0 0
POINTS 429
DATA ascii
-0.12859385 0.19094236 0.889 6.8221067e-39
-0.12703513 0.19094236 0.889 5.9026881e-39
-0.12859385 0.19250108 0.889 2.1194457e-39
-0.12703513 0.19250108 0.889 1.3836982e-39
-0.16444424 0.19795658 0.889 9.4024955e-39
-0.16210619 0.19795658 0.889 9.7709333e-39
-0.15823568 0.19764888 0.89024991 4.7012484e-39
-0.16444424 0.20029466 0.889 1.0873677e-38
-0.16210619 0.20107402 0.889 1.0691088e-38
-0.15832686 0.2012248 0.88966668 4.8856313e-39
-0.15465978 0.20230748 0.89099997 4.0544567e-39
-0.12931709 0.19515125 0.89399999 1.3804163e-39
-0.12774962 0.19515125 0.89399999 7.3939513e-40
-0.15596426 0.19985369 0.89399999 2.8602379e-39
-0.15596426 0.20142117 0.89399999 3.3168398e-39
-0.13274838 0.19480234 0.89600003 3.1328437e-39
-0.13117738 0.19480234 0.89600003 2.1183541e-39
-0.126004 0.1939611 0.89720005 1.7531715e-39
-0.12359773 0.19444992 0.898 1.1063476e-39
-0.16191038 0.19654927 0.898 7.4674831e-39
-0.15784293 0.19720529 0.898 4.4264776e-39
-0.15430033 0.19838616 0.898 5.624295e-39
-0.15036412 0.1975989 0.89799988 2.9495455e-39
-0.14564063 0.19917339 0.898 2.6697202e-39
-0.1417044 0.19917339 0.898 1.8374442e-39
-0.13754325 0.19804877 0.89799994 7.3576998e-40
-0.13393012 0.19782577 0.8976 1.2889494e-39
-0.12975106 0.19816612 0.89700001 1.8428476e-39
-0.12580201 0.19791381 0.89799994 2.4903526e-39
-0.12320411 0.19799253 0.898 5.8075806e-39
-0.15395668 0.2010863 0.89600003 6.5458687e-39
-0.1503641 0.20153514 0.89799994 3.5048773e-39
-0.14501084 0.20232239 0.89799994 3.8736626e-39
-0.1417044 0.20232236 0.89799994 3.9640463e-39
-0.13776818 0.20232236 0.89799988 3.7800166e-39
-0.13383192 0.20232239 0.89799994 4.7023345e-39
-0.12989569 0.20232236 0.89799988 4.9796346e-39
-0.12595946 0.20232239 0.89799994 4.7970258e-39
-0.12281048 0.20153514 0.898 4.5211816e-39
-0.14485338 0.20547138 0.898 3.9698239e-39
-0.1417044 0.20625862 0.898 6.4558465e-39
-0.13808306 0.20610118 0.89799994 4.7030547e-39
-0.13383192 0.20547138 0.898 3.5970589e-39
-0.13855541 0.20862035 0.898 8.2050467e-39
-0.1480348 0.19078283 0.903 6.4515417e-39
-0.14570872 0.19155429 0.90166664 5.0696848e-39
-0.1248005 0.19194002 0.90100002 3.1346514e-39
-0.1618318 0.19372317 0.903 5.7150501e-39
-0.15858988 0.19500487 0.90300006 6.1763883e-39
-0.15436786 0.19474098 0.903 1.1974894e-39
-0.14997575 0.19359991 0.90242863 9.2231923e-40
-0.14612718 0.19430965 0.90100002 4.9724431e-39
-0.14217779 0.19430967 0.90100002 7.000726e-39
-0.12401063 0.19351979 0.90100002 1.6627485e-39
-0.12196063 0.19409347 0.90220004 1.9372012e-39
-0.11874449 0.19553261 0.903 9.0348242e-39
-0.15718547 0.19667928 0.90100002 5.9952369e-39
-0.15481582 0.19667928 0.90100002 3.8729451e-39
-0.14612718 0.19780768 0.90100008 1.1045693e-39
-0.14217779 0.19746916 0.90100002 1.3804289e-39
-0.1390183 0.19667928 0.90100002 3.3172406e-39
-0.12148303 0.19794308 0.90100002 7.5568103e-39
-0.11795285 0.19790751 0.903 8.5738082e-39
-0.14665376 0.20247172 0.90100002 4.6115808e-39
-0.12085112 0.20220843 0.90100002 7.9316996e-39
-0.11789403 0.20176589 0.90255547 1.2351686e-38
-0.15297279 0.20510463 0.90100002 1.0137226e-38
-0.15007657 0.20536792 0.90100002 7.7469524e-39
-0.1465221 0.20655274 0.90100002 7.1952374e-39
-0.13664865 0.20773757 0.90100002 5.7168731e-39
-0.13427903 0.20773757 0.90100002 7.0064993e-39
-0.13064562 0.20678972 0.90100002 5.716115e-39
-0.12526426 0.20587727 0.90149999 1.0321938e-38
-0.12270264 0.20503215 0.903 1.2998132e-38
-0.11795287 0.20503215 0.90300006 1.5209759e-38
-0.14843062 0.20938613 0.903 1.1982914e-38
-0.14565991 0.21057358 0.903 1.1614486e-38
-0.14233559 0.21034124 0.90199995 1.0509942e-38
-0.13790931 0.21061915 0.90149999 1.1062383e-38
-0.13373548 0.21049616 0.90266669 1.060141e-38
-0.12956345 0.20925419 0.90300006 9.5872763e-39
-0.12692468 0.20872645 0.90300006 1.2076903e-38
-0.14091012 0.21294846 0.903 1.1431532e-38
-0.13853523 0.21294846 0.903 1.1431532e-38
-0.16159071 0.1918392 0.90799999 5.8990714e-39
-0.15840665 0.1918392 0.90799999 3.2253981e-39
-0.1534038 0.19155751 0.9066667 1.1041924e-39
-0.15044652 0.1918392 0.90799999 5.8950749e-39
-0.12170003 0.19090235 0.90733337 3.7728294e-39
-0.11780997 0.1910432 0.90799999 6.2566883e-39
-0.1138299 0.1910432 0.90799999 1.1785544e-38
-0.10984983 0.1910432 0.90799999 6.9088807e-39
-0.1074618 0.1910432 0.90799999 3.6734198e-40
-0.15814497 0.19350883 0.90649998 3.8711304e-39
-0.15408644 0.19300517 0.90600002 5.5248294e-40
-0.12152177 0.19300517 0.90600002 2.3822074e-44
-0.11838769 0.19387047 0.90633339 7.6522401e-39
-0.114437 0.19390595 0.90649998 9.770569e-39
-0.11052283 0.19401304 0.90700006 6.7284551e-39
-0.1074618 0.19422725 0.90799999 1.1034623e-39
-0.11675622 0.19618221 0.90600002 1.0695397e-38
-0.11437343 0.19777074 0.90600008 1.3185025e-38
-0.11060071 0.19757219 0.90600008 9.6794537e-39
-0.11437343 0.20174202 0.90600002 1.8250772e-38
-0.11146116 0.20147727 0.90600002 8.384029e-39
-0.12214071 0.20692489 0.9066667 1.4196326e-38
-0.11463819 0.20465432 0.90600002 1.5946596e-38
-0.12549308 0.20968464 0.90600002 1.3000275e-38
-0.12338207 0.20935149 0.90799999 1.355059e-38
-0.14089435 0.2157196 0.90799999 9.4010606e-39
-0.13763447 0.21520367 0.90750003 1.0231204e-38
-0.13403006 0.2144814 0.90679997 1.1061668e-38
-0.13008916 0.21354899 0.9066667 1.2812295e-38
-0.12722099 0.21230149 0.90700001 1.3275058e-38
-0.14089435 0.21810764 0.90799999 4.6072578e-39
-0.13930233 0.21810764 0.90799999 5.4355919e-39
-0.16194664 0.18747517 0.91000003 7.8344635e-39
-0.15795779 0.18747516 0.91000003 8.1128595e-39
-0.15396897 0.18747517 0.91000003 9.4939835e-39
-0.16194664 0.18986848 0.91000003 6.8192312e-39
-0.15795779 0.18986845 0.91000003 3.8732927e-39
-0.15396896 0.18986848 0.91000003 5.1582777e-39
-0.15024605 0.19013439 0.91000003 3.0421265e-39
-0.12046277 0.1890707 0.91000003 1.8337577e-38
-0.11806946 0.1890707 0.91000003 1.7688927e-38
-0.11408063 0.1890707 0.91000003 2.2764374e-38
-0.11009181 0.1890707 0.91000003 1.410593e-38
-0.1076985 0.1890707 0.91000003 0
-0.16513771 0.19226177 0.91000003 6.1760184e-39
-0.16354217 0.19226177 0.91000003 5.8990714e-39
-0.12524937 0.21140817 0.91000003 1.2725495e-38
-0.1220583 0.20981264 0.91000003 1.4103417e-38
-0.11886723 0.2082171 0.91000003 1.5670035e-38
-0.14519353 0.21459924 0.91000003 1.1339693e-38
-0.1268449 0.21459924 0.91000003 1.1891438e-38
-0.14439577 0.21619476 0.91000003 9.5854532e-39
-0.14280024 0.21779029 0.91000003 5.8057967e-39
-0.13721585 0.21858805 0.91000003 7.7397568e-39
-0.1340248 0.21858805 0.91000003 7.9248557e-39
-0.13003597 0.2167266 0.91000003 1.2627554e-38
-0.1412047 0.22098136 0.91000003 0
-0.13960916 0.22098136 0.91000003 0
-0.1620343 0.17887944 0.91500002 5.1633056e-39
-0.16432093 0.18195421 0.91433334 6.731367e-39
-0.16191624 0.18195421 0.91433334 5.7150641e-39
-0.15790841 0.18195421 0.91433334 5.8997986e-39
-0.1540128 0.18208805 0.91500008 7.1912563e-39
-0.15160634 0.18289021 0.91500002 0
-0.1090924 0.18369235 0.91500002 2.771994e-39
-0.16408131 0.18569201 0.91299999 8.0202925e-39
-0.16168012 0.18569201 0.91299999 7.3752889e-39
-0.15767813 0.18569204 0.91300005 1.1247473e-38
-0.15367615 0.18569203 0.91299999 1.0234411e-38
-0.15096112 0.18622999 0.91433334 0
-0.12112466 0.18690094 0.91500002 2.1744868e-38
-0.11783072 0.18596262 0.91433334 2.3509881e-38
-0.11378081 0.18589452 0.91400003 2.2403172e-38
-0.10989454 0.1860988 0.91500008 1.65909e-38
-0.15020777 0.18862681 0.91299999 1.4012985e-44
-0.12179267 0.18909962 0.91400003 2.0909349e-38
-0.1176583 0.18809322 0.91299999 2.3508064e-38
-0.11365633 0.1880932 0.91299999 2.3509886e-38
-0.10965434 0.18809322 0.91299999 1.2994539e-38
-0.10668594 0.18930739 0.91500002 8.4740582e-39
-0.12085988 0.21050432 0.91299999 1.4932818e-38
-0.11827782 0.21012442 0.91366673 1.511826e-38
-0.14807338 0.2153067 0.91299999 1.2807967e-38
-0.12486187 0.2145063 0.91299999 1.3643867e-38
-0.12183738 0.21401858 0.91433334 1.2170911e-38
-0.11952035 0.21256974 0.91500002 1.401339e-38
-0.14839776 0.21738265 0.91500002 7.7328918e-39
-0.14604595 0.21813425 0.91366673 7.2755248e-39
-0.12966426 0.21850827 0.91299999 1.1891441e-38
-0.12579991 0.21794723 0.91399997 5.4403017e-39
-0.12272895 0.21738265 0.91500002 1.0369609e-43
-0.14561813 0.2209653 0.91433334 0
-0.1420704 0.22291045 0.91299999 2.8025969e-45
-0.13766822 0.22251025 0.91299999 1.4012985e-45
-0.13360438 0.22244628 0.91414291 1.8403813e-40
-0.13005158 0.22177826 0.91460001 0
-0.12673968 0.22059125 0.91500002 0
-0.1411784 0.2262063 0.91500002 1.4012985e-45
-0.13796979 0.22540416 0.91500002 2.8025969e-45
-0.1411784 0.23021704 0.91500008 0
-0.1219268 0.2310192 0.91500002 4.5917748e-40
-0.11791605 0.23101923 0.91500008 1.8367099e-40
-0.11470745 0.2310192 0.91500002 3.673546e-40
-0.14198053 0.23422778 0.91500008 3.5873241e-43
-0.13796979 0.23422779 0.91500002 0
-0.13395905 0.23422778 0.91500008 2.8025969e-45
-0.12994829 0.23422779 0.91500002 0
-0.13460079 0.23759682 0.91500008 1.4012985e-45
-0.12994829 0.23663425 0.91500002 0
-0.16187708 0.17395872 0.91866672 5.346978e-39
-0.15888706 0.1742112 0.92000002 4.3339037e-39
-0.1649799 0.17785637 0.91799998 6.545538e-39
-0.16163051 0.17750673 0.91857153 4.9778451e-39
-0.15785143 0.17798436 0.91866672 4.8867271e-39
-0.15393622 0.17811352 0.91933334 4.6094144e-39
-0.15001521 0.17905039 0.92000002 3.6734198e-40
-0.11694734 0.17985693 0.92000002 1.760721e-38
-0.11372121 0.17985694 0.92000002 1.5764361e-38
-0.10968854 0.17985693 0.92000002 1.0694323e-38
-0.15210341 0.1810755 0.91799998 0
-0.14985126 0.18207841 0.91900003 0
-0.12071115 0.18254536 0.92000002 1.2721577e-38
-0.11762586 0.18207753 0.91899997 1.5945525e-38
-0.11394423 0.18195601 0.91920006 1.4656238e-38
-0.11002833 0.18219903 0.9188 7.6533009e-39
-0.10726893 0.18308306 0.92000002 9.4078849e-39
-0.15049386 0.18509939 0.91799998 0
-0.12252688 0.18620795 0.91950005 1.4659455e-38
-0.11830266 0.18429463 0.91799998 1.4659475e-38
-0.11427876 0.18429461 0.91799998 1.1987615e-38
-0.11186441 0.18429461 0.91799998 1.0146265e-38
-0.10726893 0.18550266 0.92000002 8.6670857e-39
-0.12501267 0.19034186 0.92000002 9.0168441e-39
-0.12313133 0.18912329 0.91799998 1.8609515e-38
-0.11669309 0.21085234 0.91799998 5.8994217e-39
-0.1524348 0.21534438 0.92000002 1.2897918e-38
-0.11808244 0.21441899 0.9188 2.3985269e-39
-0.1524348 0.21776399 0.92000002 4.2366746e-39
-0.14995734 0.21809539 0.91799998 4.5121769e-39
-0.12232655 0.21890014 0.91799998 9.8090893e-45
-0.11877852 0.21741334 0.91919994 0
-0.15011165 0.22202285 0.91960001 0
-0.14727473 0.22292405 0.91799998 0
-0.12594806 0.22252166 0.91799998 0
-0.12151783 0.22187731 0.91949999 0
-0.11775386 0.22260319 0.92000002 0
-0.14920866 0.22582933 0.92000002 9.1835496e-41
-0.14582503 0.22612068 0.91900003 0
-0.13721499 0.22735034 0.91799998 0
-0.13359347 0.22694796 0.91799998 4.2038954e-45
-0.12970984 0.22598714 0.91900003 0
-0.12613796 0.2253745 0.9188 0
-0.12174182 0.22574779 0.91966671 0
-0.11748503 0.22556049 0.92000002 0
-0.11411095 0.22649412 0.91942865 3.6914546e-40
-0.14610571 0.22993827 0.91950005 0
-0.13766676 0.23025095 0.91833341 0
-0.13381132 0.2305436 0.91950005 0
-0.13081971 0.229862 0.92000002 0
-0.12492208 0.22969428 0.91933334 0
-0.12200254 0.22869428 0.91920006 0
-0.11808314 0.22891696 0.9188 0
-0.11353491 0.22948635 0.91850001 8.2832714e-40
-0.14526278 0.23378858 0.91799998 1.4391335e-42
-0.13761738 0.23258142 0.91799998 0
-0.12966251 0.23275033 0.91866672 0
-0.12615985 0.23472373 0.91828585 2.8025969e-45
-0.12232655 0.23499575 0.91799998 0
-0.11870504 0.23459336 0.91799998 0
-0.113299 0.23385258 0.91920006 8.2869428e-40
-0.15732448 0.17373893 0.92299998 3.5045017e-39
-0.15374103 0.17477927 0.92299998 5.7153906e-39
-0.14969522 0.17477927 0.92299998 4.6093961e-39
-0.1456494 0.17477927 0.92299998 4.2038954e-45
-0.14241274 0.17477927 0.92299998 5.6051939e-45
-0.14929062 0.17761134 0.92299998 9.2124024e-40
-0.14591913 0.17774621 0.92300004 0
-0.14241274 0.17720675 0.92299998 0
-0.12185998 0.17817776 0.92299998 7.0072098e-39
-0.11813784 0.17801592 0.92299998 7.0093986e-39
-0.1144966 0.1784205 0.92299998 6.6427881e-39
-0.11004621 0.1788251 0.92299998 3.9676631e-39
-0.14807688 0.18125257 0.92299998 0
-0.12542032 0.18287089 0.92299998 0
-0.1227231 0.18152229 0.92299998 8.2979738e-39
-0.11894701 0.18044341 0.92299998 1.7238788e-38
-0.1496952 0.18610755 0.92299998 0
-0.12542032 0.18610755 0.92299998 0
-0.12380198 0.18529838 0.92299998 1.1065627e-38
-0.1496952 0.19015336 0.92300004 1.1210388e-44
-0.12542032 0.18853503 0.92299998 0
-0.11571035 0.21119162 0.92299998 7.4620432e-39
-0.11571035 0.21280994 0.92299998 0
-0.15455019 0.21847409 0.92299998 2.7550649e-40
-0.11732867 0.21928325 0.92299998 7.3708299e-43
-0.15293185 0.22171074 0.92299998 2.8025969e-45
-0.11813784 0.22090156 0.92299998 9.219563e-41
-0.1144157 0.22187257 0.92299998 4.5918449e-40
-0.11085537 0.2225199 0.92299998 2.3016636e-39
-0.15293185 0.22575657 0.92300004 1.4012985e-45
-0.15131353 0.22656572 0.92299998 0
-0.11894701 0.2273749 0.92299998 0
-0.11368744 0.22454283 0.92299998 5.5317378e-40
-0.11085537 0.22413823 0.92299998 1.9361082e-39
-0.12946613 0.22980237 0.92299998 0
-0.12703863 0.22899319 0.92299998 0
-0.1124737 0.23061153 0.92299998 1.6566445e-39
-0.11085537 0.22980237 0.92299998 1.6580878e-39
-0.14562485 0.16677704 0.92799997 2.4885786e-39
-0.14237066 0.1659635 0.92799997 2.6733243e-39
-0.15650691 0.17110342 0.92500001 2.7644087e-39
-0.15315266 0.17010516 0.92714286 3.5959883e-39
-0.14969258 0.17003123 0.92799997 4.1487991e-39
-0.14628148 0.16984716 0.92699999 2.8587792e-39
-0.14216495 0.1697858 0.92666668 1.3840191e-39
-0.13830292 0.17084479 0.92799997 7.3936571e-40
-0.13443859 0.17023462 0.92799997 1.7517128e-39
-0.15407416 0.17272525 0.92500001 4.7005296e-39
-0.15001959 0.17272525 0.92500007 5.072182e-39
-0.145965 0.17272525 0.92500001 2.76875e-39
-0.14126168 0.17369835 0.92500001 2.7695123e-40
-0.13800487 0.17453381 0.92600006 0
-0.1339459 0.1745338 0.92600006 0
-0.12995663 0.17462806 0.92650002 1.3814883e-39
-0.12615746 0.17513283 0.9267143 3.5037745e-39
-0.121769 0.17453381 0.92600006 3.4134103e-39
-0.11826421 0.17443627 0.9267143 2.8598708e-39
-0.11466362 0.17532018 0.92500001 3.8689879e-39
-0.11109558 0.17596892 0.92500001 4.0494233e-39
-0.14515407 0.17921259 0.92500001 0
-0.14150496 0.17880712 0.92500001 0
-0.13788359 0.17851709 0.92699999 0
-0.13397484 0.17847197 0.92620003 0
-0.12974666 0.17840166 0.92500001 0
-0.12601644 0.17823948 0.92500001 1.0141519e-39
-0.11352833 0.17759074 0.92500001 4.8878355e-39
-0.11109558 0.17759074 0.92500001 7.3832875e-40
-0.14620039 0.18193989 0.92649996 0
-0.1431842 0.18142089 0.92799997 0
-0.1326081 0.18223444 0.92799997 0
-0.1298525 0.18179327 0.92575002 0
-0.1267733 0.18137503 0.92500007 0
-0.14855818 0.18590242 0.926 0
-0.14725195 0.18548863 0.92799997 0
-0.12975688 0.18501845 0.92699999 0
-0.12731391 0.18569991 0.92500007 0
-0.14887902 0.1903699 0.92799997 0
-0.12731391 0.18975449 0.92500001 0
-0.14942139 0.19389527 0.92799997 1.6815582e-44
-0.11500347 0.21079507 0.926 4.2402409e-39
-0.15782803 0.21558985 0.92799997 5.7993171e-39
-0.15484504 0.21504748 0.92799997 1.2809416e-38
-0.11500347 0.21458463 0.926 0
-0.1574623 0.21823458 0.92679995 0
-0.1553874 0.21721694 0.92799997 7.7349882e-39
-0.11463402 0.2185155 0.92575002 2.7551209e-40
-0.15778773 0.22213541 0.92679995 1.8369341e-40
-0.15488508 0.22219115 0.92500001 2.8025969e-45
-0.11271741 0.22138025 0.92500001 6.4284847e-40
-0.11145588 0.22209823 0.92799997 1.6570004e-39
-0.15488508 0.22624576 0.92500007 2.8025969e-45
-0.11067332 0.22703096 0.926 1.6609563e-39
-0.14974344 0.16659296 0.93000001 2.0258067e-39
-0.14702576 0.16604944 0.93000001 2.3031167e-39
-0.13819334 0.16672884 0.93000001 2.8580645e-39
-0.13860099 0.16876709 0.93000001 2.2141216e-39
-0.13289389 0.16876709 0.93000001 2.6733201e-39
-0.1296327 0.16958241 0.93000001 3.3201147e-39
-0.1255562 0.17039768 0.93000001 3.4108852e-39
-0.122295 0.17039768 0.93000001 3.2261436e-39
-0.1296327 0.17202829 0.93000001 4.0555049e-39
-0.1255562 0.17284359 0.93000001 3.6892629e-39
-0.122295 0.17202829 0.93000001 3.5027305e-39
-0.1182185 0.17202829 0.93000001 3.4108543e-39
-0.14430809 0.18344249 0.93000001 0
-0.14159045 0.18289897 0.93000001 0
-0.1377857 0.18126838 0.93000001 0
-0.13452449 0.1818119 0.93000001 0
-0.14512339 0.18588839 0.93000001 0
-0.1418622 0.18588839 0.93000001 0
-0.13289389 0.18507309 0.93000001 0
-0.13126329 0.1867037 0.93000001 0
-0.14614253 0.18976107 0.92999995 0
-0.1418622 0.18833429 0.93000001 0
-0.1296327 0.18914959 0.93000001 0
-0.1475693 0.1940414 0.93000001 0
-0.1606141 0.21360859 0.93000001 2.21017e-39
-0.15843996 0.21388036 0.93000001 8.5633742e-39
-0.1133267 0.21360859 0.93000001 0
-0.16126636 0.21735898 0.93000001 3.6013371e-43
-0.1133267 0.21686979 0.93000001 3.6734198e-40
-0.1606141 0.22176158 0.93000001 3.5873241e-43
-0.15295291 0.16767564 0.93300003 2.1172821e-39
-0.15622462 0.17094737 0.93300003 1.2914451e-39
-0.12596121 0.16931151 0.93300003 3.6874721e-39
-0.1226895 0.16931151 0.93300003 3.9622611e-39
-0.13986602 0.18239839 0.93300003 0
-0.14016584 0.1868878 0.935 0
-0.13784693 0.18555114 0.93357152 0
-0.13450959 0.18689452 0.93366671 0
-0.14124283 0.19037211 0.93400002 0
-0.13798001 0.18989329 0.93500006 0
-0.13442805 0.18934684 0.935 0
-0.13168672 0.18894184 0.93300003 0
-0.14549001 0.19426039 0.93339998 0
-0.14247237 0.19323924 0.93400002 0
-0.12937057 0.19323924 0.93400002 6.4608687e-40
-0.11351132 0.21113272 0.93419999 6.4464634e-40
-0.11042055 0.21184386 0.93300003 1.8439126e-40
-0.16276807 0.21511559 0.93300003 0
-0.11205641 0.21429765 0.93300003 2.7586522e-40
-0.11042055 0.21429765 0.93300003 3.673588e-40
-0.16440393 0.21756938 0.93300003 2.67296e-39
-0.11217651 0.21780345 0.93400002 5.5101438e-40
-0.11065724 0.21721607 0.935 1.9618179e-44
-0.13732633 0.191599 0.93800002 0
-0.13403708 0.191599 0.93800008 0
-0.14076549 0.19427371 0.93900001 0
-0.13852152 0.19393036 0.9386667 0
-0.13391083 0.1940677 0.94 0
-0.1310266 0.1953038 0.94 0
-0.14998013 0.19860005 0.94 0
-0.14652869 0.19838879 0.93900001 0
-0.14308253 0.1973552 0.93800002 5.6051939e-45
-0.14915606 0.2002482 0.94 6.1746213e-39
-0.14531043 0.20079759 0.94 4.0573238e-39
-0.14256352 0.20107226 0.94 2.8602435e-39
-0.13723165 0.1959271 0.94300002 0
-0.13475154 0.1959271 0.94300002 0
-0.14136513 0.19840719 0.94300002 2.8025969e-45
-0.13971174 0.19758049 0.94300002 7.0064923e-45
-0.13364929 0.19813162 0.94300002 1.1985558e-39
-0.13089363 0.19813162 0.94300002 4.7012821e-39
-0.14632532 0.20171398 0.94300002 4.6076011e-39
-0.13309816 0.20088728 0.94300002 6.2689469e-39
-0.14549862 0.20419407 0.94300002 7.0046804e-39
-0.14301853 0.20419407 0.94300002 5.62323e-39
-0.14015619 0.19986771 0.94599998 0
-0.13766822 0.19903839 0.94599998 3.5873241e-43
-0.13518023 0.19986771 0.94599998 1.1056385e-39
-0.13020429 0.19986771 0.94599998 7.0954481e-39
-0.14098552 0.20235568 0.94599998 3.6885399e-39
-0.13794467 0.20207927 0.94599998 6.3621711e-39
-0.13518023 0.20152636 0.94599998 6.5458925e-39
-0.14181484 0.20484369 0.94599998 4.2402605e-39
