# .PCD v0.7 - Point Cloud Data file format
VERSION 0.7
FIELDS x y z rgb
SIZE 4 4 4 4
TYPE F F F F
COUNT 1 1 1 1
WIDTH 240
HEIGHT 1
VIEWPOINT 0 0 0 1 0 0 0
POINTS 240
DATA ascii
-0.038229678 0.17437251 0.92000002 0
-0.037907068 0.17743734 0.92000002 9.1835496e-41
-0.038030677 0.17073345 0.92300004 2.9488168e-39
-0.034794021 0.17073345 0.92299998 0
-0.041267328 0.17558843 0.92299998 1.4470356e-38
-0.037626095 0.17275636 0.92299998 1.0127086e-39
-0.034794021 0.17235178 0.92299998 0
-0.041267328 0.17801592 0.92299998 1.1611483e-38
-0.038030677 0.18125257 0.92299998 0
-0.041490879 0.16352287 0.92799997 2.3509886e-38
-0.037829921 0.1631161 0.92799997 1.5396669e-38
-0.034366503 0.1626281 0.926 5.2407217e-39
-0.030814832 0.16299425 0.92500001 0
-0.049626343 0.16677704 0.92799997 2.2771602e-38
-0.046372157 0.16677704 0.92799997 2.2955629e-38
-0.04225884 0.16659558 0.92700005 2.3416607e-38
-0.038113084 0.16623792 0.92500007 1.3366172e-38
-0.034058504 0.16623791 0.92500007 0
-0.031625748 0.16461608 0.92500001 0
-0.049626343 0.17003125 0.92799997 2.203367e-38
-0.046372157 0.17023462 0.92799997 2.1109927e-38
-0.042167664 0.1702925 0.92500001 2.3322612e-38
-0.038113084 0.16948158 0.92500007 8.1960097e-39
-0.034869418 0.16948158 0.92500001 0
-0.050439887 0.17409897 0.92799997 2.1572675e-38
-0.046119053 0.17436613 0.92757148 1.9727703e-38
-0.042329848 0.17402272 0.92500001 2.046309e-38
-0.052880533 0.17816672 0.92799997 1.9816647e-38
-0.05043989 0.17816672 0.92799997 1.9725909e-38
-0.04655746 0.1782981 0.927625 1.7791949e-38
-0.042978581 0.17840166 0.92500001 1.2813044e-38
-0.052880529 0.18142089 0.92799997 1.9081221e-38
-0.050439887 0.18223444 0.92799997 1.6406855e-38
-0.046372157 0.18223445 0.92799997 1.5577456e-38
-0.042167664 0.18164533 0.92500001 4.4225148e-39
-0.050033115 0.18589541 0.92799997 1.2348078e-38
-0.046372157 0.18630217 0.92799991 1.2898304e-38
-0.042385604 0.18561751 0.92620003 1.0123429e-39
-0.038924001 0.184889 0.92500001 9.2051717e-40
-0.045558609 0.18955636 0.92799997 8.3847296e-39
-0.04311797 0.18955636 0.92799997 0
-0.048102695 0.1638753 0.93000001 2.3509886e-38
-0.0456568 0.1638753 0.93000001 2.3509886e-38
-0.042667367 0.16278824 0.93000001 2.3509886e-38
-0.039134398 0.16224469 0.93000001 2.3509886e-38
-0.033427298 0.16224469 0.93000001 2.7550649e-40
-0.030166097 0.16224471 0.93000001 7.0064923e-45
-0.052994497 0.16632119 0.93000001 2.3509886e-38
-0.050140947 0.16591355 0.93000001 2.3233299e-38
-0.045928568 0.16604944 0.93000001 2.2771603e-38
-0.053538036 0.16985416 0.93000001 2.2864149e-38
-0.051363897 0.1695824 0.93000001 2.2309893e-38
-0.046472099 0.16876709 0.93000001 2.1481231e-38
-0.056907933 0.17398502 0.93000001 2.1753471e-38
-0.053809799 0.17365889 0.93000001 1.9173792e-38
-0.051363897 0.17202829 0.93000001 2.0098647e-38
-0.057070997 0.17773539 0.93000001 1.8248625e-38
-0.054625098 0.17773539 0.93000001 1.7326649e-38
-0.056255694 0.1809966 0.93000001 1.4471505e-38
-0.05421745 0.18221954 0.93000001 1.6592301e-38
-0.053538036 0.18561664 0.93000001 1.7603897e-38
-0.051363897 0.1867037 0.93000001 1.6775661e-38
-0.052994501 0.18996489 0.93000001 1.9991958e-38
-0.049966242 0.19043079 0.93000001 1.041018e-38
-0.0456568 0.19159549 0.93000001 6.6337217e-39
-0.041580297 0.18914959 0.93000001 0
-0.039406165 0.18887782 0.93000001 1.107421e-39
-0.0456568 0.1932261 0.93000001 4.6058004e-39
-0.034426697 0.15492015 0.935 1.7885952e-38
-0.065301433 0.15929179 0.93500006 2.249682e-38
-0.062569164 0.15929179 0.93500006 2.3509886e-38
-0.058197513 0.15983824 0.93500006 2.3509886e-38
-0.054099098 0.15901856 0.935 2.3509886e-38
-0.050000675 0.15819888 0.935 2.3509886e-38
-0.045902267 0.15819889 0.93500006 2.3509886e-38
-0.041774042 0.15808491 0.93433326 2.3509886e-38
-0.037678551 0.15808493 0.93433332 2.341769e-38
-0.034402154 0.15808493 0.93433332 1.2906256e-38
-0.030306662 0.15808491 0.93433338 9.2204038e-41
-0.068033718 0.16229729 0.935 8.1097318e-39
-0.065574661 0.16229729 0.935 2.2585071e-38
-0.062295932 0.16229729 0.935 2.3509884e-38
-0.058136445 0.16212344 0.93400002 2.3509886e-38
-0.053983379 0.16195014 0.93300003 2.3509886e-38
-0.049893729 0.16195014 0.93300003 2.3509886e-38
-0.04580408 0.16195014 0.93300003 2.3509886e-38
-0.04171443 0.16113222 0.93300003 2.3509886e-38
-0.037624776 0.16113222 0.93300003 2.0190843e-38
-0.034353059 0.16113222 0.93300003 8.5651244e-39
-0.030263409 0.16113222 0.93300003 0
-0.068033718 0.16557604 0.935 1.6226813e-38
-0.065574661 0.16557604 0.935 2.2218066e-38
-0.062105697 0.16599597 0.93460006 2.350916e-38
-0.058087248 0.16607894 0.93322223 2.295599e-38
-0.054392345 0.16563082 0.93300003 2.3508802e-38
-0.050711662 0.16440393 0.93300003 2.3509886e-38
-0.068033718 0.16885476 0.935 1.9447894e-38
-0.065574661 0.16967444 0.93500006 2.0278721e-38
-0.062407274 0.16985644 0.93419999 2.2584325e-38
-0.058073029 0.17012946 0.93300003 2.2216622e-38
-0.054801308 0.16931151 0.93300003 2.3509147e-38
-0.068033718 0.17377286 0.935 1.8985415e-38
-0.065574661 0.17377286 0.935 1.9445688e-38
-0.062185179 0.17428073 0.9333334 2.064606e-38
-0.059299923 0.17381011 0.93300003 1.8897229e-38
-0.068033718 0.17705159 0.935 1.6038405e-38
-0.065574661 0.17787127 0.93500006 1.6590868e-38
-0.062196434 0.17840473 0.93349999 1.6960396e-38
-0.05970889 0.17830873 0.93300003 1.7329178e-38
-0.065301433 0.18169647 0.93500006 1.3366554e-38
-0.062263057 0.18187283 0.93450004 1.4286325e-38
-0.058890961 0.18158045 0.93300003 1.6406485e-38
-0.062022708 0.18497519 0.93500006 1.059488e-38
-0.058115304 0.18580355 0.93366677 1.2992367e-38
-0.054801308 0.18730597 0.93300003 1.4375992e-38
-0.057821251 0.18983988 0.93419999 6.7223328e-39
-0.054801308 0.18975976 0.93300003 1.4460955e-38
-0.056937743 0.1937521 0.93449998 1.4729609e-39
-0.054239541 0.19451042 0.9346 1.0588056e-38
-0.049930543 0.19480643 0.93366671 6.0813285e-39
-0.04580408 0.19548526 0.93300003 0
-0.04171443 0.19303147 0.93300003 2.7625058e-40
-0.042851463 0.15080419 0.94 2.3509886e-38
-0.037907064 0.15080419 0.94 2.3509886e-38
-0.035434864 0.15080419 0.94 2.3509886e-38
-0.0568606 0.15574859 0.94 2.3509886e-38
-0.054036565 0.15497831 0.9386667 2.3509886e-38
-0.050214589 0.15475884 0.93900007 2.3509886e-38
-0.045904368 0.15416639 0.93839997 2.3509886e-38
-0.041967791 0.1538807 0.93866676 2.3509886e-38
-0.037853301 0.15388072 0.9386667 2.3509886e-38
-0.033739392 0.15360662 0.9386667 2.1106974e-38
-0.02960328 0.1545949 0.93800002 1.5612034e-39
-0.060980931 0.15904486 0.94 2.3509886e-38
-0.057623297 0.1580516 0.93900001 2.3509886e-38
-0.054272678 0.15706185 0.93800002 2.3509886e-38
-0.069485478 0.17063001 0.93800002 1.6226788e-38
-0.069896631 0.17433041 0.93800002 1.6871097e-38
-0.069896631 0.17761967 0.93800002 1.539592e-38
-0.073341928 0.18376686 0.94 0
-0.069729187 0.18203413 0.93850005 8.8496636e-39
-0.066607378 0.18337588 0.93800002 1.078038e-38
-0.073341928 0.18541498 0.94 0
-0.069686927 0.18599534 0.93959999 2.5807518e-39
-0.065855198 0.1860418 0.93900001 6.9096234e-39
-0.063318126 0.18666513 0.93800002 6.9967883e-39
-0.065101266 0.18953532 0.94 3.6734198e-40
-0.062056422 0.18978675 0.93879998 1.2864144e-39
-0.061804999 0.19200753 0.94 0
-0.058508728 0.1953038 0.94 0
-0.050197937 0.19831836 0.9386667 4.1495264e-39
-0.046871856 0.1981775 0.93800002 0
-0.042988226 0.14797869 0.94300002 2.3509886e-38
-0.048775103 0.15128548 0.94300002 2.3509886e-38
-0.046019446 0.15073435 0.94300002 2.3509886e-38
-0.041748181 0.15004544 0.94300002 2.3509886e-38
-0.038028046 0.1496321 0.94300002 2.2956712e-38
-0.057868764 0.15459228 0.94300002 2.3509886e-38
-0.053735279 0.15376557 0.94300002 2.3509886e-38
-0.049601801 0.15293887 0.94300002 2.3509886e-38
-0.047121707 0.15293887 0.94300002 2.3509886e-38
-0.032241169 0.15293887 0.94300002 2.3507359e-38
-0.030587774 0.15293887 0.94300002 0
-0.065309033 0.15789907 0.94300002 2.0099408e-38
-0.061671566 0.15723771 0.94300002 2.3509886e-38
-0.058695462 0.15624566 0.94300002 2.3509886e-38
-0.070269212 0.16781941 0.94300002 1.254937e-38
-0.073576003 0.18766014 0.94300002 0
-0.071922608 0.18766014 0.94300002 0
-0.073576003 0.18931353 0.94300002 0
-0.06993854 0.18997489 0.94300002 9.2194789e-40
-0.066962428 0.19014023 0.94300002 0
-0.066135734 0.19262032 0.94300002 0
-0.062002249 0.19344702 0.94300002 0
-0.053735282 0.19923389 0.94300002 1.3092496e-38
-0.049033716 0.14710116 0.94800001 2.3509886e-38
-0.046540476 0.14710116 0.94800001 2.3509886e-38
-0.061435044 0.15109612 0.94700003 2.2034761e-38
-0.053963214 0.15109614 0.94700003 2.3509886e-38
-0.049967539 0.14990193 0.94680005 2.3509886e-38
-0.046718739 0.14900236 0.94599998 2.3509886e-38
-0.040637005 0.14844947 0.94599998 2.3509886e-38
-0.062199499 0.15425476 0.94600004 2.2867037e-38
-0.058114231 0.15275654 0.94700003 2.3509886e-38
-0.054735556 0.15342543 0.94599998 2.3509886e-38
-0.065516807 0.15674272 0.94599998 1.6230792e-38
-0.063858144 0.15674272 0.94599998 2.3509886e-38
-0.072980747 0.19157445 0.94599998 5.6051939e-45
-0.068834111 0.1932331 0.94599998 4.7909105e-39
-0.062199496 0.19489175 0.94599998 0
-0.060540844 0.19655041 0.94599998 0
-0.049759597 0.2023557 0.94599998 1.8367099e-40
-0.047271617 0.20152636 0.94599998 0
-0.050856307 0.14756666 0.95099998 2.3509886e-38
-0.058359694 0.1509015 0.95099998 2.3509886e-38
-0.053357437 0.14923407 0.95099998 2.3509886e-38
-0.052523725 0.20259151 0.95099998 1.3180302e-38
-0.056034777 0.13883242 0.954 1.1938615e-39
-0.054362096 0.13966876 0.954 0
-0.056034777 0.14217779 0.954 2.3949718e-39
-0.053525753 0.14217779 0.954 1.821688e-44
-0.050180398 0.14301413 0.954 2.3978193e-39
-0.057446208 0.14587383 0.95520002 1.9357436e-38
-0.053525757 0.14552315 0.954 1.6962923e-38
-0.050180398 0.14552315 0.954 1.3737878e-38
-0.047671378 0.14635949 0.954 2.1665973e-38
-0.061052814 0.14970486 0.954 2.3509886e-38
-0.057707459 0.14886853 0.954 2.3326215e-38
-0.053525757 0.14803217 0.954 2.3509886e-38
-0.07276158 0.19486721 0.954 2.9524336e-39
-0.071088895 0.19486721 0.954 4.5194005e-39
-0.070252553 0.19653989 0.954 5.1622028e-39
-0.06774354 0.19653989 0.954 0
-0.044326019 0.19988525 0.954 0
-0.041816995 0.19988525 0.954 4.6097815e-40
-0.045162357 0.20239428 0.954 0
-0.041816995 0.20239428 0.954 9.2087169e-40
-0.030142134 0.17099325 0.96399999 0
-0.027325116 0.17099325 0.96399999 4.6170682e-40
-0.032959159 0.17409196 0.96399999 0
-0.030423835 0.17409196 0.96399999 0
-0.027043413 0.17409196 0.96399999 2.7658927e-39
-0.032959159 0.17662728 0.96399999 0
-0.030423837 0.17662728 0.96399999 0
-0.02788852 0.17662728 0.96399999 5.9927159e-39
-0.034192041 0.17830728 0.96700001 1.1210388e-44
-0.030518519 0.17887244 0.96700001 3.7975188e-43
-0.027127571 0.17802469 0.96700001 6.179275e-39
-0.036452677 0.18311112 0.96700001 2.8025969e-45
-0.033909462 0.18226337 0.96700001 5.5389825e-40
-0.030688066 0.18192428 0.96700001 1.4754916e-39
-0.027975308 0.18056791 0.96700001 6.7317061e-39
-0.036452677 0.18565431 0.96700001 0
-0.033909462 0.18565431 0.96700001 2.7587923e-40
-0.036452677 0.18989301 0.96700001 0
-0.034757201 0.18989301 0.96700001 7.3829231e-40
-0.026361367 0.17942737 0.97000003 9.032648e-39
-0.028062101 0.18282883 0.97000003 6.7309872e-39
-0.030329745 0.18566339 0.97000003 2.764434e-39
-0.026470073 0.18272975 0.97399998 9.3088579e-39
