# .PCD v0.7 - Point Cloud Data file format
VERSION 0.7
FIELDS x y z rgb
SIZE 4 4 4 4
TYPE F F F F
COUNT 1 1 1 1
WIDTH 998
HEIGHT 1
VIEWPOINT 0 0 0 1 0 0 0
POINTS 998
DATA ascii
-0.0048812795 0.20745438 0.92799997 1.8367099e-39
-0.0013550343 0.20668849 0.92699999 5.4290562e-39
0.0016244632 0.20630552 0.92649996 5.429415e-39
0.0058913091 0.20577919 0.92687505 4.141574e-39
0.0097625591 0.20664084 0.92799997 1.8367099e-40
-0.0048812795 0.20989501 0.92799997 0
-0.0016264357 0.20972605 0.92724997 1.8367099e-40
0.00081091665 0.20840558 0.92500001 0
0.0072982493 0.20840558 0.92500001 0
0.0097625591 0.20908147 0.92799997 9.1907243e-40
-0.028535498 0.20137909 0.93000001 6.8876622e-39
-0.0269049 0.20300969 0.93000001 3.4897489e-39
-0.023100168 0.20192263 0.93000001 2.0077242e-38
-0.0016306 0.20300969 0.93000001 2.3509818e-38
0.0040765 0.20300969 0.93000001 2.3509866e-38
0.0089683002 0.20300969 0.93000001 2.350983e-38
-0.0057071 0.20681444 0.93000001 1.0585476e-38
-0.0019023665 0.20518383 0.93000001 1.7692381e-38
0.0016306 0.2046403 0.93000001 1.7142509e-38
0.0040765 0.2046403 0.93000001 1.4283368e-38
0.0097835995 0.2046403 0.93000001 1.9310565e-39
-0.0073376996 0.21034738 0.93000001 0
0.040984165 0.18524842 0.935 7.5484543e-39
-0.045902267 0.19016652 0.935 1.1227255e-38
-0.040164482 0.1959043 0.935 5.5101298e-39
-0.037432205 0.19535786 0.93500006 2.0637982e-38
-0.034699928 0.19535786 0.93500006 2.3509703e-38
0.031421192 0.19535786 0.93500006 1.3786086e-39
0.033607014 0.19508463 0.935 9.1835496e-40
-0.037432205 0.19809014 0.93500006 6.6222395e-39
-0.034426697 0.19836336 0.935 1.7125943e-38
-0.031967647 0.19918305 0.935 1.9898887e-38
0.031147964 0.19754368 0.935 3.6734198e-40
-0.033559091 0.20217189 0.93366671 7.3468397e-40
-0.030283865 0.20053604 0.93366671 1.8687893e-38
-0.025901116 0.202574 0.93300003 1.3154387e-38
-0.020492082 0.20246178 0.935 2.3509617e-38
-0.01308688 0.20366456 0.93300003 2.3509832e-38
-0.0090165157 0.20246178 0.935 2.3509771e-38
-0.0057316469 0.20306318 0.93400002 2.3509796e-38
0.010633091 0.20366456 0.93300003 2.3507285e-38
-0.01721335 0.20656019 0.935 7.6320418e-39
-0.013925265 0.20641351 0.93433332 1.132052e-38
-0.0098361988 0.2057405 0.93500006 1.78743e-38
-0.0061344747 0.2057094 0.93300003 1.8521039e-38
0.0024590499 0.20410115 0.935 2.3509851e-38
-0.013363905 0.21055517 0.9333334 1.8367099e-40
-0.0095629711 0.2095657 0.93500006 1.2856969e-39
0.041937985 0.18337588 0.93800008 1.0414726e-38
-0.04861993 0.18706313 0.94 1.7406055e-38
-0.046971798 0.18706313 0.94 2.3509696e-38
0.038731132 0.18623906 0.94 1.1155548e-38
-0.048516486 0.18913206 0.93800002 7.8060172e-39
-0.046097763 0.18851051 0.93900001 2.3496865e-38
0.037865862 0.18933369 0.93900001 6.3557125e-39
0.040293355 0.18913206 0.93800002 1.4740595e-39
-0.041203331 0.19447973 0.94 1.9244274e-38
-0.038127989 0.19392918 0.9386667 2.3509758e-38
-0.033737641 0.19447856 0.9386667 2.3509818e-38
-0.030490464 0.1953038 0.94 2.350981e-38
0.030458029 0.19427195 0.93900001 2.2312273e-38
0.033980601 0.19294883 0.93885726 8.387961e-39
0.037632376 0.1925569 0.94 1.7448744e-39
-0.03207022 0.1973552 0.93800002 2.3509807e-38
-0.030062214 0.19849354 0.93949997 2.3509036e-38
-0.035359472 0.20146677 0.93800002 8.2651947e-40
-0.028842334 0.2002482 0.94 2.3509659e-38
-0.026342079 0.20085748 0.93900001 2.3509762e-38
-0.023073867 0.20189632 0.94 2.3509807e-38
-0.013338658 0.20238236 0.93920004 2.3509762e-38
-0.010045197 0.20139419 0.93920004 2.3509747e-38
-0.0057591153 0.20160995 0.9386667 2.3509737e-38
-0.0024721997 0.20354445 0.94 2.3509768e-38
-0.01837844 0.20544975 0.9386667 1.8889572e-38
-0.015623953 0.20475602 0.93800002 2.3509814e-38
0.0008223133 0.20475602 0.93800002 2.3509851e-38
-0.020601666 0.21013699 0.94 0
-0.01837844 0.20929073 0.9386667 4.5917748e-40
-0.01480164 0.2096899 0.93800002 2.7550649e-40
-0.010690073 0.21133453 0.93800002 0
-0.057868764 0.16781941 0.94300002 2.0185742e-38
-0.057868764 0.1702995 0.94300002 1.8984207e-38
0.041334834 0.18269995 0.94300002 1.4658976e-38
-0.049601801 0.18518004 0.94300002 2.2482269e-38
-0.04629501 0.18683344 0.94300002 2.3509774e-38
0.037752479 0.18600675 0.94300002 2.3509688e-38
-0.042988226 0.19096693 0.94300002 2.3509747e-38
0.034307908 0.19055358 0.94300002 2.0190692e-38
-0.042574875 0.19303368 0.94300002 2.0085635e-38
-0.033894565 0.19427373 0.94300002 2.3509837e-38
0.030587774 0.19262032 0.94300002 2.3509781e-38
-0.028934384 0.19758049 0.94300002 2.3509814e-38
-0.026454292 0.19840717 0.94300002 2.3509795e-38
-0.023974203 0.19923389 0.94300002 2.3509792e-38
0.028934384 0.19840719 0.94300002 2.5807363e-39
-0.022320811 0.20143841 0.94300002 2.3509803e-38
-0.01736063 0.20254068 0.94300002 2.3509726e-38
-0.014604975 0.20198956 0.94300002 2.3509724e-38
0.02976108 0.20088728 0.94300002 3.5873241e-43
-0.018187325 0.20419407 0.94300002 2.3509659e-38
-0.00082669663 0.20419407 0.94300002 2.3509768e-38
0.0024800899 0.20419407 0.94300002 2.3509781e-38
0.0057868771 0.20419407 0.94300002 2.3509775e-38
0.0099203596 0.20419407 0.94300002 2.350971e-38
0.014053843 0.20584746 0.94299996 1.0236537e-38
0.01791176 0.20529634 0.94300002 3.0424376e-39
0.020667417 0.20584747 0.94300002 0
0.013227146 0.20915426 0.94300002 0
-0.061499916 0.14959438 0.94800001 1.4100522e-38
-0.061499916 0.15374979 0.94800001 1.5664959e-38
-0.061499916 0.15790519 0.94800001 1.5757123e-38
-0.060540844 0.16586533 0.94599998 1.4554984e-38
-0.058052868 0.16586533 0.94599998 2.3228752e-38
0.049864799 0.166216 0.94800001 5.805396e-39
-0.060540844 0.1683533 0.94599998 9.3959865e-39
-0.055682361 0.16954032 0.94800001 2.3509643e-38
0.046931028 0.17028065 0.94749999 2.1754665e-38
0.048999235 0.17025042 0.94733334 7.3694398e-39
-0.057816751 0.17400545 0.94666672 1.6854084e-38
-0.055682361 0.17369573 0.94800007 2.3506733e-38
0.045452531 0.17371939 0.94699997 1.8250585e-38
0.048930269 0.17415859 0.94599998 9.4798892e-39
0.045843527 0.17819171 0.9465 1.1337058e-38
0.048930269 0.1774759 0.94599998 9.0286459e-39
0.038188472 0.18347493 0.94700003 2.3509667e-38
0.042324882 0.18147293 0.94666666 1.7143177e-38
0.045643941 0.1811965 0.94666672 1.1333827e-38
-0.045643941 0.1861771 0.94666666 2.3509767e-38
0.034886509 0.18606329 0.94749999 2.3509563e-38
0.037319697 0.18493983 0.94599998 2.3509726e-38
-0.042732678 0.1900162 0.94649994 2.3509844e-38
-0.038229678 0.19197948 0.94800001 2.3509726e-38
-0.035736438 0.19197948 0.94800001 2.3509716e-38
0.030717522 0.19094589 0.94700003 2.3509737e-38
0.033684339 0.18900023 0.94640011 2.3509729e-38
-0.038149022 0.1932331 0.94599998 2.3509774e-38
-0.033622794 0.19385204 0.94700003 2.3509792e-38
-0.030174281 0.19461238 0.94733334 2.3509824e-38
-0.027425639 0.1953038 0.94800001 2.3509852e-38
0.029057115 0.19426669 0.94700003 2.3509817e-38
-0.029026432 0.19655041 0.94599998 2.3509831e-38
-0.025727246 0.19724181 0.94666672 2.3509793e-38
-0.02157345 0.19914316 0.94649994 2.350979e-38
-0.013269225 0.19986771 0.94599998 2.3509705e-38
0.01412836 0.19862811 0.94800007 2.350983e-38
0.01745268 0.19862811 0.94800001 2.3509816e-38
0.022439159 0.19862811 0.94800001 2.3509842e-38
0.02576348 0.19862811 0.94800007 2.267827e-38
0.029026432 0.19655041 0.94599998 2.3509877e-38
-0.020733165 0.20152636 0.94599998 2.3509813e-38
-0.018426482 0.20136367 0.94680005 2.3509731e-38
-0.015773863 0.20090832 0.94700003 2.3509708e-38
-0.0049759597 0.20152636 0.94599998 2.3509719e-38
-0.0016586533 0.20318502 0.94599998 2.3509734e-38
0.0016595299 0.20339981 0.94700003 2.3509744e-38
0.0061457842 0.20277791 0.9472 2.3509779e-38
0.0099659469 0.20180927 0.94733334 2.3509807e-38
0.014108489 0.20166725 0.94666672 2.3509842e-38
0.018264767 0.20173824 0.94700003 2.3509832e-38
0.021577686 0.20166722 0.94666672 1.7797634e-38
0.025752181 0.20185739 0.94755554 7.0072504e-39
0.029087799 0.20361459 0.94800001 0
0.00082932663 0.20484369 0.94599998 2.3509781e-38
0.019074513 0.20484369 0.94599998 0
0.021562491 0.20484369 0.94599998 0
0.024050472 0.20484369 0.94599998 0
0.013269225 0.21147829 0.94599998 1.3807638e-39
-0.060860824 0.14756666 0.95099998 2.07404e-38
-0.059193403 0.14756666 0.95099998 2.3509736e-38
-0.059193403 0.15006778 0.95099998 2.350971e-38
-0.059193403 0.15840489 0.95099998 2.350965e-38
-0.061694533 0.16173974 0.95099998 1.5109243e-38
-0.059193403 0.16257344 0.95099998 2.350961e-38
-0.060860824 0.16424087 0.95099998 2.0363671e-38
-0.058359694 0.16424087 0.95099998 2.3509314e-38
-0.055858567 0.1675757 0.95099998 2.3509611e-38
0.046687756 0.1675757 0.95099998 2.3509629e-38
0.050022595 0.16424087 0.95099998 6.5461658e-39
-0.054191146 0.17091054 0.95099998 2.3509664e-38
0.045020338 0.17007682 0.95099998 2.3509677e-38
-0.05377429 0.17466223 0.95099998 2.3509631e-38
0.042519208 0.1759128 0.95099998 2.3509552e-38
-0.057525985 0.17758021 0.95099998 1.1419969e-38
-0.05419115 0.17841393 0.95100009 2.1384512e-38
0.042519208 0.17758021 0.95099998 2.3509586e-38
-0.053857662 0.18158202 0.95100003 1.9990474e-38
-0.050856307 0.18174878 0.95099998 2.3509645e-38
0.039184365 0.18174878 0.95099998 2.3509554e-38
-0.052523725 0.1850836 0.95099998 1.5467106e-38
-0.050022595 0.18424989 0.95099998 2.3509689e-38
-0.045854047 0.1853615 0.95099998 2.350971e-38
-0.042519208 0.18758473 0.95099998 2.3509723e-38
0.034182109 0.1853615 0.95099998 2.3509673e-38
-0.041407596 0.18980798 0.95099998 2.3509767e-38
-0.038350657 0.19091958 0.95099998 2.3509724e-38
0.030013558 0.19008587 0.95099998 2.3509727e-38
-0.034182105 0.192587 0.95099998 2.3509722e-38
0.027512427 0.19592184 0.95099998 2.3509838e-38
0.029179849 0.192587 0.95099998 2.3509755e-38
0.010004519 0.19925669 0.95099998 2.350983e-38
0.015006779 0.19758925 0.95099998 2.3509853e-38
0.019175328 0.19925669 0.95099998 2.350982e-38
0.02084275 0.19925669 0.95099998 2.3509844e-38
0.025845006 0.19758925 0.95099998 2.350982e-38
0.0025011299 0.20259151 0.95099998 2.3509743e-38
0.0054191146 0.20134096 0.95099998 2.3509776e-38
0.027512427 0.20592634 0.95099998 1.1985432e-39
0.029179849 0.20592634 0.95099998 2.0283039e-39
0.032514688 0.23760734 0.95099998 8.4819853e-39
-0.058666527 0.14331396 0.95599997 2.055566e-38
-0.061052814 0.14635949 0.954 1.8714974e-38
-0.058635406 0.14575154 0.95550001 2.3231659e-38
-0.057747781 0.14980829 0.95466661 2.3417501e-38
-0.061052814 0.1547229 0.954 2.3505561e-38
-0.058604285 0.15404786 0.95499992 2.3233091e-38
-0.05775515 0.15786557 0.95479995 2.3417054e-38
0.050677907 0.15831591 0.95550001 6.6355168e-39
0.053191312 0.15831591 0.95550001 8.2028831e-39
-0.05720922 0.161861 0.95500004 2.3509221e-38
-0.054476064 0.16342819 0.95599997 2.3509534e-38
0.047771316 0.16342819 0.95599997 2.3509617e-38
0.050054509 0.1618828 0.95480007 9.0325373e-39
0.053582743 0.16074471 0.95499998 9.1230331e-39
-0.056034777 0.16559532 0.954 2.3509563e-38
-0.054476064 0.16594246 0.95599997 2.3509565e-38
0.047147132 0.16598922 0.95466661 2.3509631e-38
-0.053425469 0.16965462 0.9551999 2.3509645e-38
-0.05112369 0.17097104 0.95599997 2.3509664e-38
0.042742755 0.17180912 0.95599997 2.3509531e-38
0.044372484 0.16911688 0.95499998 2.3508169e-38
-0.052689418 0.17395872 0.954 2.3509629e-38
-0.05023212 0.17414105 0.95499992 2.3509712e-38
-0.046933223 0.17432341 0.95599997 2.350968e-38
0.042124417 0.17435965 0.95466661 2.3508133e-38
-0.050197642 0.17820208 0.95433331 2.3509668e-38
-0.046531714 0.17835285 0.95514286 2.3509668e-38
0.039362919 0.17838822 0.95533335 2.3417373e-38
0.041441783 0.17874444 0.95499992 2.3509217e-38
-0.049344059 0.18232211 0.954 2.3509678e-38
-0.045773022 0.18201753 0.95428574 2.3509681e-38
-0.042323709 0.18228528 0.95599997 2.3509653e-38
0.034342974 0.18302739 0.95550001 2.350972e-38
0.037012164 0.18137813 0.95520002 2.3509589e-38
-0.054362096 0.18483113 0.954 9.2997887e-39
-0.045162357 0.18483113 0.954 2.3509687e-38
-0.041838475 0.18576434 0.95449996 2.3509701e-38
-0.038804188 0.18620574 0.95533335 2.3509726e-38
0.030450722 0.18633607 0.95600003 2.3509842e-38
0.03261726 0.18566747 0.954 2.350987e-38
-0.040980656 0.18817648 0.954 2.3509723e-38
-0.037984915 0.18892448 0.9544 2.3509713e-38
-0.034666903 0.191093 0.95520002 2.3509712e-38
0.02653962 0.19080591 0.95599997 2.3509731e-38
0.029829461 0.18873405 0.954 2.3509764e-38
-0.03261726 0.19319452 0.954 2.3509823e-38
-0.030140676 0.19423339 0.95499998 2.3509776e-38
0.015923772 0.19527572 0.95599997 2.3509765e-38
0.018717417 0.19471702 0.95600003 2.3509782e-38
0.021790426 0.19443764 0.95599997 2.3509757e-38
0.025944075 0.19416587 0.95466661 2.3509755e-38
-0.02425386 0.19821256 0.954 2.3509764e-38
-0.021767631 0.19758224 0.95499998 2.3509678e-38
-0.019255983 0.19925667 0.95499998 2.350973e-38
0.0062764948 0.19957095 0.95449996 2.3509771e-38
0.010322457 0.19779235 0.95466661 2.3509755e-38
0.013821963 0.19726707 0.95550001 2.3509818e-38
0.018408684 0.19747923 0.95449996 2.3509804e-38
0.021744838 0.19737622 0.954 2.3509799e-38
0.025090199 0.19653989 0.954 2.3509765e-38
-0.017599959 0.2003043 0.95599997 2.3509755e-38
-0.015923772 0.2003043 0.95599997 2.3509677e-38
-0.0016744332 0.20260555 0.95499992 2.3509719e-38
0.0015068146 0.20139103 0.95480007 2.3509724e-38
-0.056328461 0.14376368 0.95899999 2.3509528e-38
0.047080502 0.14376368 0.95899999 1.3002398e-38
-0.056328461 0.14628585 0.95899999 2.3507735e-38
0.047360744 0.14600562 0.95899999 1.8807739e-38
0.049602676 0.14628585 0.95899999 5.7160422e-39
-0.056328461 0.14964874 0.95899999 2.3409801e-38
0.047921225 0.14964874 0.95899999 2.2494075e-38
0.049602676 0.14964874 0.95899999 4.7894364e-39
-0.056328461 0.15385237 0.95899999 2.3317606e-38
-0.054647014 0.15553381 0.95899999 2.3507737e-38
0.047921225 0.15385237 0.95899999 2.3509694e-38
0.050443403 0.15385236 0.95900005 5.5316831e-39
0.053385928 0.15427272 0.95899999 8.0220932e-39
-0.056328461 0.15721525 0.95899999 2.3505582e-38
-0.054647014 0.15805598 0.95899999 2.350953e-38
0.047080502 0.15805598 0.95899999 2.3509618e-38
0.049602676 0.15721525 0.95899999 1.0879278e-38
0.054647014 0.15721525 0.95899999 8.1132154e-39
-0.054647014 0.16141888 0.95899999 2.3509528e-38
0.046912357 0.16192332 0.95900005 2.3509607e-38
-0.052965567 0.16646321 0.95899999 2.3509681e-38
-0.051284123 0.16730393 0.95899999 2.3509702e-38
0.045399059 0.16646321 0.95899999 2.3507775e-38
-0.0504434 0.16982611 0.95899999 2.3509762e-38
-0.047080502 0.17066683 0.95899999 2.3509678e-38
0.042876888 0.16982611 0.95899999 2.3505609e-38
-0.049602676 0.17234828 0.95899999 2.3509825e-38
-0.046239786 0.17346925 0.95899999 2.3509649e-38
0.039513994 0.17571117 0.95899999 2.3140848e-38
0.041195441 0.173189 0.95899999 2.3505603e-38
-0.044558335 0.17739262 0.95899999 2.3509638e-38
-0.042876888 0.17907406 0.95899999 2.3509608e-38
0.037272066 0.17851359 0.95899999 2.3509628e-38
-0.041195441 0.18243696 0.95899999 2.3509649e-38
0.031106761 0.18243696 0.95899999 2.3509806e-38
0.033348694 0.181316 0.95899999 2.3509717e-38
-0.036711585 0.18636033 0.95899999 2.3509598e-38
0.027183387 0.18692081 0.95899999 2.3509694e-38
0.030266037 0.18495913 0.95899999 2.350979e-38
-0.033348694 0.18972322 0.95899999 2.3509621e-38
0.022699529 0.19084418 0.95899999 2.3509727e-38
0.024941457 0.18972322 0.95899999 2.3509695e-38
-0.030266037 0.19336635 0.95899999 2.3509673e-38
-0.027743869 0.19588852 0.95899999 2.3509743e-38
0.010088679 0.19588852 0.95899999 2.3509689e-38
0.014292296 0.1950478 0.95899999 2.350967e-38
0.018215673 0.19308612 0.95899999 2.3509723e-38
0.021858806 0.19252563 0.95899999 2.3509734e-38
-0.025221698 0.19756998 0.95899999 2.3509748e-38
-0.019336635 0.19756998 0.95899999 2.3509617e-38
0.0058850632 0.1984107 0.95899999 2.3509687e-38
0.0092479559 0.19756998 0.95899999 2.3509688e-38
-0.044790652 0.12169535 0.96399999 2.3509689e-38
-0.043100435 0.12169535 0.96399999 2.3508924e-38
-0.053241715 0.13437195 0.96399999 2.3509632e-38
-0.050706398 0.13437195 0.96399999 2.1566293e-38
-0.056563407 0.13845283 0.963 2.3509755e-38
-0.053895008 0.13803257 0.96359998 2.258335e-38
-0.050875422 0.13741434 0.96399993 2.2671888e-38
-0.056504674 0.14168337 0.96200001 2.3509643e-38
-0.054029845 0.14183065 0.96299994 2.1108551e-38
-0.051551506 0.1411328 0.96399999 2.3507041e-38
-0.054029845 0.14605179 0.963 2.3042471e-38
0.045189098 0.1465493 0.96349996 2.350971e-38
-0.054029841 0.15027294 0.963 2.3506658e-38
0.043100435 0.15127409 0.96399999 2.2763006e-38
0.04558754 0.15027292 0.96299994 2.3508169e-38
0.051444549 0.15096024 0.96200001 3.413762e-39
-0.054002229 0.15356964 0.96250004 2.3508823e-38
-0.051551506 0.15465452 0.96399999 2.3509565e-38
0.043100435 0.1538094 0.96399999 2.2486065e-38
0.04558754 0.15364985 0.96299994 2.3504533e-38
-0.05313126 0.15770707 0.96200007 2.3509548e-38
-0.05034421 0.15827641 0.96399993 2.3509545e-38
0.043100439 0.15803495 0.96399999 2.2395668e-38
0.045165867 0.15744846 0.96299994 2.3226502e-38
-0.053131256 0.16192383 0.96200001 2.3509603e-38
-0.049861293 0.16226047 0.96399993 2.3509566e-38
0.043100435 0.16226047 0.96399999 2.3042459e-38
0.044697724 0.16192383 0.96200001 2.3502354e-38
-0.053131256 0.16445389 0.96200001 2.3509611e-38
-0.049584921 0.16605841 0.96274996 2.3509645e-38
-0.046480864 0.16648601 0.96399999 2.3509556e-38
0.043070629 0.16636971 0.96333331 2.3319053e-38
0.044697724 0.16529724 0.96200001 2.3503071e-38
-0.048914492 0.16951402 0.96200001 2.3509765e-38
-0.045588419 0.16968936 0.96299994 2.3509534e-38
0.041410226 0.17071155 0.96399999 2.3509202e-38
-0.044697724 0.17373079 0.96200001 2.3509552e-38
-0.043100435 0.17409196 0.96399999 2.350957e-38
0.039637607 0.17373079 0.96200001 2.3509625e-38
-0.042507228 0.17763078 0.96333331 2.3509584e-38
0.034613431 0.17897588 0.963 2.3509664e-38
0.036851563 0.17694521 0.96266669 2.3509671e-38
-0.04136727 0.18066433 0.963 2.3509621e-38
-0.038351364 0.18263595 0.96359998 2.3509614e-38
0.02788852 0.18338814 0.96399999 2.350958e-38
0.030392278 0.18150856 0.963 2.3509635e-38
0.032959159 0.18000771 0.96399999 2.3509691e-38
-0.038002335 0.18495035 0.96333331 2.3509611e-38
-0.033804268 0.18592346 0.96399999 2.3509573e-38
-0.030423837 0.18676856 0.96399999 2.3509618e-38
-0.021972772 0.18676856 0.96399999 2.3509643e-38
0.026170252 0.18573061 0.963 2.3509605e-38
0.029517367 0.18469438 0.96200001 2.350961e-38
-0.033734135 0.18806778 0.96200001 2.35096e-38
-0.030402213 0.19001691 0.96333331 2.3509593e-38
-0.026198307 0.19036026 0.96399987 2.3509629e-38
-0.021972774 0.19014899 0.96399993 2.3509654e-38
0.01014128 0.1918392 0.96399999 2.3509682e-38
0.013521707 0.1918392 0.96399999 2.350964e-38
0.017948871 0.19026075 0.9634999 2.3509594e-38
0.021776749 0.18957356 0.96280003 2.3509674e-38
0.024457246 0.18806778 0.96200001 2.3509646e-38
-0.029517367 0.19312792 0.96200001 2.3509617e-38
-0.021949979 0.19417201 0.963 2.350964e-38
0.01013076 0.19417201 0.96299994 2.350967e-38
0.013212536 0.19369015 0.96200007 2.3509643e-38
0.016023712 0.19312792 0.96200001 2.3509628e-38
-0.04238683 0.11953086 0.96700001 2.3509759e-38
-0.046625517 0.12292181 0.96700001 2.3509776e-38
-0.041539095 0.12207408 0.96700001 2.036958e-38
0.027127571 0.12207408 0.96700001 2.2670494e-38
0.030518521 0.12207408 0.96700001 2.3509715e-38
0.033909462 0.12207408 0.96700001 1.0527845e-38
0.036452677 0.12207408 0.96700001 2.6087791e-39
-0.045777783 0.12546502 0.96700001 2.2031249e-38
-0.043234568 0.12546502 0.96700001 2.128754e-38
0.033909462 0.12461729 0.96700001 2.2958646e-38
0.036452677 0.12461729 0.96700001 7.3802018e-39
-0.048886146 0.13083401 0.96700001 2.1751044e-38
-0.045777779 0.1297037 0.96700001 2.2302398e-38
-0.043234568 0.1297037 0.96700001 2.3409812e-38
-0.049592592 0.13351853 0.96700001 2.2026929e-38
-0.046060361 0.13365981 0.96700001 2.3503073e-38
0.04238683 0.13479012 0.96700001 1.6871638e-38
-0.048886146 0.13818108 0.96700001 2.3505593e-38
0.042810701 0.1377572 0.96700001 2.1850565e-38
0.044930041 0.13902882 0.96700001 1.9728335e-38
-0.050581619 0.14270234 0.96700001 2.3509228e-38
0.043234568 0.14241976 0.96700001 2.3509596e-38
0.045777783 0.14241976 0.96700001 1.6502868e-38
-0.051146775 0.14552812 0.96700001 2.3509559e-38
0.043234568 0.14581069 0.96700001 2.3509601e-38
-0.051288065 0.15047325 0.96700001 2.350957e-38
0.043234568 0.14920165 0.96700001 2.3226493e-38
-0.050016463 0.15428807 0.96700001 2.3509538e-38
0.041539095 0.1551358 0.96700001 2.3409083e-38
-0.048320986 0.15767902 0.96700001 2.3509528e-38
-0.046625517 0.15852675 0.96700001 2.3509528e-38
0.041539095 0.15683128 0.96700001 2.3409442e-38
-0.046625517 0.16191769 0.96700001 2.3509532e-38
0.041539095 0.16191772 0.96700001 2.3505229e-38
-0.045777779 0.16615638 0.96700001 2.3509556e-38
0.039843623 0.16700412 0.96700001 2.3509604e-38
0.041539095 0.16615638 0.96700001 2.35063e-38
-0.044930041 0.16869959 0.96700001 2.3509528e-38
-0.043234568 0.17039506 0.96700001 2.3509552e-38
0.038572017 0.1699712 0.96700001 2.350923e-38
0.041539095 0.16869959 0.96700001 2.3506705e-38
-0.041962966 0.17336214 0.96700001 2.3508828e-38
-0.038487244 0.1748033 0.96700001 2.3509575e-38
0.034757201 0.17463374 0.96700001 2.3509708e-38
0.037663728 0.1735438 0.96700007 2.3509626e-38
-0.041539095 0.17717695 0.96700001 2.3509577e-38
-0.038487244 0.17785515 0.96700001 2.3509587e-38
0.030518519 0.17802471 0.96700001 2.3509622e-38
0.033626884 0.17774212 0.96700001 2.3509696e-38
-0.037724283 0.18099178 0.96700001 2.3509559e-38
-0.033739917 0.18260248 0.96700001 2.3509624e-38
-0.030518521 0.18226337 0.96700001 2.3509645e-38
-0.026279837 0.18226339 0.96700001 2.3509649e-38
-0.022041153 0.18226337 0.96700001 2.3509633e-38
-0.019497944 0.18311112 0.96700001 2.3509656e-38
0.022041153 0.18395886 0.96700001 2.3509539e-38
0.027127571 0.18226337 0.96700001 2.3509556e-38
0.029670782 0.18056791 0.96700001 2.3509541e-38
-0.030518519 0.18565431 0.96700001 2.350964e-38
-0.026279835 0.18650204 0.96700001 2.3509659e-38
-0.022041153 0.18565431 0.96700001 2.3509631e-38
-0.019497944 0.18565431 0.96700001 2.3509661e-38
0.0076296297 0.1873498 0.96700001 2.3509703e-38
0.01045542 0.18678463 0.96700001 2.3509705e-38
0.013563786 0.18650205 0.96700001 2.3509717e-38
0.018141566 0.1866716 0.96700001 2.3509692e-38
0.022041153 0.18650204 0.96700001 2.3509612e-38
0.024584362 0.18565431 0.96700001 2.3509575e-38
-0.026279837 0.18904528 0.96700001 2.3509687e-38
-0.016106997 0.18989301 0.96700001 2.3509678e-38
-0.014411522 0.18989301 0.96700001 2.350968e-38
-0.0059341565 0.18989301 0.96700001 2.3509703e-38
-0.0016954733 0.18989301 0.96700001 2.3509722e-38
0.0016954733 0.18989301 0.96700001 2.3509724e-38
0.0059341565 0.18989301 0.96700001 2.3509713e-38
0.01017284 0.18989301 0.96700001 2.3509696e-38
0.013563786 0.18989301 0.96700001 2.3509688e-38
0.016106997 0.18904528 0.96700001 2.3509703e-38
-0.041667968 0.11820097 0.97000003 2.3509544e-38
-0.039116863 0.11905134 0.97000003 2.184914e-38
0.026361367 0.1199017 0.97000003 2.3509678e-38
0.028062101 0.1199017 0.97000003 2.3509841e-38
-0.039116867 0.1224528 0.97000003 2.1102793e-38
-0.041667968 0.12585427 0.97000003 2.2486069e-38
0.026361367 0.1250039 0.97000003 2.1011675e-38
0.029762834 0.1250039 0.97000003 2.230347e-38
0.034014665 0.12670463 0.97000003 2.3509705e-38
0.037699591 0.12613773 0.97000003 7.576165e-39
-0.041667968 0.12925573 0.97000003 2.3504865e-38
0.034865033 0.13095647 0.97000003 2.2853407e-38
0.038053907 0.13031869 0.97000015 2.1665441e-38
0.041667968 0.13180684 0.97000003 1.4109468e-38
-0.04506943 0.13520831 0.97000003 2.3508093e-38
-0.043368701 0.13435793 0.97000003 2.3507386e-38
0.038266502 0.13435794 0.97000015 2.3137219e-38
0.041667968 0.13350756 0.97000003 1.9456836e-38
-0.046770167 0.13775939 0.97000003 2.3507417e-38
0.039116867 0.13775939 0.97000003 2.2306722e-38
0.041667968 0.13860977 0.97000003 2.3509689e-38
-0.048470899 0.14116086 0.97000003 2.3509576e-38
-0.046770167 0.1403105 0.97000003 2.3509587e-38
0.039967231 0.14201124 0.97000003 2.1841064e-38
0.041667968 0.14201124 0.97000003 2.2765901e-38
-0.050171632 0.14711343 0.97000003 2.3509539e-38
0.039967231 0.14626306 0.97000003 2.1932904e-38
0.041667968 0.14626306 0.97000003 2.2024735e-38
-0.050171632 0.14966452 0.97000003 2.3509539e-38
0.039967231 0.14881416 0.97000003 2.2857056e-38
0.041667968 0.14966452 0.97000003 2.2394947e-38
-0.048470899 0.15306601 0.97000003 2.3509565e-38
-0.046770167 0.1556171 0.97000003 2.3509528e-38
0.039967231 0.15476674 0.97000003 2.2955353e-38
0.041667968 0.15306601 0.97000003 2.3223619e-38
-0.046770167 0.15731783 0.97000003 2.3509528e-38
0.039967231 0.1581682 0.97000003 2.3505249e-38
0.041667968 0.15901856 0.97000003 2.3409832e-38
0.038606647 0.16173974 0.97000009 2.3508857e-38
-0.04506943 0.16582151 0.97000003 2.3509562e-38
0.034865033 0.16667187 0.97000003 2.3509558e-38
0.038053907 0.16560893 0.97000015 2.3509582e-38
-0.042518333 0.17007333 0.97000003 2.3509558e-38
0.030613199 0.17092369 0.97000003 2.3509593e-38
0.034014665 0.17007333 0.97000003 2.3509598e-38
0.037416134 0.16922295 0.97000003 2.3509601e-38
-0.038266502 0.17319135 0.97000003 2.3509603e-38
-0.034014665 0.17432517 0.97000003 2.3509654e-38
-0.030613199 0.17432517 0.97000003 2.3509639e-38
0.030102981 0.17364489 0.97000009 2.3509598e-38
0.033731211 0.17319135 0.97000003 2.3509666e-38
-0.036565769 0.17942737 0.97000003 2.3509597e-38
-0.034014668 0.17772663 0.97000015 2.3509642e-38
-0.029975424 0.17793924 0.97000015 2.3509633e-38
-0.025794458 0.17886047 0.97000003 2.3509629e-38
-0.022109533 0.17942737 0.97000003 2.350959e-38
-0.019558433 0.17942737 0.97000003 2.3509643e-38
0.026361367 0.17942737 0.97000003 2.3509528e-38
0.02908254 0.17704634 0.97000009 2.3509583e-38
0.0331643 0.1760259 0.97000003 2.3509716e-38
-0.034865033 0.1811281 0.97000003 2.3509534e-38
-0.017857701 0.18226193 0.97000003 2.3509657e-38
-0.012755499 0.18282883 0.97000003 2.3509677e-38
-0.010204399 0.18282883 0.97000003 2.350968e-38
-0.0042518335 0.18282883 0.97000003 2.3509713e-38
-0.0025511 0.18282883 0.97000003 2.3509708e-38
0.010204399 0.18282883 0.97000003 2.3509687e-38
0.013605866 0.18282883 0.97000003 2.3509703e-38
0.018708067 0.18282883 0.97000003 2.350971e-38
0.022109535 0.18197846 0.97000003 2.3509586e-38
0.025511 0.18197846 0.97000003 2.3509555e-38
-0.017371777 0.18647327 0.97000015 2.3509666e-38
-0.013605866 0.1862303 0.97000015 2.3509677e-38
-0.0102044 0.1862303 0.97000015 2.3509675e-38
-0.0059525664 0.18623029 0.97000015 2.3509695e-38
-0.0017007333 0.1862303 0.97000015 2.3509713e-38
0.0017007333 0.1862303 0.97000015 2.350971e-38
0.0054666428 0.18623032 0.97000015 2.3509703e-38
0.0099209435 0.18509647 0.97000003 2.3509698e-38
0.013605866 0.18452956 0.97000003 2.3509713e-38
0.017432516 0.18495473 0.97000003 2.3509719e-38
0.024660634 0.18452956 0.97000003 2.3509538e-38
-0.021368749 0.11197225 0.97500002 2.0543887e-38
-0.019659251 0.11197225 0.97500002 1.9995744e-38
-0.021368749 0.11368175 0.97500002 1.9626967e-38
-0.019659251 0.11368175 0.97500002 1.9992874e-38
-0.036678854 0.11856653 0.97299999 2.1467265e-38
-0.03388112 0.11815917 0.97433341 2.1379017e-38
-0.030770998 0.11795549 0.97500002 2.1380093e-38
-0.036678858 0.12197851 0.97299999 2.183927e-38
-0.034166038 0.12214625 0.97433329 2.2856277e-38
-0.030770998 0.12051975 0.97500002 2.3222542e-38
0.02478775 0.12308399 0.97500002 2.0548192e-38
-0.04009084 0.1262435 0.97299999 2.3315813e-38
-0.037569545 0.12637326 0.97399998 2.350452e-38
-0.035044752 0.12650299 0.97500002 2.350597e-38
0.025642499 0.12650299 0.97500002 2.2118005e-38
0.029874172 0.12718359 0.97366667 2.1654523e-38
-0.040173247 0.129922 0.97500002 2.3506333e-38
-0.037893914 0.12963709 0.97500008 2.3509199e-38
0.030770998 0.129922 0.97500002 2.1011675e-38
0.033835538 0.12937117 0.97299999 2.2581532e-38
-0.041181769 0.13379949 0.97460002 2.3507749e-38
0.033962946 0.13431744 0.97340006 2.138081e-38
-0.045208823 0.13818544 0.97299999 2.3509579e-38
-0.042206772 0.138584 0.97460002 2.35092e-38
-0.038463749 0.13932425 0.97500002 2.3507743e-38
0.034474917 0.13818459 0.97500008 2.2396382e-38
0.036678854 0.13818544 0.97299999 2.1474798e-38
-0.045777492 0.14188179 0.97299999 2.3509554e-38
-0.04188275 0.1418885 0.97500002 2.3508865e-38
-0.038463749 0.1418885 0.97500002 2.3508103e-38
0.035044752 0.1418885 0.97500002 2.313364e-38
0.037531853 0.14159745 0.97299999 2.2025835e-38
-0.048620805 0.14586243 0.97299999 2.3509213e-38
-0.046108287 0.14601234 0.97399998 2.3509559e-38
-0.041882746 0.14616224 0.97499996 2.3507758e-38
-0.038463749 0.1453075 0.97500002 2.3507376e-38
0.035044752 0.1453075 0.97500002 2.3505679e-38
0.037556987 0.14596295 0.97366667 2.3041419e-38
-0.048620805 0.15012741 0.97299999 2.3509537e-38
-0.046061821 0.15012741 0.97299999 2.3509537e-38
-0.04188275 0.15043598 0.97500002 2.3507379e-38
0.037589274 0.15035929 0.97450006 2.3509633e-38
0.04009084 0.1509804 0.97299999 2.1940933e-38
-0.046061821 0.15353939 0.97299999 2.3509537e-38
-0.041852944 0.15374979 0.97433329 2.3506674e-38
0.035044752 0.15470974 0.97500002 2.3509701e-38
0.037589271 0.15377565 0.97449994 2.3509703e-38
0.04009084 0.15268639 0.97299999 2.2034915e-38
-0.045208823 0.1578044 0.97299999 2.3509528e-38
-0.041872811 0.15809233 0.97477776 2.3505941e-38
0.034178019 0.15807411 0.97466671 2.3509678e-38
0.037531853 0.15780437 0.97299999 2.3508871e-38
-0.045208823 0.16206935 0.97299999 2.350953e-38
-0.041852944 0.16229145 0.97433329 2.3506668e-38
0.030343624 0.16282988 0.97500002 2.3509181e-38
0.034154058 0.16223592 0.97399998 2.3509568e-38
0.036678854 0.16121636 0.97299999 2.3509583e-38
-0.045208823 0.16462836 0.97299999 2.3509547e-38
-0.041852944 0.16570812 0.97433341 2.3508117e-38
-0.038463749 0.16667624 0.97500002 2.35096e-38
0.029905437 0.16576451 0.97466671 2.35092e-38
0.033835538 0.16519701 0.97299999 2.3509576e-38
-0.041241907 0.16923523 0.97333336 2.3509568e-38
-0.037764169 0.17036666 0.97460002 2.3509615e-38
-0.034189999 0.17095 0.97500002 2.3509639e-38
-0.029916249 0.17095 0.97500002 2.3509629e-38
-0.025357585 0.17123491 0.97500008 2.3509625e-38
-0.022508418 0.17123491 0.97500008 2.350964e-38
-0.019659251 0.17180474 0.97500002 2.3509643e-38
0.02649725 0.17009525 0.97500008 2.350917e-38
0.029636467 0.16940744 0.97385722 2.3509185e-38
0.033266868 0.16804034 0.97299999 2.3509534e-38
-0.036678854 0.17315832 0.97299999 2.3509649e-38
-0.034119867 0.17315832 0.97299999 2.3509649e-38
-0.029442851 0.17367381 0.97350001 2.3509632e-38
-0.025603486 0.17410028 0.97350001 2.3509626e-38
-0.022177912 0.17401132 0.97299999 2.350964e-38
-0.018784337 0.17419016 0.97399998 2.350964e-38
0.025615321 0.17419016 0.97399998 2.350953e-38
0.02814889 0.17315832 0.97299999 2.3509531e-38
-0.02814889 0.1765703 0.97299999 2.3509591e-38
-0.025305567 0.17713897 0.97299999 2.3509626e-38
-0.022177912 0.1774233 0.97299999 2.3509628e-38
-0.017936306 0.17766646 0.97433329 2.3509663e-38
-0.013676 0.17864275 0.97500002 2.3509661e-38
-0.0052976967 0.17856877 0.97460002 2.3509687e-38
-0.0017083313 0.17851943 0.97433341 2.3509685e-38
0.0021355599 0.17855027 0.97450006 2.3509675e-38
0.0052976967 0.17856877 0.97459996 2.3509688e-38
0.01024648 0.17931253 0.97399998 2.3509692e-38
0.012808099 0.17931253 0.97399998 2.3509694e-38
0.018765926 0.17998229 0.97299999 2.3509708e-38
0.022376213 0.17883669 0.97420007 2.3509638e-38
0.02542947 0.17800771 0.97340006 2.3509528e-38
-0.017085794 0.18111363 0.97449994 2.3509653e-38
-0.013840988 0.18164444 0.97459996 2.3509666e-38
-0.010256999 0.18120699 0.97500002 2.3509671e-38
-0.0064624115 0.18179399 0.97357142 2.3509691e-38
-0.001421661 0.18225694 0.97299999 2.3509699e-38
0.0015357446 0.18210347 0.97340006 2.3509684e-38
0.0061877328 0.18199404 0.97350001 2.3509684e-38
0.01023596 0.18168828 0.97299999 2.3509689e-38
0.013952151 0.18136744 0.97433329 2.3509702e-38
0.017243857 0.18183695 0.9738 2.3509706e-38
0.024736902 0.18168828 0.97299999 2.3509528e-38
0.0076769697 0.18510026 0.97299999 2.3509687e-38
-0.01800498 0.11060201 0.97800004 2.3509708e-38
-0.023149259 0.11317416 0.97799999 2.0730793e-38
-0.017147599 0.11317416 0.97799999 2.036201e-38
-0.00085737993 0.11403154 0.97800004 2.1192117e-38
0.00171476 0.11403155 0.97800004 2.1099205e-38
0.0060016601 0.11488892 0.97800004 2.0732222e-38
-0.028293537 0.11831843 0.97799999 2.2025452e-38
0.017662028 0.11848991 0.97799999 2.1374712e-38
0.02229188 0.11917581 0.97799999 2.3503089e-38
0.024864018 0.11917581 0.97799999 2.3509759e-38
-0.030008299 0.12203376 0.97800004 2.3504147e-38
0.018862359 0.12089057 0.97799999 2.0365239e-38
0.02229188 0.12174796 0.97799999 2.0825495e-38
0.024864018 0.12089057 0.97799999 2.3505692e-38
-0.033437818 0.12689224 0.97799999 2.3508458e-38
-0.031294368 0.12560616 0.97799999 2.3507379e-38
0.022463357 0.12569191 0.97799999 2.24875e-38
0.024864018 0.12774962 0.97799999 2.2671529e-38
-0.036867339 0.13117914 0.97799999 2.3508093e-38
-0.034580991 0.13003597 0.97800004 2.3508811e-38
0.025721397 0.13032176 0.97799999 2.3041409e-38
0.028293537 0.13032176 0.97799999 2.1842499e-38
-0.037724718 0.13375127 0.97799999 2.350917e-38
-0.034580991 0.13403708 0.97800004 2.3507017e-38
0.026578778 0.13289389 0.97799999 2.3506012e-38
0.030008299 0.13375127 0.97800004 2.2856328e-38
-0.040296856 0.13718079 0.97799999 2.3508453e-38
-0.037553243 0.13769522 0.97799999 2.3508093e-38
-0.034295198 0.13803817 0.97800004 2.3506658e-38
-0.03172306 0.13889556 0.97799999 2.35063e-38
0.030498233 0.13779321 0.97800004 2.3411265e-38
0.033437818 0.13975294 0.97799999 2.3504154e-38
-0.036867339 0.14232507 0.97799999 2.3506658e-38
-0.034295198 0.14232507 0.97799999 2.3506658e-38
-0.03172306 0.14232507 0.97799999 2.3505223e-38
0.031151474 0.14261088 0.97800004 2.3507737e-38
0.033437818 0.14232507 0.97799999 2.3508102e-38
-0.036867339 0.14575458 0.97799999 2.3505223e-38
-0.034580991 0.1454688 0.97800004 2.350343e-38
0.03086568 0.14575459 0.97799999 2.3509549e-38
0.033437818 0.14575458 0.97799999 2.3509572e-38
-0.037724718 0.15004151 0.97800004 2.3503789e-38
-0.035152577 0.14832674 0.97799999 2.3503071e-38
0.031294368 0.1504702 0.97799999 2.35096e-38
0.034295198 0.15004149 0.97800004 2.3508512e-38
-0.037724718 0.15432838 0.97799999 2.350343e-38
0.030351251 0.15449986 0.97799999 2.3509322e-38
0.034009404 0.1540426 0.97800004 2.3509806e-38
-0.037724718 0.15775791 0.97799999 2.3509214e-38
-0.035152577 0.15861529 0.97799999 2.3509598e-38
0.030008297 0.15775791 0.97800004 2.3509287e-38
-0.037724718 0.16204482 0.97800004 2.3509586e-38
-0.034723885 0.1624735 0.97799999 2.3509608e-38
0.023149259 0.16375957 0.97799999 2.3417429e-38
0.025721399 0.16204482 0.97800004 2.3507034e-38
0.029665345 0.16101597 0.97799999 2.3508814e-38
-0.037438925 0.16604592 0.97800004 2.3509615e-38
-0.034295198 0.16633171 0.97799999 2.3509625e-38
-0.030008297 0.16633169 0.97800004 2.3509601e-38
-0.025435604 0.16661751 0.97800004 2.3509625e-38
-0.02229188 0.16633171 0.97799999 2.3509649e-38
-0.019719739 0.16633171 0.97799999 2.3509643e-38
0.023149259 0.16633171 0.97799999 2.3417457e-38
0.025721397 0.16633171 0.97799999 2.3506658e-38
-0.036867339 0.16890386 0.97799999 2.3509643e-38
-0.034295198 0.16890386 0.97799999 2.3509633e-38
-0.030008297 0.16890387 0.97800004 2.3509621e-38
-0.02600719 0.16947544 0.97800004 2.3509626e-38
-0.022006085 0.16947544 0.97800004 2.3509646e-38
-0.019719739 0.16976124 0.97799999 2.3509647e-38
0.00171476 0.17061861 0.97799999 2.3509685e-38
0.023149259 0.16976124 0.97799999 2.3509687e-38
0.024864018 0.16976124 0.97799999 2.3508452e-38
-0.016718909 0.17361943 0.97799999 2.3509656e-38
-0.013889556 0.17439108 0.97799999 2.350966e-38
-0.010288559 0.17490551 0.97799999 2.3509653e-38
-0.0060016601 0.17490551 0.97800004 2.350967e-38
-0.0017147599 0.17490551 0.97799999 2.3509673e-38
0.00171476 0.17404813 0.97800004 2.3509698e-38
0.0054300735 0.17461972 0.97800004 2.3509681e-38
0.010288559 0.17576288 0.97799999 2.3509694e-38
0.0128607 0.17576288 0.97799999 2.3509691e-38
0.01800498 0.17576288 0.97800004 2.3509708e-38
0.02229188 0.17404813 0.97800004 2.3509698e-38
0.024864018 0.17233337 0.97799999 2.3509528e-38
-0.01371808 0.17747766 0.97799999 2.3509661e-38
-0.010288559 0.17833503 0.97799999 2.3509664e-38
-0.0068590399 0.17747766 0.97799999 2.3509682e-38
0.00085737993 0.17747766 0.97799999 2.3509681e-38
0.0068590399 0.17747766 0.97799999 2.3509701e-38
0.010288559 0.17747766 0.97799999 2.3509701e-38
0.01371808 0.17833504 0.97799999 2.3509696e-38
0.01800498 0.17833504 0.97800004 2.3509706e-38
0.021434499 0.17747766 0.97799999 2.3509703e-38
-0.013486639 0.11047929 0.98200005 2.3507156e-38
-0.010618187 0.11047929 0.98200005 2.3410266e-38
-0.0077400901 0.11094129 0.98100001 2.3497033e-38
-0.013760159 0.11352132 0.98100001 2.0637158e-38
-0.01032012 0.11352132 0.98100001 2.1098488e-38
-0.0060262065 0.11363705 0.98200005 2.0638952e-38
-0.0025800299 0.11352132 0.98100001 2.0176904e-38
-0.025800299 0.11782136 0.98100007 2.2117288e-38
-0.022372095 0.1178823 0.98150003 2.3223977e-38
-0.018095277 0.11806157 0.98300004 2.350343e-38
-0.01380224 0.11731903 0.98400003 2.3501636e-38
-0.0103359 0.1171415 0.98250002 2.3502354e-38
-0.0056038722 0.11679895 0.98325002 2.3501277e-38
-0.0017206774 0.11791275 0.98175001 2.3502714e-38
0.00172265 0.11886416 0.98250002 2.3503071e-38
0.0060292752 0.11886416 0.98250002 2.3225412e-38
0.01032012 0.11782136 0.98100007 2.1746717e-38
0.013588157 0.11816537 0.98100007 2.1100999e-38
-0.028380331 0.12298143 0.98100001 2.3505223e-38
-0.025858818 0.12240217 0.98325002 2.3505582e-38
-0.022412203 0.12240218 0.98325002 2.350702e-38
-0.019810475 0.12230946 0.98250002 2.3509583e-38
0.014089787 0.12220734 0.98400009 2.3223977e-38
0.017630205 0.12255143 0.98100001 2.2486782e-38
-0.028953671 0.12584813 0.98100007 2.3507735e-38
-0.025879199 0.12594545 0.98400003 2.3508452e-38
-0.022428641 0.12594545 0.98400003 2.3508818e-38
-0.019840719 0.12594545 0.98400003 2.3509643e-38
0.01466488 0.12508281 0.98400003 2.350343e-38
0.018068537 0.12562589 0.98150003 2.3410168e-38
-0.033540387 0.13158153 0.98100001 2.3507017e-38
-0.029917892 0.13022543 0.98212504 2.3506674e-38
-0.025879201 0.13025865 0.98400009 2.35063e-38
-0.022428639 0.13025865 0.98400009 2.3505941e-38
-0.019840721 0.13025865 0.98400009 2.3505245e-38
0.018805552 0.12956853 0.98400003 2.3506667e-38
0.02221456 0.13036542 0.98220009 2.3319777e-38
-0.033540387 0.13330156 0.98100001 2.3506658e-38
-0.030114815 0.13422951 0.98150003 2.3505941e-38
-0.025858816 0.13446862 0.98325002 2.3505582e-38
-0.022428641 0.13457184 0.98400003 2.3505582e-38
-0.019840719 0.13457184 0.98400003 2.3505941e-38
0.019840719 0.13457184 0.98400003 2.350953e-38
0.022428639 0.13457184 0.98400003 2.3509569e-38
0.02551363 0.13444823 0.98100007 2.3509619e-38
-0.029756347 0.13742959 0.98100007 2.3504865e-38
-0.025838435 0.137812 0.98250002 2.3504865e-38
-0.022428639 0.13802241 0.98400003 2.3503075e-38
-0.019840719 0.13802241 0.98400003 2.3501995e-38
0.02329128 0.13802241 0.98400003 2.3507841e-38
0.025800299 0.1376016 0.98100001 2.3508452e-38
0.028380331 0.1384616 0.98100001 2.3507424e-38
-0.02924034 0.14190166 0.98100007 2.3410518e-38
-0.02613957 0.14104252 0.98300004 2.3501277e-38
-0.02329128 0.14061031 0.98400003 2.350056e-38
0.019840719 0.14147295 0.98400003 2.3509175e-38
0.022428641 0.14147295 0.98400003 2.350961e-38
0.025800299 0.14190164 0.98100007 2.3509566e-38
0.028810337 0.14190164 0.98100001 2.3507739e-38
-0.033540387 0.14706171 0.98100001 2.3499125e-38
-0.030159963 0.14649975 0.98300004 2.3409442e-38
-0.02674184 0.14406088 0.98400003 2.3501277e-38
0.019840721 0.14578615 0.98400009 2.3506665e-38
0.022404972 0.14563712 0.98300004 2.3508093e-38
0.025800299 0.1462017 0.98100001 2.3509528e-38
0.028380331 0.1462017 0.98100001 2.3509528e-38
-0.034113728 0.14992841 0.98100007 2.3225771e-38
-0.030192401 0.15009937 0.98400009 2.3507422e-38
0.019840719 0.15009937 0.98400003 2.3504865e-38
0.022393133 0.14987054 0.98250002 2.3506658e-38
0.025800299 0.14964172 0.98100001 2.350917e-38
0.02924034 0.14964172 0.98100001 2.3509528e-38
-0.034400396 0.1539418 0.98100007 2.3508462e-38
-0.030192401 0.15354992 0.98400009 2.3509562e-38
0.019265627 0.15383747 0.98400009 2.3136889e-38
0.022371218 0.15401939 0.98150003 2.3503789e-38
0.025800299 0.1539418 0.98100007 2.3507735e-38
0.028380331 0.15308177 0.98100001 2.3509528e-38
-0.034113728 0.15795517 0.98100007 2.3509594e-38
-0.030438872 0.15835606 0.98400009 2.3509562e-38
-0.025879201 0.1595884 0.98400003 2.3509573e-38
-0.022141095 0.15901332 0.98400009 2.3509593e-38
-0.01854676 0.15915708 0.98400003 2.3509624e-38
0.01466488 0.15786313 0.98400009 2.3509636e-38
0.01810872 0.15780906 0.98366672 2.3417099e-38
0.022360258 0.15824184 0.98100001 2.3506664e-38
0.025800299 0.15824184 0.98100001 2.3506658e-38
-0.033540387 0.16168188 0.98100001 2.3509586e-38
-0.030192401 0.16217631 0.98400009 2.3509601e-38
-0.025879201 0.16217631 0.98400003 2.3509605e-38
-0.022412203 0.16205205 0.98325002 2.3509622e-38
-0.018087825 0.16192779 0.98250008 2.3509638e-38
-0.01380224 0.16217631 0.98400003 2.3509639e-38
-0.01035168 0.16217633 0.98400003 2.350964e-38
-0.0056071598 0.16260764 0.98400003 2.3509636e-38
-0.0020128267 0.16246387 0.98400009 2.350965e-38
0.01466488 0.16217631 0.98400003 2.3509664e-38
0.018076867 0.1618467 0.98200005 2.3509656e-38
0.022360258 0.16168188 0.98100001 2.3509653e-38
-0.030100351 0.16426191 0.98100007 2.3509608e-38
-0.026086969 0.16483524 0.98100007 2.3509619e-38
-0.022360258 0.16426191 0.98100001 2.3509633e-38
-0.017568775 0.16573623 0.98100007 2.3509647e-38
-0.01376016 0.16598193 0.98100007 2.350964e-38
-0.01032012 0.16598193 0.98100007 2.350964e-38
-0.0060297134 0.16626216 0.98266679 2.3509657e-38
-0.0017235267 0.16631858 0.98300004 2.3509668e-38
0.0017217735 0.16614938 0.98200005 2.3509674e-38
0.0056871125 0.16697447 0.98280001 2.3509698e-38
0.01035168 0.16648951 0.98400003 2.3509668e-38
0.014089787 0.16591443 0.98400009 2.3509673e-38
0.018335983 0.16577904 0.98271435 2.350968e-38
0.02150025 0.16598193 0.98100007 2.350967e-38
-0.017200198 0.17028198 0.98100001 2.3509664e-38
-0.013760159 0.17028198 0.98100001 2.350967e-38
-0.01032012 0.17028198 0.98100001 2.3509664e-38
-0.0060200705 0.17028198 0.98100007 2.3509685e-38
-0.00172002 0.17028198 0.98100001 2.3509684e-38
0.00172002 0.16942197 0.98100001 2.3509687e-38
0.006269169 0.16998667 0.98142868 2.3509674e-38
0.01033064 0.16959292 0.98200005 2.3509677e-38
0.013795665 0.16985285 0.98350012 2.3509681e-38
0.017884659 0.17002556 0.98325008 2.3509695e-38
0.021500248 0.17028198 0.98100001 2.3509694e-38
-0.012900149 0.17286201 0.98100001 2.3509661e-38
-0.01032012 0.17286201 0.98100001 2.3509661e-38
-0.0060200705 0.17286202 0.98100007 2.3509678e-38
-0.00172002 0.17286201 0.98100001 2.3509677e-38
0.0071667503 0.17343536 0.98100007 2.350968e-38
0.01032012 0.17372203 0.98100001 2.3509685e-38
0.013760159 0.17372201 0.98100001 2.3509694e-38
0.018060211 0.17372201 0.98100007 2.3509709e-38
0.014620169 0.17716205 0.98100001 2.3509703e-38
-0.0069221593 0.11854198 0.98699999 2.3503071e-38
-0.017305398 0.12286833 0.98699999 2.3509216e-38
-0.014017373 0.12165695 0.98699999 2.3507767e-38
-0.010383239 0.12027252 0.98699999 2.3508837e-38
-0.0056242542 0.12070515 0.98699999 2.350846e-38
-0.0020189632 0.12142621 0.98699999 2.3506302e-38
0.0017305398 0.12200306 0.98699999 2.3505223e-38
0.0060568894 0.12200306 0.98699999 2.3504865e-38
0.010383239 0.12286832 0.98699999 2.3505238e-38
0.01297905 0.1237336 0.98699999 2.350343e-38
-0.018170668 0.12719469 0.98699999 2.3509647e-38
0.011248509 0.12546416 0.98699999 2.3508093e-38
0.013555897 0.12661785 0.98699999 2.3507757e-38
-0.017305398 0.1297905 0.98699999 2.3504517e-38
-0.01384432 0.1297905 0.98699999 2.3504865e-38
0.014132744 0.12950209 0.98699999 2.3508463e-38
0.017305398 0.13065577 0.98699999 2.3508811e-38
-0.0173054 0.13411686 0.98699999 2.3504869e-38
-0.013844321 0.13411686 0.98699999 2.350415e-38
-0.010556295 0.13446295 0.98699999 2.3505223e-38
0.011248509 0.13411686 0.98699999 2.3505582e-38
0.013844321 0.13411686 0.98699999 2.3505941e-38
0.0173054 0.13411686 0.98699999 2.350666e-38
-0.017305398 0.13757792 0.98699999 2.3500919e-38
-0.01384432 0.13757792 0.98699999 2.3499125e-38
-0.011248509 0.13757792 0.98699999 2.3497331e-38
0.01817067 0.1384432 0.98699999 2.3506304e-38
0.021631747 0.1384432 0.98699999 2.3509654e-38
-0.025092829 0.14276955 0.98699999 2.3501636e-38
-0.022208594 0.14219271 0.98699999 2.3500919e-38
-0.019901209 0.14190426 0.98699999 2.3504506e-38
0.017305398 0.14190428 0.98699999 2.3504506e-38
-0.025785044 0.14657673 0.98699999 2.3507747e-38
-0.023362288 0.14450008 0.98699999 2.350961e-38
0.018170668 0.14623062 0.98699999 2.3503789e-38
-0.025958098 0.15055697 0.98699999 2.3509556e-38
-0.023362288 0.15055697 0.98699999 2.3509544e-38
0.014709589 0.15142223 0.98699999 2.3509694e-38
0.017305398 0.15055697 0.98699999 2.3224724e-38
-0.0259581 0.15401806 0.98699999 2.350957e-38
-0.022497017 0.15401806 0.98699999 2.3509561e-38
-0.019901209 0.15401806 0.98699999 2.3509573e-38
0.014709589 0.15401806 0.98699999 2.3509614e-38
0.017016975 0.15372965 0.98699999 2.3507791e-38
-0.029419178 0.15661387 0.98699999 2.350958e-38
-0.025958098 0.15747914 0.98699999 2.350957e-38
-0.02278544 0.15719073 0.98699999 2.3509576e-38
-0.01817067 0.15747914 0.98699999 2.3509608e-38
-0.01384432 0.1583444 0.98699999 2.350965e-38
-0.010383239 0.1583444 0.98699999 2.3509663e-38
-0.0077874293 0.1583444 0.98699999 2.3509654e-38
0.01297905 0.15747914 0.98699999 2.3509632e-38
-0.01384432 0.16007495 0.98699999 2.3509645e-38
-0.010383239 0.16007495 0.98699999 2.3509652e-38
-0.0064029978 0.16076717 0.98699999 2.3509638e-38
-0.0014421166 0.1606518 0.98699999 2.3509664e-38
0.0017305401 0.16180548 0.98699999 2.3509642e-38
0.0060568894 0.1618055 0.98699993 2.3509675e-38
0.01038324 0.16180548 0.98699999 2.3509666e-38
0.012979051 0.1618055 0.98699999 2.3509663e-38
0.0060568894 0.16526656 0.98699999 2.3509681e-38
0.010383239 0.16526656 0.98699999 2.350967e-38
0.01297905 0.16526656 0.98699999 2.3509668e-38
-0.01300535 0.12398433 0.98900002 2.3509631e-38
-0.01040428 0.12311731 0.98900002 2.3509249e-38
-0.006415973 0.12329071 0.98900002 2.3509249e-38
-0.0017340466 0.12398433 0.98900002 2.3509528e-38
0.0017340466 0.12398433 0.98900002 2.3509528e-38
0.0060691629 0.12398433 0.98900002 2.3509561e-38
-0.017051458 0.12629639 0.98900002 2.3509611e-38
-0.013872373 0.12658539 0.98900002 2.350814e-38
-0.01040428 0.12658539 0.98900002 2.3508128e-38
-0.0060691629 0.12658539 0.98900002 2.3508117e-38
-0.0017340466 0.12658539 0.98900002 2.3508093e-38
0.0017340465 0.12658539 0.98900002 2.3508811e-38
0.0060691629 0.12658539 0.98900002 2.3509577e-38
0.010115273 0.12687442 0.98900002 2.3509598e-38
-0.01040428 0.13005349 0.98900002 2.3505223e-38
-0.0060691638 0.13005351 0.98900002 2.3505223e-38
-0.0017340465 0.13005351 0.98900002 2.3504147e-38
0.0017340465 0.13005349 0.98900002 2.3504865e-38
0.0060691629 0.13005351 0.98900002 2.3507756e-38
0.01040428 0.13005351 0.98900002 2.3509185e-38
0.01300535 0.13092051 0.98900002 2.3508452e-38
-0.0095372573 0.13265456 0.98900002 2.3505582e-38
-0.0060691629 0.13352159 0.98900002 2.3505223e-38
-0.0017353615 0.13372409 0.99050003 2.3504506e-38
0.0017340466 0.13352159 0.98900002 2.3503818e-38
0.0060691629 0.13352159 0.98900002 2.3504506e-38
0.0095372573 0.13352159 0.98900002 2.3505582e-38
-0.017340466 0.13959076 0.98900002 2.3499843e-38
-0.013872373 0.13959076 0.98900002 2.3499484e-38
-0.010115273 0.13901274 0.98900002 2.3499125e-38
-0.0060691633 0.13785672 0.98900002 2.3408724e-38
-0.0017340466 0.13785672 0.98900002 2.3408007e-38
0.0017340465 0.13785672 0.98900002 2.3501636e-38
0.0060691633 0.13785671 0.98900002 2.3503789e-38
0.010230877 0.13820352 0.98900002 2.3504865e-38
0.013872372 0.13872373 0.98900002 2.3504865e-38
-0.017340466 0.14219183 0.98900002 2.3508835e-38
-0.013872373 0.14219183 0.98900002 2.3509604e-38
-0.01040428 0.14219183 0.98900002 2.3509603e-38
-0.0060713547 0.14226416 0.98949999 2.3509594e-38
-0.0017373341 0.14251596 0.99125004 2.3509656e-38
0.0017366766 0.1424088 0.99050003 2.350857e-38
0.006074423 0.14233649 0.99000001 2.350092e-38
0.01040428 0.14219183 0.98900002 2.3501636e-38
0.013872372 0.14219183 0.98900002 2.3504865e-38
-0.022253599 0.14594893 0.98900002 2.3509231e-38
-0.018242555 0.14595447 0.99100006 2.3509174e-38
-0.013904591 0.14599195 0.99125004 2.3508826e-38
-0.01042006 0.14588216 0.99050003 2.350846e-38
-0.0060836277 0.14602855 0.99150002 2.3508818e-38
