# .PCD v0.7 - Point Cloud Data file format
VERSION 0.7
FIELDS x y z rgb
SIZE 4 4 4 4
TYPE F F F F
COUNT 1 1 1 1
WIDTH 1007
HEIGHT 1
VIEWPOINT 0 0 0 1 0 0 0
POINTS 1007
DATA ascii
-0.114142 0.20137909 0.93000001 1.4736114e-38
-0.11115257 0.20246617 0.93000001 1.4736114e-38
0.046472099 0.20300969 0.93000001 1.1876991e-38
0.048917994 0.20137909 0.93000001 1.21532e-38
-0.1084349 0.2046403 0.93000001 1.4274733e-38
-0.10571723 0.20518383 0.93000001 1.5840265e-38
-0.10223862 0.20659702 0.93000001 1.7867496e-38
-0.097835995 0.20790149 0.93000001 1.9342986e-38
-0.092944205 0.2062709 0.93000001 1.6213403e-38
-0.089682996 0.20790149 0.93000001 1.4740446e-38
-0.086421803 0.20790149 0.93000001 1.3077291e-38
-0.083160594 0.20790149 0.93000001 1.5748116e-38
0.038319096 0.20681445 0.93000001 1.0311438e-38
0.042395599 0.2054556 0.93000001 1.113942e-38
-0.080714695 0.21034738 0.93000001 1.6119756e-38
-0.078268796 0.21116269 0.93000001 1.6672227e-38
-0.075822897 0.21116269 0.93000001 1.6302376e-38
-0.064408697 0.21116269 0.93000001 1.1883137e-38
-0.061962798 0.21116269 0.93000001 1.1883134e-38
-0.059516896 0.21116269 0.93000001 1.1791295e-38
0.0211978 0.21116269 0.93000001 1.445809e-38
0.030166097 0.21007562 0.93000001 1.2523076e-38
0.033427298 0.20953208 0.93000001 1.0774952e-38
-0.072561704 0.21279329 0.93000001 1.5381847e-38
-0.070115805 0.21279329 0.93000001 1.5105611e-38
-0.066039294 0.21279329 0.93000001 1.2803985e-38
-0.061962798 0.21279329 0.93000001 1.1792369e-38
-0.057560176 0.21344553 0.93000001 1.1607608e-38
-0.053809799 0.21360859 0.93000001 1.1975651e-38
-0.049325649 0.21320094 0.93000001 1.2159704e-38
-0.0456568 0.21360859 0.93000001 1.2161874e-38
-0.042395599 0.21442389 0.93000001 1.133284e-38
-0.039949697 0.21442389 0.93000001 1.105589e-38
0.0065223998 0.21442389 0.93000001 1.3172749e-38
0.009511834 0.21333683 0.93000001 1.2619213e-38
0.013860099 0.21279329 0.93000001 1.2709256e-38
0.0171213 0.21279329 0.93000001 1.3352818e-38
-0.038319096 0.21605448 0.93000001 1.0503431e-38
-0.034514368 0.21659802 0.93000001 1.0318311e-38
-0.030166101 0.21605448 0.93000001 9.6736762e-39
-0.026089599 0.21605448 0.93000001 1.0409438e-38
-0.022013098 0.21659802 0.93000001 1.1330312e-38
-0.017936599 0.21931569 0.93000001 1.2896918e-38
-0.013860099 0.21850039 0.93000001 1.2897254e-38
-0.009511834 0.21714155 0.93000001 1.3357512e-38
-0.0061147502 0.21646214 0.93000001 1.3173125e-38
-0.0019023668 0.21714155 0.93000001 1.4095444e-38
0.0016306 0.21686979 0.93000001 1.2988372e-38
0.0048917998 0.21605448 0.93000001 1.3537566e-38
-0.16147761 0.15983824 0.935 0
-0.15819888 0.15983824 0.93500006 1.2243267e-38
-0.15410046 0.15983824 0.935 1.7592368e-38
-0.15082172 0.15983824 0.935 1.7869296e-38
-0.16147761 0.16147761 0.935 0
-0.15808725 0.16218159 0.93433332 7.7299981e-39
-0.15377083 0.16195014 0.93300003 1.7960789e-38
-0.14978758 0.16206528 0.93366671 1.7592743e-38
-0.14672332 0.16311698 0.935 1.7038104e-38
-0.15721175 0.16458014 0.93400002 5.0577682e-39
-0.14886326 0.16440393 0.93300003 1.6948467e-38
-0.14549001 0.16578309 0.93340009 1.584103e-38
-0.14329118 0.16703568 0.93400002 1.5655505e-38
-0.14165355 0.17031091 0.93400002 1.5749182e-38
-0.14016584 0.17459254 0.935 1.6482427e-38
-0.13837832 0.17522374 0.93400002 1.639095e-38
0.077050224 0.17459254 0.935 9.951663e-39
-0.13674071 0.17686135 0.93400002 1.6024671e-38
-0.13476557 0.17818512 0.93449998 1.5839923e-38
-0.13196902 0.17951064 0.935 1.6023952e-38
0.073731609 0.17859496 0.93449998 1.1331356e-38
0.077023052 0.17780727 0.93466663 9.5858218e-39
-0.13018937 0.18177508 0.93400002 1.5474367e-38
0.070492759 0.18278939 0.935 1.6301983e-38
0.073652714 0.18167733 0.93350005 1.0961867e-38
0.076149017 0.18177596 0.93400002 9.4947135e-39
-0.12869027 0.18442874 0.935 1.6300885e-38
-0.12634082 0.18631569 0.93460006 1.5197082e-38
-0.12377217 0.18770748 0.935 1.4182187e-38
0.063115619 0.18770748 0.935 1.2339023e-38
0.066050105 0.18641381 0.93400002 1.6304538e-38
0.069647655 0.18518209 0.93466663 1.5657365e-38
0.073613703 0.18403424 0.93300003 1.0960795e-38
-0.12514329 0.18894184 0.93300003 1.593461e-38
-0.12240773 0.19024876 0.93460006 1.4275843e-38
0.059836879 0.1909862 0.935 9.3941283e-39
0.062262181 0.19006439 0.93449998 1.3355717e-38
0.064616472 0.18894184 0.93300003 1.7317272e-38
-0.12086691 0.19289617 0.93366671 1.4275128e-38
-0.11804648 0.19434209 0.93380004 1.4551715e-38
-0.11434583 0.19549447 0.935 1.5750261e-38
-0.11065724 0.1959043 0.935 1.740751e-38
0.051640045 0.1959043 0.935 1.2707082e-38
0.054040361 0.19569477 0.93400002 1.0864218e-38
0.058135279 0.19378337 0.93400002 1.040362e-38
0.061344747 0.19221355 0.93300003 1.6306634e-38
-0.11696399 0.19712113 0.93300003 1.5103811e-38
-0.1137323 0.19800949 0.93333334 1.5656989e-38
-0.10972009 0.19815034 0.93400002 1.6854063e-38
-0.10614899 0.19877321 0.935 1.8698328e-38
-0.10246041 0.19918305 0.935 1.9436602e-38
0.04672195 0.19918305 0.935 1.1416678e-38
0.049920466 0.1980447 0.93349999 1.2338642e-38
0.053165447 0.19712113 0.93300003 1.1141531e-38
-0.11205641 0.20039284 0.93300003 1.6851938e-38
-0.10943904 0.20170152 0.93300003 1.5564075e-38
-0.10604449 0.20191775 0.93357152 1.6760778e-38
-0.10238619 0.20204362 0.93433332 1.8790888e-38
-0.098361999 0.2016421 0.935 1.7779613e-38
-0.094673418 0.20205194 0.935 1.6121551e-38
-0.090984851 0.20246178 0.935 1.2802159e-38
0.045853175 0.20224436 0.93400002 1.1692584e-38
0.049075797 0.20039284 0.93300003 1.2614885e-38
-0.10134669 0.20514789 0.93380004 1.8974206e-38
-0.098221742 0.20544595 0.93366671 1.851467e-38
-0.094382063 0.20502014 0.9338572 1.621232e-38
-0.090036586 0.20544595 0.93366671 1.3171305e-38
-0.085964069 0.20549484 0.93388885 1.5472594e-38
-0.081909887 0.20559266 0.93433332 1.6673295e-38
-0.077869907 0.20574048 0.935 1.5015587e-38
-0.073771507 0.2057405 0.93500006 1.3635171e-38
-0.069673084 0.20574048 0.935 1.2068591e-38
-0.065847889 0.20683342 0.93500006 1.2344812e-38
-0.062295932 0.20737988 0.935 1.2344464e-38
-0.050000682 0.20737988 0.93500006 1.2068242e-38
-0.045902267 0.20737988 0.935 1.0317256e-38
-0.041475978 0.20672412 0.93500006 1.0778575e-38
-0.037705433 0.20656019 0.935 1.2990156e-38
-0.034426697 0.20737988 0.935 1.3448282e-38
-0.030328281 0.20656018 0.93500006 1.4091848e-38
-0.027049549 0.20737988 0.935 1.3909248e-38
0.030328281 0.20737988 0.93500006 1.5562634e-38
0.034426697 0.20737988 0.935 1.3536858e-38
0.036806848 0.20693628 0.93300003 1.1602157e-38
0.040984165 0.20574051 0.935 1.0496577e-38
-0.080975071 0.20857215 0.93300003 1.6028991e-38
-0.077703349 0.20939009 0.93300003 1.6211238e-38
-0.073613703 0.21020798 0.93300003 1.6303787e-38
-0.070366822 0.21028253 0.93333334 1.4188331e-38
-0.066456817 0.21000353 0.93300003 1.2161508e-38
-0.062195551 0.20950185 0.93350005 1.2251192e-38
-0.057945911 0.21028382 0.93425006 1.2435579e-38
-0.054060519 0.21050724 0.93433332 1.2252259e-38
-0.049941652 0.21040709 0.93388885 1.1975682e-38
-0.045836814 0.21035704 0.93366671 1.0686748e-38
-0.041744236 0.21035701 0.93366665 9.7658704e-39
-0.037852891 0.21023992 0.9346 1.0686746e-38
-0.034248386 0.21023992 0.93460006 1.1054802e-38
-0.030516548 0.21034016 0.93449998 1.2343014e-38
-0.026229866 0.20983893 0.935 1.3817405e-38
-0.022951134 0.20983893 0.935 1.3542259e-38
-0.012295249 0.21065861 0.935 1.353832e-38
-0.0098361988 0.21065861 0.935 1.344649e-38
0.0065574665 0.21065861 0.935 1.2343731e-38
0.0098256795 0.21125123 0.93400002 1.2159346e-38
0.013919714 0.21125124 0.93400002 1.2250099e-38
0.018013746 0.21125123 0.93400002 1.2892916e-38
0.022528579 0.21095492 0.93449998 1.4185084e-38
0.026201522 0.21043214 0.93400002 1.4460234e-38
0.029869786 0.20909289 0.93350005 1.4458432e-38
0.034353059 0.20857215 0.93300003 1.1507871e-38
-0.04171443 0.21347973 0.93300003 1.0963698e-38
-0.037476975 0.21389771 0.93340009 1.050308e-38
-0.034531724 0.21389773 0.93340009 1.0594188e-38
-0.030038482 0.21401198 0.93328583 1.0685669e-38
-0.026192462 0.21363109 0.93366671 1.1330674e-38
-0.022311822 0.21391258 0.93400002 1.1883483e-38
-0.018033031 0.21557671 0.935 1.1330316e-38
-0.013729696 0.21414223 0.935 1.2620327e-38
-0.0098361988 0.21393733 0.93500006 1.2067151e-38
-0.0057377834 0.21393731 0.935 1.2160418e-38
-0.0016390744 0.21386048 0.93466663 1.252884e-38
0.0016381977 0.21378362 0.93433332 1.2344449e-38
0.0054983287 0.21327235 0.93414289 1.1976025e-38
-0.020448251 0.21675146 0.93300003 1.0777496e-38
-0.01799446 0.21756938 0.93300003 1.1791638e-38
-0.014313775 0.21716042 0.93300003 1.1789474e-38
-0.010633091 0.21675146 0.93300003 1.2341929e-38
-0.00081792998 0.21675146 0.93300003 1.2713954e-38
0.00081792998 0.21675146 0.93300003 1.206714e-38
-0.16069299 0.15574859 0.94 1.3717985e-38
-0.1582208 0.15574859 0.94 1.8053358e-38
-0.16134523 0.1580516 0.93900001 5.1481786e-39
-0.15805247 0.1580516 0.93900001 1.8879184e-38
-0.15393654 0.15805161 0.93900007 1.7778575e-38
-0.15080419 0.1582208 0.94 1.8146634e-38
-0.14883871 0.1603511 0.93800002 1.7408662e-38
-0.14750792 0.16234112 0.94 1.7405813e-38
-0.14061558 0.17350811 0.93800002 1.6391662e-38
-0.1384432 0.17470212 0.94 1.6299817e-38
0.074126109 0.17460877 0.93950003 1.215861e-38
0.076638192 0.17387806 0.94 9.121545e-39
-0.13335589 0.17863223 0.93900001 1.6024302e-38
0.071093574 0.17814627 0.93933338 1.5200006e-38
0.074008197 0.17679736 0.93800002 1.1423919e-38
-0.13020253 0.18129465 0.94 1.4645682e-38
-0.12773032 0.18376686 0.94 1.4830453e-38
0.06345313 0.18376686 0.94 1.0405416e-38
0.065855198 0.1827473 0.93900001 1.38174e-38
0.069703266 0.18137155 0.93857151 1.6213071e-38
-0.12581395 0.18502049 0.93800002 1.4182575e-38
0.062054325 0.18616576 0.93880004 1.0588026e-38
0.064962752 0.18502049 0.93800002 1.6210882e-38
-0.12113779 0.19035938 0.94 1.4550992e-38
-0.11877197 0.1911858 0.9386667 1.4643186e-38
0.058034454 0.19015601 0.93900001 8.6512089e-39
0.06057708 0.18885796 0.93800008 9.2976672e-39
-0.1168921 0.19262558 0.93900001 1.5011984e-38
-0.11410811 0.19365451 0.9386667 1.6118316e-38
-0.11042493 0.1953038 0.94 1.8697252e-38
-0.1063046 0.1953038 0.94 1.9160046e-38
-0.10218427 0.1953038 0.94 1.6949864e-38
-0.098887995 0.1953038 0.94 1.6489981e-38
0.051092133 0.1953038 0.94 1.2614529e-38
0.054742571 0.19385992 0.93900001 1.0309978e-38
0.056800108 0.19262558 0.93900001 9.2040058e-39
-0.10936768 0.19653289 0.93800002 1.8698248e-38
-0.1057495 0.19719075 0.93800002 1.8791625e-38
-0.10184553 0.19793239 0.93840009 1.7778901e-38
-0.098191701 0.19864631 0.93925005 1.6490688e-38
0.043675531 0.19860005 0.94 1.3628688e-38
0.045924358 0.1980162 0.93879998 1.1323428e-38
0.049099177 0.19722079 0.9386667 1.215319e-38
-0.093893193 0.20096487 0.93950003 1.400323e-38
-0.089795962 0.20136359 0.93971431 1.4737541e-38
-0.08595141 0.20188482 0.9388572 1.6120473e-38
-0.082289778 0.20160878 0.93866676 1.57517e-38
-0.078194179 0.20165654 0.93888897 1.4554253e-38
-0.074267693 0.20205274 0.93920004 1.3725211e-38
-0.070345923 0.20280764 0.93849999 1.2251545e-38
-0.06592533 0.20272039 0.94 1.1976033e-38
-0.061805002 0.20272039 0.94 1.1607258e-38
-0.057684664 0.20272039 0.94 1.0410881e-38
-0.055212464 0.20354445 0.94 1.0870061e-38
-0.041680589 0.20279859 0.93959999 1.354047e-38
-0.037886463 0.20261213 0.93949997 1.390963e-38
-0.033443432 0.20279859 0.93959999 1.4185839e-38
-0.030458029 0.20250386 0.93900001 1.5568048e-38
0.042530902 0.20222977 0.93900007 1.2614885e-38
0.045227233 0.20146677 0.93800002 1.1599305e-38
-0.065510958 0.20530424 0.93800008 1.2254057e-38
-0.0616735 0.20557833 0.93800008 1.1884925e-38
-0.05756193 0.20557833 0.93800002 1.1792012e-38
-0.05435903 0.20590663 0.93950003 1.1516141e-38
-0.050214589 0.20579663 0.93900007 1.1605459e-38
-0.046098638 0.20579663 0.93900001 1.0960818e-38
-0.042372368 0.20527633 0.93849999 1.1791289e-38
-0.037826415 0.20475602 0.93800002 1.4001819e-38
-0.03404377 0.20541386 0.93800002 1.3632304e-38
-0.02960328 0.20475602 0.93800002 1.5567699e-38
-0.026342079 0.20579661 0.93900001 1.4461354e-38
-0.02255979 0.20600544 0.93920004 1.4000743e-38
-0.018129466 0.20684072 0.94 1.3541544e-38
-0.014004748 0.20594332 0.93966669 1.2527775e-38
-0.009883102 0.20590666 0.93950003 1.2527769e-38
-0.0061805001 0.20642868 0.94 1.2988746e-38
-0.0016481332 0.20684072 0.94 1.289619e-38
0.0016481332 0.20684072 0.94 1.2713228e-38
0.0057684667 0.20684072 0.94 1.2895435e-38
0.0090647331 0.20684072 0.94 1.3079119e-38
0.023073867 0.20684072 0.94 1.2341568e-38
0.026314026 0.20640065 0.93800002 1.4182587e-38
0.02960328 0.20640065 0.93800002 1.5196021e-38
0.034144849 0.20609863 0.93849999 1.4550275e-38
0.037866738 0.20579661 0.93900001 1.3166993e-38
0.041937985 0.20475602 0.93800008 1.1141574e-38
-0.06002887 0.20804527 0.93800002 1.2344468e-38
-0.05756193 0.20804527 0.93800002 1.1885645e-38
-0.054272678 0.20804527 0.93800002 1.2160427e-38
-0.025491713 0.20804527 0.93800002 1.3908529e-38
-0.021562142 0.20921019 0.93879998 1.32646e-38
-0.018116608 0.20998679 0.93933338 1.3540471e-38
-0.014189069 0.20953976 0.93825006 1.3172414e-38
-0.0098677604 0.20886759 0.93800002 1.2896195e-38
-0.0057585305 0.20978846 0.93844455 1.271144e-38
-0.0016457955 0.20983776 0.93866676 1.2803993e-38
0.0016446267 0.2096899 0.93800008 1.225225e-38
0.0055229994 0.20928338 0.93828583 1.2618508e-38
0.0098734582 0.20897849 0.93849999 1.2618873e-38
0.013661623 0.20920947 0.93880004 1.2619236e-38
0.018378442 0.20928955 0.9386667 1.2525595e-38
0.022217657 0.20901543 0.93866676 1.3169877e-38
0.026314026 0.20804527 0.93800002 1.4274758e-38
-0.020557834 0.21297914 0.93800002 1.3357879e-38
-0.018090893 0.21380146 0.93800002 1.2989455e-38
-0.015623953 0.21297914 0.93800002 1.3266034e-38
-0.16451263 0.15459228 0.94300002 4.2244328e-39
-0.16203254 0.15376557 0.94300002 1.4916207e-38
-0.15789907 0.15376559 0.94300002 1.7684217e-38
-0.15404114 0.15404114 0.94300002 1.8052983e-38
-0.16451263 0.15707237 0.94300002 2.3877229e-39
-0.16285923 0.15624566 0.94300002 6.6204332e-39
-0.15624566 0.15624566 0.94300002 1.648821e-38
-0.15376557 0.15624566 0.94300002 1.7500905e-38
-0.15045878 0.15789905 0.94300002 1.6578595e-38
-0.14136513 0.1727796 0.94300002 1.6392734e-38
-0.13888504 0.17360631 0.94300002 1.6208333e-38
0.074402705 0.1727796 0.94300002 1.3723405e-38
0.076882794 0.1727796 0.94300002 1.0134237e-38
-0.13640495 0.1760864 0.94300002 1.6115775e-38
-0.13061807 0.17939317 0.94300002 1.3907067e-38
0.066962428 0.17939317 0.94300002 1.2246104e-38
0.069938533 0.17740913 0.94300002 1.6396373e-38
-0.12896469 0.18187326 0.94300002 1.3633339e-38
0.063655637 0.18269995 0.94300002 1.0498698e-38
0.066135734 0.18104656 0.94300002 1.2246836e-38
-0.12565789 0.18600675 0.94300002 1.3538257e-38
-0.1231778 0.18766014 0.94300002 1.4274367e-38
0.058695462 0.18683344 0.94300002 8.0987428e-39
0.061175551 0.18518004 0.94300002 1.0125626e-38
-0.12235111 0.18931353 0.94300002 1.4550618e-38
-0.11788694 0.18997489 0.94300002 1.5471512e-38
-0.11408414 0.19096693 0.94300002 1.7222517e-38
0.055388674 0.19096693 0.94300002 1.1324481e-38
0.05704207 0.18931353 0.94300002 1.086352e-38
-0.11325745 0.19262032 0.94300002 1.8236996e-38
-0.10995066 0.19344704 0.94300002 1.9253685e-38
-0.10609274 0.19372259 0.94300002 1.805621e-38
-0.10201438 0.19361237 0.94300002 1.741228e-38
-0.097550198 0.19510041 0.94300002 1.4092215e-38
-0.094243415 0.1959271 0.94300002 1.4642847e-38
-0.089779258 0.19526576 0.94300002 1.5933585e-38
-0.085976452 0.1959271 0.94300002 1.5198539e-38
0.047121707 0.1959271 0.94300002 1.2703855e-38
0.049601801 0.19510041 0.94300002 1.2059929e-38
0.052908584 0.19344702 0.94300002 1.2338645e-38
-0.096723504 0.19758049 0.94300002 1.418725e-38
-0.094243415 0.19840717 0.94300002 1.4000727e-38
-0.090109937 0.19840717 0.94300002 1.6763326e-38
-0.085976452 0.19840717 0.94300002 1.5843903e-38
-0.081842966 0.19840717 0.94300002 1.5015587e-38
-0.077709489 0.19840719 0.94300002 1.418618e-38
-0.074678272 0.19868276 0.94300002 1.3725945e-38
-0.07026922 0.19923389 0.94300002 1.2527769e-38
-0.066962428 0.19923389 0.94300002 1.169873e-38
-0.060348857 0.19923389 0.94300002 1.0683149e-38
-0.057868764 0.19923389 0.94300002 1.0498755e-38
-0.053735282 0.19923389 0.94300002 1.1513627e-38
-0.049601801 0.19923389 0.94300002 1.2805437e-38
-0.04629501 0.19923389 0.94300002 1.3542989e-38
-0.042161532 0.19923389 0.94300002 1.3817403e-38
-0.038854741 0.19923389 0.94300002 1.446134e-38
0.042988226 0.19840719 0.94300002 1.4090006e-38
-0.073576003 0.20088728 0.94300002 1.3540823e-38
-0.069938533 0.20154865 0.94300002 1.179021e-38
-0.066135734 0.20088728 0.94300002 1.1883131e-38
-0.062002249 0.20088729 0.94300002 1.1422509e-38
-0.057868764 0.20088728 0.94300002 1.0500924e-38
-0.053735286 0.20171398 0.94300002 1.0869344e-38
-0.049601801 0.20171398 0.94300002 1.1973878e-38
-0.04629501 0.20171398 0.94300002 1.280219e-38
-0.042574875 0.20130062 0.94300002 1.4092194e-38
-0.038028046 0.20088728 0.94300002 1.4460276e-38
-0.034307908 0.20130062 0.94300002 1.4277312e-38
-0.02976108 0.20171398 0.94300002 1.5291459e-38
-0.026454292 0.20254068 0.94300002 1.4739367e-38
-0.023147505 0.20254068 0.94300002 1.5201436e-38
-0.01488054 0.20254068 0.94300002 1.3081308e-38
0.034721259 0.20254068 0.94300002 1.5198157e-38
0.038028046 0.20254068 0.94300002 1.5656989e-38
0.041059271 0.20143841 0.94300002 1.473572e-38
-0.052908584 0.20419407 0.94300002 1.0776785e-38
-0.049601801 0.20419407 0.94300002 1.1328523e-38
-0.04629501 0.20419407 0.94300002 1.1789498e-38
-0.028934384 0.20419407 0.94300002 1.5383665e-38
-0.026454292 0.20419407 0.94300002 1.483049e-38
-0.022320811 0.20474522 0.94300002 1.4462433e-38
-0.01791176 0.20529634 0.94300002 1.3541207e-38
-0.014053843 0.20419407 0.94300002 1.2527785e-38
-0.0099203596 0.20419407 0.94300002 1.2988757e-38
-0.0057868767 0.20529634 0.94300002 1.3173143e-38
-0.0016533933 0.20584747 0.94300002 1.2437736e-38
0.0016533933 0.20584747 0.94300002 1.2436644e-38
0.0057868771 0.20584747 0.94300002 1.2528089e-38
0.010195926 0.20639861 0.94300002 1.317132e-38
0.013723165 0.20683952 0.94300002 1.289582e-38
0.019014023 0.20750086 0.94300002 1.2895061e-38
0.022320811 0.20639861 0.94300002 1.2159697e-38
0.026454292 0.20502079 0.94300002 1.3817764e-38
0.02976108 0.20502077 0.94300002 1.4645361e-38
0.033563886 0.20485544 0.94300002 1.510452e-38
0.038028046 0.20419407 0.94300002 1.4551358e-38
0.015707236 0.20915426 0.94300002 1.2066421e-38
0.01736063 0.20915426 0.94300002 1.2341184e-38
-0.166216 0.14710116 0.94800001 1.5285344e-38
-0.16172817 0.1464363 0.94800007 1.7962216e-38
-0.15873627 0.14710116 0.94800001 1.9439196e-38
-0.16598222 0.15021273 0.94666666 8.2824278e-39
-0.16183266 0.15021272 0.9466666 1.7499076e-38
-0.15773833 0.15026562 0.94700003 1.8790933e-38
-0.15524802 0.15109612 0.94700003 1.777748e-38
-0.16586533 0.15342543 0.94599998 3.3979134e-39
-0.15308762 0.15253358 0.94733334 1.6393457e-38
-0.15176678 0.15425475 0.94599998 1.6668979e-38
-0.1502668 0.15773773 0.94700003 1.6301999e-38
0.074963413 0.16239302 0.94800007 1.4831584e-38
0.077290438 0.16206059 0.94800007 1.1148441e-38
0.074757308 0.16612789 0.94749999 1.53833e-38
0.077208906 0.16603979 0.94700003 1.1609391e-38
-0.14198619 0.17021635 0.9471429 1.6300513e-38
0.07435035 0.17016549 0.94685715 1.5198904e-38
0.077127382 0.17001197 0.94599998 1.1424289e-38
-0.13781375 0.17351161 0.94700003 1.6116493e-38
-0.13546604 0.17535788 0.94800001 1.5565475e-38
0.063993156 0.17535788 0.94800001 1.2061692e-38
0.066450894 0.1744343 0.94749999 1.1140812e-38
0.069736779 0.17351133 0.94699997 1.473791e-38
0.072202265 0.17345026 0.94666666 1.6028682e-38
-0.13396552 0.17779185 0.94680005 1.5473651e-38
-0.12951258 0.17932303 0.94700003 1.2706689e-38
0.063543864 0.17858708 0.94749999 1.1785116e-38
0.066207968 0.17804818 0.94639999 1.1047547e-38
0.068834111 0.17664658 0.94599998 1.6579999e-38
-0.12854561 0.18162253 0.94599998 1.3541159e-38
-0.12627716 0.18203036 0.94640011 1.3907774e-38
-0.12251899 0.18315625 0.94749999 1.6025764e-38
0.061987638 0.18209097 0.94700003 1.132126e-38
-0.12522832 0.18576916 0.94599998 1.3998536e-38
-0.12199634 0.1858995 0.94666672 1.5105239e-38
-0.11829038 0.18643895 0.94800007 1.6211583e-38
-0.1121958 0.18699299 0.94800001 1.9621397e-38
-0.11053363 0.18699299 0.94800001 1.8791638e-38
0.055564884 0.18659848 0.94599998 1.289219e-38
0.057816751 0.18562305 0.94666672 1.1048961e-38
0.060540844 0.18493983 0.94599998 9.3877216e-39
-0.12108169 0.18825714 0.94599998 1.5288926e-38
-0.11776438 0.18825714 0.94599998 1.6117216e-38
-0.11404487 0.18907981 0.94680005 1.8605062e-38
-0.11015097 0.19022262 0.94650006 1.9161127e-38
-0.10622862 0.19004846 0.94666672 1.7135345e-38
-0.10207906 0.19004847 0.94666672 1.5384727e-38
-0.098109163 0.19040744 0.94680005 1.4460261e-38
-0.093812972 0.19094589 0.94700003 1.6119047e-38
-0.089661956 0.19094589 0.94700003 1.5475496e-38
-0.086386293 0.19104715 0.94749999 1.5107794e-38
-0.083107993 0.19197948 0.94800001 1.5661659e-38
-0.073966116 0.1919795 0.94800007 1.4558228e-38
0.047371559 0.19197948 0.94800001 1.4460257e-38
0.050106175 0.19129042 0.94733334 1.1508888e-38
0.053740758 0.18985815 0.94675004 1.2521964e-38
0.05722354 0.18825714 0.94599998 1.1786157e-38
-0.10532448 0.1932331 0.94599998 1.7503749e-38
-0.10034852 0.1932331 0.94599998 1.5476914e-38
-0.097584099 0.193786 0.94599998 1.3997858e-38
-0.093713909 0.19406244 0.94600004 1.5381138e-38
-0.089567274 0.1932331 0.94599998 1.5474772e-38
-0.086249962 0.19406244 0.94599998 1.5843555e-38
-0.082188964 0.19426727 0.94700003 1.4552822e-38
-0.078121513 0.19447273 0.94800001 1.3912491e-38
-0.073913515 0.19433537 0.94733334 1.4651142e-38
-0.069810718 0.19447272 0.94800001 1.2623558e-38
-0.066486396 0.19447272 0.94800001 1.0962967e-38
-0.062331002 0.19447273 0.94800007 1.1512911e-38
-0.058175601 0.19447272 0.94800001 1.224902e-38
-0.053982794 0.19433537 0.94733334 1.2801477e-38
-0.049838059 0.1943697 0.94749999 1.4276954e-38
-0.045709398 0.1953038 0.94800007 1.54737e-38
-0.042385079 0.1953038 0.94800001 1.639676e-38
0.041553997 0.1953038 0.94800001 1.5013059e-38
0.045692742 0.19440405 0.94766665 1.436805e-38
0.04948315 0.193786 0.94599998 1.0773127e-38
-0.082103342 0.19655041 0.94599998 1.464537e-38
-0.077956699 0.19655041 0.94599998 1.4463851e-38
-0.073478341 0.19721387 0.94600004 1.4094006e-38
-0.069663435 0.19737974 0.94599998 1.2437369e-38
-0.066180266 0.19787733 0.94600004 1.1238118e-38
-0.062423266 0.19805369 0.94625002 1.1144129e-38
-0.058052868 0.19737974 0.94599998 1.0866816e-38
-0.053906228 0.19737974 0.94600004 1.1973166e-38
-0.049759597 0.19737974 0.94599998 1.3265327e-38
-0.046442293 0.19737974 0.94599998 1.4002158e-38
-0.042295657 0.19737975 0.94600004 1.5197826e-38
-0.037983157 0.19787733 0.94600004 1.5107075e-38
-0.034026355 0.19834757 0.94666672 1.4922312e-38
-0.030046871 0.19870771 0.94680005 1.6120147e-38
-0.025727829 0.19917807 0.94666672 1.5107437e-38
-0.021853548 0.19890164 0.94666672 1.4646831e-38
-0.014927879 0.19986771 0.94599998 1.5289671e-38
0.029918879 0.19862811 0.94800001 1.4000365e-38
0.034038335 0.19924793 0.94699997 1.4646076e-38
0.038624614 0.19852248 0.94749999 1.4828692e-38
0.041771993 0.19779471 0.94666672 1.4735746e-38
0.045612965 0.19655041 0.94599998 1.3257379e-38
-0.029026432 0.20152636 0.94599998 1.5566962e-38
-0.025709126 0.20152637 0.94599998 1.5107428e-38
-0.021158786 0.20163199 0.94649994 1.455572e-38
-0.018258044 0.20166723 0.94666666 1.400146e-38
-0.013440351 0.20161088 0.94639999 1.4091854e-38
-0.010122343 0.20194261 0.94639999 1.4276603e-38
-0.0056016808 0.2018926 0.94675004 1.4183684e-38
-0.001660991 0.20180926 0.94733334 1.4092196e-38
0.00166216 0.20195244 0.94800007 1.4644284e-38
0.0058152219 0.20185699 0.94755554 1.5290375e-38
0.0099729598 0.20195244 0.94800007 1.427732e-38
0.014128361 0.20195243 0.94800007 1.4000372e-38
0.018117545 0.20228486 0.94800007 1.3356792e-38
0.021596245 0.20267612 0.94749999 1.2804701e-38
0.025950868 0.20199913 0.94725001 1.2527028e-38
0.029876798 0.20166723 0.94666666 1.455389e-38
0.033587724 0.20194101 0.94599998 1.501485e-38
0.037898883 0.20111434 0.94666666 1.5104534e-38
-0.020733165 0.20484369 0.94599998 1.4462797e-38
-0.019074513 0.20484369 0.94599998 1.3542288e-38
-0.0049759597 0.20484369 0.94599998 1.3816352e-38
-0.0016586533 0.20484369 0.94599998 1.3078789e-38
0.0016586533 0.20484369 0.94599998 1.3078065e-38
0.0058052866 0.20484369 0.94599998 1.3538668e-38
0.0099519193 0.20484369 0.94599998 1.3355351e-38
0.014513215 0.20525834 0.94599998 1.3264599e-38
0.018245187 0.20567301 0.94599998 1.2712843e-38
0.021286048 0.20539658 0.94599998 1.1883836e-38
0.024050472 0.20484369 0.94599998 1.2529548e-38
0.017415859 0.20816098 0.94599998 1.2895061e-38
-0.16965996 0.14631611 0.95099998 5.5147933e-39
-0.16632514 0.14548239 0.95099998 1.7033804e-38
-0.15840489 0.14673296 0.95099998 1.7317957e-38
-0.17007682 0.14923407 0.95099998 2.1122164e-39
-0.15507005 0.15006778 0.95099998 1.639383e-38
-0.1509015 0.15590376 0.95099998 1.6668992e-38
-0.14923407 0.15923859 0.95099998 1.6392015e-38
-0.14923407 0.16173974 0.95099998 1.648457e-38
-0.14756666 0.16173974 0.95099998 1.6115787e-38
0.074200183 0.16090602 0.95099998 1.704502e-38
-0.14623274 0.16624177 0.95100003 1.593139e-38
-0.1425644 0.1675757 0.95099998 1.6298703e-38
0.072532766 0.16590828 0.95099998 1.8515424e-38
-0.14089698 0.16924311 0.95099998 1.6484525e-38
-0.13922957 0.17091054 0.95099998 1.5842081e-38
0.070309542 0.17035472 0.95099998 1.3446821e-38
0.072532766 0.16924311 0.95099998 1.7870075e-38
-0.13756214 0.17257796 0.95099998 1.6301968e-38
-0.13506101 0.17507908 0.95099998 1.5104506e-38
0.062528245 0.1759128 0.95099998 1.2152514e-38
0.065863088 0.17313378 0.95099998 1.1693987e-38
-0.13255988 0.17758021 0.95099998 1.4090383e-38
-0.12922505 0.17924763 0.95099998 1.2798137e-38
0.061694533 0.17841393 0.95099998 1.150709e-38
-0.12505649 0.18091506 0.95099998 1.5195655e-38
-0.12172165 0.18258248 0.95099998 1.6762201e-38
-0.11922053 0.18258248 0.95099998 1.7589107e-38
0.060860824 0.18091506 0.95099998 1.1137924e-38
-0.11810892 0.18480569 0.95099998 1.7407588e-38
-0.11477407 0.18619522 0.95100009 1.9067474e-38
-0.10977181 0.18647313 0.95099998 1.8148421e-38
-0.10629801 0.18716788 0.95099998 1.575421e-38
0.054191142 0.18675104 0.95099998 1.2246104e-38
0.058359694 0.18424989 0.95099998 1.1414883e-38
-0.097544067 0.18925217 0.95099998 1.5843541e-38
-0.094209224 0.18925218 0.95099998 1.6120473e-38
-0.090040669 0.18925217 0.95099998 1.5476565e-38
-0.085455269 0.18966901 0.95099998 1.6122305e-38
-0.081703573 0.19091958 0.95099998 1.4927385e-38
-0.078368738 0.19091958 0.95099998 1.2435572e-38
-0.074200183 0.19091958 0.95099998 1.3725602e-38
-0.070031635 0.19091958 0.95099998 1.2346277e-38
-0.067530505 0.19091958 0.95099998 1.0687465e-38
0.050022595 0.19008587 0.95099998 1.150855e-38
-0.080869861 0.192587 0.95099998 1.3080524e-38
-0.078368738 0.192587 0.95099998 1.3543009e-38
-0.070031635 0.192587 0.95099998 1.2438819e-38
-0.065863088 0.192587 0.95099998 1.0869345e-38
-0.061694533 0.192587 0.95099998 1.2433794e-38
-0.059193403 0.192587 0.95099998 1.2713563e-38
-0.046687756 0.19425441 0.95099998 1.5843179e-38
-0.040851787 0.19592184 0.95099998 1.6120175e-38
-0.038350657 0.19592184 0.95099998 1.5291819e-38
-0.033765253 0.19550498 0.95099998 1.5476567e-38
-0.030013558 0.19508812 0.95099998 1.5107439e-38
-0.026261862 0.19550498 0.95099998 1.4094364e-38
-0.022510169 0.19592184 0.95099998 1.4003617e-38
-0.0050022597 0.19592184 0.95099998 1.5199974e-38
-0.0016674199 0.19592184 0.95099998 1.6028661e-38
0.00083370996 0.19592184 0.95099998 1.6672917e-38
0.035849527 0.19592184 0.95099998 1.4738996e-38
0.038350657 0.19592184 0.95099998 1.4645374e-38
0.041685499 0.19425441 0.95099998 1.5657705e-38
0.045020338 0.192587 0.95099998 1.5843141e-38
-0.029179849 0.19758925 0.95099998 1.5661343e-38
-0.025845006 0.19758925 0.95099998 1.4555701e-38
-0.022510169 0.19758925 0.95099998 1.4553914e-38
-0.01834162 0.19925669 0.95099998 1.4831197e-38
-0.014173068 0.1992567 0.95099998 1.501487e-38
-0.010838229 0.19925669 0.95099998 1.4922314e-38
-0.0050022597 0.19842297 0.95099998 1.5291447e-38
-0.0016674199 0.19842297 0.95099998 1.5474763e-38
0.0016674199 0.19842297 0.95099998 1.5751698e-38
0.0054191146 0.19883984 0.95099998 1.5936459e-38
0.010004519 0.19925669 0.95099998 1.5199615e-38
0.014173068 0.1992567 0.95099998 1.5014865e-38
0.017507909 0.19925669 0.95099998 1.4001078e-38
0.030847268 0.19758925 0.95099998 1.2985499e-38
0.034182109 0.19758925 0.95099998 1.4737927e-38
0.037516948 0.19758925 0.95099998 1.4552452e-38
-0.0091708088 0.2009241 0.95099998 1.5288945e-38
-0.0075033898 0.2009241 0.95099998 1.5104554e-38
0.019175328 0.2009241 0.95099998 1.335608e-38
0.021676458 0.2009241 0.95099998 1.2804345e-38
0.024177589 0.2009241 0.95099998 1.243555e-38
-0.18102816 0.13493302 0.95599997 2.4867695e-39
-0.17851387 0.13493302 0.95599997 0
-0.18102814 0.1374473 0.95599997 2.3960102e-39
-0.17851387 0.1374473 0.95599997 2.0257913e-39
-0.16929483 0.13996157 0.95599997 1.7314674e-38
-0.16678056 0.13996157 0.95599997 1.8330287e-38
-0.17348531 0.14331396 0.95599997 4.4081038e-39
-0.16995615 0.14232653 0.95500004 1.4544884e-38
-0.16559532 0.14217779 0.954 1.8882725e-38
-0.16275549 0.14265528 0.95533335 1.851289e-38
-0.17348531 0.14499015 0.95599997 1.4693679e-39
-0.17144969 0.14552315 0.954 7.3468397e-40
-0.16559532 0.1446868 0.954 1.7404375e-38
-0.16152525 0.14478794 0.95466661 1.8326701e-38
-0.15806825 0.14635949 0.954 1.5933924e-38
-0.15639557 0.14803217 0.954 1.6116856e-38
-0.15404698 0.15069987 0.95499998 1.6116854e-38
-0.1515362 0.15404698 0.95499998 1.6668957e-38
0.07375221 0.15504727 0.95599997 1.9069322e-38
-0.1491473 0.15806827 0.954 1.6484217e-38
0.073826201 0.15786557 0.95479995 1.7504168e-38
0.076106936 0.15806827 0.954 1.354083e-38
-0.14567539 0.16158164 0.95499992 1.6944446e-38
-0.14275524 0.16286945 0.95600003 1.6486019e-38
0.067885555 0.16342819 0.95599997 1.049476e-38
0.070567451 0.16208725 0.95599997 1.4089298e-38
0.072863273 0.16163804 0.95533335 1.943737e-38
-0.14524436 0.16531655 0.954 1.6207616e-38
-0.14225186 0.16568168 0.95449996 1.6302692e-38
-0.13996157 0.16678056 0.95599997 1.5935334e-38
0.067326829 0.16622184 0.95600003 1.1231203e-38
0.070325315 0.16576889 0.95499998 1.2798905e-38
-0.14134145 0.16810434 0.954 1.7128822e-38
-0.13793033 0.16974546 0.95499992 1.5195641e-38
-0.13437429 0.1712504 0.95600003 1.4181495e-38
0.062856995 0.17097104 0.95599997 1.4179725e-38
0.066162422 0.1700135 0.95533329 1.2340096e-38
0.070022285 0.16877937 0.95466661 1.2431202e-38
-0.13632341 0.17312238 0.954 1.5474002e-38
-0.13388407 0.17404944 0.95449996 1.4274763e-38
-0.13158065 0.17432341 0.95599997 1.5473323e-38
0.062856995 0.17432341 0.95599997 1.2428713e-38
0.064398177 0.17312238 0.954 1.243012e-38
-0.13297805 0.17646773 0.954 1.4181872e-38
-0.12976742 0.17748962 0.95500004 1.4735706e-38
-0.1264455 0.17869833 0.9551999 1.5748431e-38
-0.12236162 0.17851387 0.95599997 1.9250406e-38
-0.11783592 0.17784341 0.95599997 1.9898337e-38
-0.11398069 0.17851387 0.95599997 1.7964747e-38
-0.11062831 0.17851387 0.95599997 1.5200338e-38
0.059504624 0.17851387 0.95599997 1.077347e-38
0.061052814 0.17730406 0.954 1.0493317e-38
-0.1248759 0.18019006 0.95599997 1.5933592e-38
-0.12223363 0.18083793 0.95499992 1.8051855e-38
-0.11780755 0.18141805 0.95474994 1.9711048e-38
-0.11390121 0.18173826 0.95533335 1.9345505e-38
-0.11026913 0.18210571 0.95599997 1.6582906e-38
-0.10559975 0.18354243 0.95599997 1.3633371e-38
-0.10224738 0.18354243 0.95599997 1.4736845e-38
-0.098895006 0.18354243 0.95599997 1.5843188e-38
-0.077942669 0.18270433 0.95599997 1.1608327e-38
-0.07375221 0.18270434 0.95599997 1.1145192e-38
0.05363797 0.18354243 0.95599997 1.2707096e-38
0.058346253 0.18229699 0.95533335 1.2154248e-38
-0.11374223 0.18483113 0.954 1.971358e-38
-0.11039688 0.18483113 0.954 1.713464e-38
-0.10596901 0.18565521 0.95480007 1.4923733e-38
-0.10214043 0.18586121 0.95499992 1.4459556e-38
-0.09798795 0.18592638 0.95533323 1.5752063e-38
-0.093866445 0.1860567 0.95599997 1.5106702e-38
-0.090514079 0.1860567 0.95599997 1.5384741e-38
-0.086323611 0.1868948 0.95600003 1.5201792e-38
-0.082133144 0.1860567 0.95599997 1.2621051e-38
-0.077942677 0.1860567 0.95599997 1.2252986e-38
-0.07375221 0.1860567 0.95599997 1.1330316e-38
-0.070399836 0.1860567 0.95599997 1.05924e-38
-0.066628411 0.18647575 0.95599997 1.1790926e-38
-0.062018901 0.18689479 0.95599997 1.2801496e-38
-0.058666527 0.18689479 0.95599997 1.4185845e-38
-0.045257039 0.18689479 0.95599997 1.6397105e-38
-0.041904662 0.18689479 0.95599997 1.6213403e-38
-0.029333265 0.18689479 0.95599997 1.4921964e-38
-0.02598089 0.1868948 0.95600003 1.4922332e-38
-0.022628518 0.18689479 0.95599997 1.4833713e-38
0.04651418 0.18647575 0.95599997 1.5197455e-38
0.05025886 0.18595897 0.95550001 1.2337965e-38
0.053283803 0.18551785 0.95466661 1.2612395e-38
0.056034777 0.18483113 0.954 1.3995666e-38
-0.10203347 0.18817648 0.954 1.3355373e-38
-0.097851776 0.18817648 0.954 1.5750593e-38
-0.093670078 0.18817648 0.954 1.6213409e-38
-0.090324715 0.18817648 0.954 1.5754605e-38
-0.086143017 0.18817648 0.954 1.5109955e-38
-0.082004711 0.18911144 0.95449996 1.4649722e-38
-0.077779613 0.18901281 0.954 1.2531735e-38
-0.073636055 0.18911144 0.95449996 1.1517583e-38
-0.070326194 0.18921009 0.95499998 1.1056608e-38
-0.065878645 0.1896894 0.95424998 1.1329955e-38
-0.061911076 0.18991493 0.95433331 1.2433782e-38
-0.057733953 0.18993683 0.95444447 1.335895e-38
-0.053563163 0.18998067 0.95466673 1.4740458e-38
-0.05023329 0.19004701 0.95500004 1.5385467e-38
-0.046030842 0.18998067 0.95466667 1.6769116e-38
-0.041860543 0.19004701 0.95500004 1.5935748e-38
-0.037903555 0.18993728 0.95549995 1.593611e-38
-0.033983454 0.19101198 0.95479995 1.510816e-38
-0.03015032 0.19011335 0.95533335 1.4738295e-38
-0.025968812 0.19015796 0.9555555 1.5199279e-38
-0.022197638 0.19056585 0.95550001 1.4831199e-38
-0.0058666533 0.19108528 0.95599997 1.4461711e-38
-0.0019555511 0.19136465 0.95600003 1.5291464e-38
0.0016761866 0.19192336 0.95599997 1.621163e-38
0.0050285598 0.19192336 0.95599997 1.658076e-38
0.034361824 0.19192336 0.95599997 1.3724138e-38
0.037714198 0.19108528 0.95599997 1.5013789e-38
0.041904662 0.19108528 0.95599997 1.6394909e-38
0.046051882 0.19006912 0.95511109 1.5657357e-38
0.04990162 0.18873405 0.954 1.1417778e-38
-0.056871116 0.19319452 0.954 1.1882387e-38
-0.053525757 0.19319452 0.954 1.354084e-38
-0.050180398 0.19319452 0.954 1.510886e-38
-0.045580529 0.19361269 0.954 1.6581811e-38
-0.041816995 0.19403087 0.954 1.6213421e-38
-0.038471639 0.19403087 0.954 1.4645742e-38
-0.034624476 0.1938636 0.954 1.5844976e-38
-0.03010824 0.19319452 0.954 1.4554616e-38
-0.025592003 0.1938636 0.954 1.4279467e-38
-0.021766756 0.19423425 0.95499998 1.4003956e-38
-0.018717417 0.19471702 0.95600003 1.4001444e-38
-0.014247585 0.19527572 0.95600003 1.4278393e-38
-0.0092190262 0.19527572 0.95599997 1.5935018e-38
-0.005865192 0.19436955 0.95566666 1.5751726e-38
-0.0016726798 0.19403087 0.954 1.6489285e-38
0.0016744332 0.19423339 0.95499992 1.6580409e-38
0.0058666533 0.19443765 0.95599997 1.584319e-38
0.01005712 0.19527572 0.95599997 1.6857333e-38
0.014666632 0.19485669 0.95599997 1.6950958e-38
0.018158689 0.19471702 0.95600003 1.4556045e-38
0.021790426 0.19527572 0.95599997 1.3544421e-38
0.02598089 0.19527572 0.95600003 1.2714661e-38
0.030171357 0.19443765 0.95599997 1.1884192e-38
0.034011509 0.19452356 0.95559996 1.3725581e-38
0.038000695 0.19402561 0.95480007 1.4922298e-38
0.041816995 0.19319452 0.954 1.5842101e-38
-0.020908499 0.19737622 0.954 1.3818147e-38
-0.018408684 0.19747923 0.95449996 1.4462409e-38
-0.014223332 0.1974449 0.95433331 1.4555346e-38
-0.0098810857 0.19812594 0.95520002 1.4738636e-38
-0.0075270599 0.19821256 0.954 1.5475483e-38
0.0025090198 0.19653989 0.954 1.5750962e-38
0.0061920718 0.19729136 0.9544 1.5936467e-38
0.010046599 0.19758223 0.95499998 1.6120857e-38
0.014217779 0.19737624 0.954 1.6120851e-38
0.018574813 0.19796044 0.9544 1.3449705e-38
0.021760035 0.19834992 0.95466673 1.2621027e-38
0.025944658 0.19834991 0.95466655 1.2619592e-38
0.029829461 0.19709747 0.954 1.2435572e-38
0.033453599 0.19653989 0.954 1.4186561e-38
-0.1841184 0.13115284 0.95899999 2.8573485e-39
-0.18187648 0.13143308 0.95899999 2.11798e-39
-0.17907406 0.13199356 0.95899999 0
-0.1841184 0.13451573 0.95899999 3.9629687e-39
-0.18159623 0.13367501 0.95899999 2.6718698e-39
-0.17823334 0.13451573 0.95899999 2.2958874e-39
-0.17739262 0.13787863 0.95899999 2.1122164e-39
-0.17571117 0.13787863 0.95899999 2.5728288e-39
-0.16982611 0.13871935 0.95899999 1.7133898e-38
-0.17402972 0.14208223 0.95899999 6.7039912e-39
-0.16057815 0.14376368 0.95899999 1.6943778e-38
-0.15721525 0.14712657 0.95899999 1.6392731e-38
-0.15553381 0.14880802 0.95899999 1.6300887e-38
-0.15217091 0.15217091 0.95899999 1.6578169e-38
-0.15048946 0.15553381 0.95899999 1.6300169e-38
0.071461476 0.15553381 0.95899999 1.5287485e-38
-0.14880802 0.15805598 0.95899999 1.6207993e-38
-0.14656609 0.15833622 0.95899999 1.6946239e-38
0.070116326 0.15822412 0.95900005 1.4274764e-38
-0.14208224 0.16225961 0.95899999 1.5381465e-38
0.065996781 0.16267997 0.95899999 1.0680921e-38
0.068659075 0.16113864 0.95899999 1.1138298e-38
-0.1404008 0.16562249 0.95899999 1.5198522e-38
-0.13815887 0.16674346 0.95899999 1.3814135e-38
0.063054249 0.16730393 0.95899999 1.3813054e-38
0.065296181 0.16618298 0.95899999 1.2799265e-38
-0.13535646 0.16898538 0.95899999 1.4918345e-38
0.062213525 0.16982611 0.95899999 1.2520902e-38
-0.12947139 0.17487045 0.95899999 1.5566562e-38
-0.12638874 0.17515069 0.95899999 1.7039162e-38
-0.12190487 0.17571118 0.95899999 2.0543326e-38
-0.11770125 0.17571117 0.95899999 1.8977466e-38
0.059691351 0.17487045 0.95899999 1.0311766e-38
0.061372798 0.17402974 0.95899999 1.076883e-38
-0.12526776 0.17739262 0.95899999 1.73161e-38
-0.12190487 0.17739263 0.95899999 1.9896499e-38
-0.11433837 0.17739262 0.95899999 1.7688165e-38
-0.1084533 0.17907406 0.95899999 1.3172414e-38
-0.10593113 0.17907406 0.95899999 1.3630134e-38
-0.10172752 0.17907406 0.95899999 1.6487463e-38
-0.098364621 0.17907406 0.95899999 1.5013788e-38
0.058009908 0.17823334 0.95899999 1.3077272e-38
-0.1084533 0.18159623 0.95899999 1.5108883e-38
-0.10593113 0.18159623 0.95899999 1.2711792e-38
-0.10172753 0.18159625 0.95900005 1.5842447e-38
-0.097804144 0.18187648 0.95899999 1.5843903e-38
-0.095001727 0.18243696 0.95899999 1.4370942e-38
-0.081550159 0.18243696 0.95899999 1.3357894e-38
-0.069780037 0.18243697 0.95899999 1.1975286e-38
0.047080502 0.18243696 0.95899999 1.4921584e-38
0.0504434 0.18243696 0.95899999 1.3078044e-38
0.054086532 0.18187648 0.95899999 1.2800721e-38
0.056888945 0.181316 0.95899999 1.3722664e-38
-0.096683174 0.1841184 0.95899999 1.529217e-38
-0.094161004 0.1841184 0.95899999 1.4278391e-38
-0.089957401 0.1846789 0.95899999 1.464754e-38
-0.085753776 0.18579985 0.95899999 1.2806869e-38
-0.082390882 0.1841184 0.95899999 1.2712895e-38
-0.069780037 0.18411842 0.95899999 1.1144496e-38
-0.065576419 0.18579985 0.95899999 1.1882399e-38
-0.062213525 0.18495913 0.95899999 1.307736e-38
-0.058009908 0.18636033 0.95899999 1.4277669e-38
-0.05380629 0.18748128 0.95899999 1.4646817e-38
-0.050163161 0.18692081 0.95899999 1.575244e-38
-0.046239786 0.18551962 0.95900005 1.5566614e-38
-0.042036165 0.18579985 0.95899999 1.5844272e-38
-0.037832547 0.18664059 0.95900005 1.5383649e-38
-0.033628933 0.18748128 0.95899999 1.483012e-38
-0.030266037 0.18579984 0.95899999 1.5105273e-38
-0.026398713 0.18512727 0.95900005 1.5198194e-38
-0.022699529 0.18579985 0.95899999 1.5202142e-38
-0.0042036166 0.18748128 0.95899999 1.5472964e-38
-0.0025221698 0.18748128 0.95899999 1.556588e-38
0.0050443397 0.18748128 0.95899999 1.6119785e-38
0.038252909 0.18706092 0.95899999 1.5197825e-38
0.042036168 0.18579984 0.95900005 1.6301647e-38
0.045903493 0.18479098 0.95900005 1.5565866e-38
0.0504434 0.1841184 0.95899999 1.3445389e-38
-0.033628933 0.18916273 0.95899999 1.4645751e-38
-0.021018082 0.19000345 0.95899999 1.4831197e-38
-0.018495914 0.19000345 0.95899999 1.529218e-38
-0.014292296 0.19084418 0.95899999 1.5566269e-38
-0.0058850627 0.18916273 0.95899999 1.4919797e-38
-0.0014012055 0.18972322 0.95899999 1.6027945e-38
0.0016814466 0.19000345 0.95899999 1.6027584e-38
0.0058850627 0.19000345 0.95900005 1.6120491e-38
0.010088679 0.19000345 0.95899999 1.6950248e-38
0.014292298 0.19000345 0.95900005 1.6765859e-38
0.018215673 0.1902837 0.95899999 1.593645e-38
0.021858806 0.19084418 0.95899999 1.4460279e-38
0.026903145 0.19084418 0.95899999 1.3358599e-38
0.030266037 0.19084418 0.95899999 1.2159695e-38
0.033628933 0.19000345 0.95899999 1.3172413e-38
0.037832551 0.18916273 0.95899999 1.4922318e-38
0.042036165 0.18916273 0.95899999 1.6026135e-38
-0.018215671 0.19308612 0.95899999 1.4645371e-38
-0.014292298 0.19336635 0.95900005 1.5199268e-38
-0.010256824 0.19387078 0.95900005 1.5199974e-38
0.0075665093 0.19252563 0.95899999 1.6767653e-38
0.010088679 0.19336635 0.95899999 1.6766218e-38
0.013956008 0.1931982 0.95900005 1.7503412e-38
0.018776154 0.19308612 0.95899999 1.5659875e-38
0.021858806 0.19336635 0.95899999 1.4185475e-38
0.026062425 0.19336635 0.95900005 1.326676e-38
0.030266037 0.19252563 0.95899999 1.225153e-38
0.03278821 0.19252563 0.95899999 1.3264258e-38
-0.18488637 0.12663361 0.963 1.9350222e-39
-0.18163452 0.12672187 0.96366662 6.8062664e-39
-0.17747238 0.1276111 0.96399999 1.7683396e-38
-0.18469438 0.12903306 0.96200001 2.3970864e-39
-0.18141432 0.1295218 0.96249998 3.2164018e-39
-0.17790477 0.13026109 0.96359998 1.3163716e-38
-0.17437367 0.13042814 0.96399999 1.7409802e-38
-0.17155665 0.13099153 0.96399999 1.5749555e-38
-0.17693554 0.13375583 0.96200001 1.1039331e-38
-0.17397158 0.13427787 0.96333331 1.7315362e-38
-0.17024818 0.13429129 0.96342856 1.7315778e-38
-0.16782731 0.13577989 0.96200001 1.7960826e-38
-0.17373079 0.13830994 0.96200001 1.3716187e-38
-0.16963033 0.13812527 0.96266669 1.8054404e-38
-0.16614616 0.13798645 0.96366662 1.6855185e-38
-0.17682308 0.14140224 0.96200007 7.3648604e-40
-0.17373079 0.14084001 0.96200001 1.0853874e-38
-0.16564089 0.1411328 0.96399999 1.9160394e-38
-0.16254218 0.14225963 0.96399999 1.620906e-38
-0.15972516 0.14282303 0.96399999 1.6484912e-38
-0.1584575 0.14620344 0.96399999 1.6668616e-38
0.07521449 0.14789365 0.96399999 1.0137168e-38
0.076904699 0.14789365 0.96399999 1.0137168e-38
-0.15398416 0.15060607 0.96333331 1.6668896e-38
0.074651085 0.15071069 0.96399999 1.4650793e-38
0.076904699 0.14958386 0.96399999 9.3992445e-39
-0.15035051 0.15372919 0.96349996 1.6760792e-38
-0.14789365 0.1538094 0.96399999 1.5935343e-38
0.071685031 0.15433365 0.96200001 1.8053993e-38
0.074215092 0.1534903 0.96200001 1.8428258e-38
-0.14927353 0.15602036 0.96200001 1.6761147e-38
-0.14568342 0.15750018 0.96280003 1.5565849e-38
-0.14197791 0.15972516 0.96399999 1.3537165e-38
0.06662491 0.15939379 0.96200001 9.3905564e-39
0.06887386 0.15658259 0.96200007 1.2061312e-38
-0.14159745 0.16186714 0.96333331 1.4644239e-38
-0.13944259 0.16226047 0.96399999 1.4828987e-38
0.064938203 0.16276719 0.96200001 1.2803241e-38
-0.13735647 0.1654035 0.96359998 1.4549896e-38
-0.13577989 0.16782731 0.96200001 1.5748812e-38
0.061978228 0.16567247 0.96320003 1.3718692e-38
-0.13358435 0.17006281 0.96320003 1.6208353e-38
-0.12992375 0.17013329 0.96359998 1.7222146e-38
-0.12612453 0.17029852 0.96371424 1.9158952e-38
-0.12169535 0.17155665 0.96399999 1.9990504e-38
-0.11916003 0.17155665 0.96399999 1.9438414e-38
0.059095219 0.17137869 0.963 1.1140833e-38
0.060815677 0.16893323 0.96349996 1.206098e-38
-0.13240646 0.17288743 0.96200001 1.6670043e-38
-0.12987641 0.17288743 0.96200001 1.6027554e-38
-0.12622188 0.17344968 0.96200007 1.8052582e-38
-0.12237039 0.1738506 0.96266669 2.0726998e-38
-0.1181922 0.1739105 0.96299994 1.9253331e-38
-0.11404936 0.17403148 0.96366662 1.566097e-38
-0.10986386 0.17409196 0.96399999 1.2897241e-38
-0.10648343 0.17493707 0.96399999 1.5846047e-38
-0.1022579 0.17493707 0.96399999 1.5292502e-38
-0.09803237 0.17493707 0.96399999 1.4279101e-38
0.057925221 0.17377847 0.96320003 1.2524098e-38
-0.11343101 0.17668252 0.96200001 1.7134647e-38
-0.10963593 0.17710419 0.96200001 1.2895836e-38
-0.10637297 0.17728741 0.963 1.5289996e-38
-0.10213669 0.17762266 0.96285713 1.584533e-38
-0.097781993 0.17783077 0.96320003 1.4094006e-38
-0.094337225 0.17797355 0.96366662 1.4003248e-38
-0.089581303 0.17747238 0.96399999 1.3634469e-38
-0.081046075 0.17897588 0.96299994 1.2713961e-38
-0.078594916 0.17831749 0.96399999 1.2437014e-38
-0.074369386 0.17831749 0.96399999 1.4001432e-38
-0.06845364 0.17831749 0.96399999 1.4921245e-38
-0.065918311 0.17831749 0.96399999 1.4827611e-38
-0.061692785 0.17831749 0.96399999 1.5473316e-38
0.054210257 0.17783077 0.96320003 1.4182559e-38
0.05706691 0.17682308 0.96200007 1.4275465e-38
-0.096985631 0.18132097 0.96200001 1.5292173e-38
-0.093240008 0.18153588 0.96314287 1.4187638e-38
-0.089581303 0.18169793 0.96399993 1.3450082e-38
-0.086141273 0.1815711 0.96333331 1.2803622e-38
-0.082549386 0.18147103 0.96279997 1.2897994e-38
-0.077709921 0.18075857 0.96349996 1.1884558e-38
-0.074292243 0.18066433 0.963 1.1698358e-38
-0.070094757 0.18072717 0.96333331 1.4737194e-38
-0.065872736 0.1815711 0.96333331 1.4093641e-38
-0.061871618 0.18139154 0.9634999 1.4277305e-38
-0.057794373 0.18183069 0.96342856 1.5198169e-38
-0.054255843 0.18203597 0.96399993 1.6212313e-38
-0.049624592 0.18181409 0.9634999 1.6396354e-38
-0.045604199 0.1815711 0.96333331 1.5291448e-38
-0.042226106 0.1815711 0.96333331 1.4554268e-38
-0.038002916 0.1824162 0.96333331 1.4739351e-38
-0.033769201 0.1823528 0.96299994 1.6304155e-38
-0.030392278 0.1823528 0.96299994 1.6301637e-38
-0.026389198 0.18176652 0.96324992 1.667222e-38
-0.021960936 0.18244791 0.96349996 1.5107416e-38
-0.013521707 0.18338814 0.96399999 1.6762612e-38
0.039129138 0.18269789 0.96333331 1.529108e-38
0.041915189 0.18257108 0.96266669 1.565771e-38
0.045589294 0.18235278 0.963 1.5381491e-38
0.049809571 0.18066435 0.963 1.4090376e-38
0.053186484 0.18066433 0.963 1.3074087e-38
-0.088552095 0.18469438 0.96200001 1.4371308e-38
-0.086022034 0.18469438 0.96200001 1.2343392e-38
-0.065781556 0.18469438 0.96200001 1.1974597e-38
-0.057769701 0.18511605 0.96200001 1.4185469e-38
-0.053974614 0.18553773 0.96200001 1.4646784e-38
-0.050179519 0.18511605 0.96200001 1.5660215e-38
-0.042167664 0.18469438 0.96200001 1.520142e-38
-0.037950899 0.18469438 0.96200007 1.4553907e-38
-0.033734135 0.18553774 0.96200001 1.5013435e-38
-0.031204073 0.18469438 0.96200001 1.5289298e-38
-0.024457246 0.18469438 0.96200001 1.5566611e-38
-0.021660682 0.1853846 0.96266669 1.4187633e-38
-0.017734382 0.18579432 0.96333331 1.5198894e-38
-0.013521707 0.18592346 0.96399999 1.6302723e-38
-0.01014128 0.18592346 0.96399999 1.620945e-38
-0.0059157461 0.18609248 0.96399993 1.5470809e-38
-0.0019719156 0.18620515 0.96399999 1.5842827e-38
0.0016875833 0.18657482 0.963 1.6120486e-38
0.0063290945 0.18605539 0.96250004 1.6397434e-38
0.010130759 0.18572971 0.963 1.6490357e-38
0.01350768 0.18572973 0.96299994 1.4923405e-38
0.017728828 0.18572973 0.963 1.5752077e-38
0.021949979 0.18572973 0.96299994 1.5660246e-38
0.026198309 0.18676858 0.96399999 1.3816694e-38
0.030423837 0.18676856 0.96399999 1.2250094e-38
0.033786297 0.1858266 0.96350002 1.2895116e-38
0.037628639 0.18544586 0.96239996 1.5105992e-38
-0.021083834 0.18806778 0.96200001 1.4464929e-38
-0.017288743 0.18848947 0.96200001 1.5567337e-38
-0.013493653 0.18891114 0.96200001 1.6210539e-38
-0.01012024 0.18975449 0.96200001 1.5472976e-38
-0.0067468267 0.18806778 0.96200001 1.4827243e-38
-0.00084335334 0.18806778 0.96200001 1.658039e-38
0.0016867067 0.18806778 0.96200001 1.5936097e-38
0.0075901798 0.18806778 0.96200001 1.6305248e-38
0.01012024 0.18806778 0.96200001 1.6950981e-38
0.013493653 0.18806778 0.96200001 1.6306686e-38
0.018132094 0.18848947 0.96200001 1.556838e-38
0.021927185 0.18891114 0.96200001 1.4829399e-38
0.02591026 0.18932845 0.96228576 1.3725947e-38
0.030360721 0.18891114 0.96200001 1.1882746e-38
0.033734135 0.18806778 0.96200001 1.3080215e-38
-0.18678463 0.12518245 0.96700001 2.4874715e-39
-0.18311112 0.12461729 0.96700001 3.7652553e-39
-0.17802469 0.12631276 0.96700001 1.7226107e-38
-0.17548148 0.12631276 0.96700001 1.5749561e-38
