# .PCD v0.7 - Point Cloud Data file format
VERSION 0.7
FIELDS x y z rgb
SIZE 4 4 4 4
TYPE F F F F
COUNT 1 1 1 1
WIDTH 1080
HEIGHT 1
VIEWPOINT 0 0 0 1 0 0 0
POINTS 1080
DATA ascii
-0.23415416 0.059482705 1.077 2.0358207e-38
-0.23132163 0.059482705 1.077 2.1466333e-38
0.03871097 0.058538534 1.077 1.5473656e-38
0.041543476 0.058538534 1.077 1.3632259e-38
0.045005437 0.058223814 1.077 1.096183e-38
-0.23415416 0.061371051 1.077 2.0264562e-38
-0.23006275 0.062000498 1.077 2.1189028e-38
-0.2266008 0.062315226 1.077 2.1005374e-38
-0.22282413 0.061371051 1.077 1.9714651e-38
-0.21810326 0.062000498 1.077 1.8148064e-38
-0.2130677 0.062629953 1.077 1.6488911e-38
-0.20992045 0.062629953 1.077 1.6583611e-38
-0.20582905 0.063259393 1.077 1.630812e-38
-0.19355485 0.063259393 1.077 1.7038835e-38
-0.19072235 0.063259393 1.077 1.796006e-38
-0.18694565 0.063259393 1.077 1.823882e-38
0.03871097 0.062315222 1.077 1.4551352e-38
0.041543476 0.062315222 1.077 1.4736448e-38
0.044375986 0.062315222 1.077 1.4000663e-38
-0.2294333 0.065147728 1.077 2.054437e-38
-0.22754496 0.065147728 1.077 2.137413e-38
-0.20866156 0.065147728 1.077 1.6489617e-38
-0.20582905 0.066091895 1.077 1.6213046e-38
-0.20205238 0.066091895 1.077 1.5292528e-38
-0.19827569 0.066091895 1.077 1.4554259e-38
-0.19449902 0.066091895 1.077 1.5565866e-38
-0.19072233 0.066091895 1.077 1.6579655e-38
-0.1855294 0.065619811 1.077 1.869941e-38
-0.18128064 0.065147728 1.077 1.906891e-38
-0.17750396 0.066091895 1.077 1.9805754e-38
-0.17372727 0.06703607 1.077 1.9896151e-38
-0.16995059 0.06703607 1.077 1.9618855e-38
-0.16617392 0.06703607 1.077 1.9067482e-38
-0.1633414 0.06703607 1.077 1.8423192e-38
0.034934286 0.066091895 1.077 1.3629418e-38
0.037766799 0.066091895 1.077 1.2892562e-38
0.041543476 0.066091895 1.077 1.1786576e-38
0.044375986 0.066091895 1.077 1.2525232e-38
-0.16711809 0.068924412 1.077 1.943482e-38
-0.15389971 0.068924412 1.077 1.8975288e-38
-0.14917885 0.068924412 1.077 1.8516104e-38
-0.14540218 0.068924412 1.077 1.6858381e-38
-0.14162549 0.068924412 1.077 1.7315416e-38
-0.13753411 0.06955386 1.077 1.6581094e-38
-0.13407214 0.06986858 1.077 1.6949155e-38
-0.13029546 0.06986858 1.077 1.7317929e-38
-0.12651879 0.06986858 1.077 1.7408308e-38
-0.1227421 0.06986858 1.077 1.7501238e-38
-0.11802125 0.069868587 1.0770001 1.7961144e-38
-0.1133004 0.06986858 1.077 1.7684551e-38
-0.10952371 0.070812747 1.077 1.7038838e-38
-0.10574704 0.070812747 1.077 1.7407263e-38
-0.10197036 0.070812747 1.077 1.7777832e-38
-0.098193675 0.070812747 1.077 1.8792334e-38
-0.094416991 0.06986858 1.077 1.8146248e-38
-0.091584489 0.070812747 1.077 1.8513599e-38
0.034304839 0.070183307 1.077 1.5750976e-38
0.037766799 0.06986858 1.077 1.4092548e-38
0.041228756 0.06955386 1.077 1.1694761e-38
-0.1227421 0.072701089 1.077 1.7226811e-38
-0.11802125 0.072701089 1.077 1.7316491e-38
-0.1133004 0.072701089 1.077 1.7316128e-38
-0.10952371 0.072701089 1.077 1.7131028e-38
-0.10574704 0.073645256 1.077 1.7131022e-38
-0.10228509 0.073330536 1.077 1.8237719e-38
-0.098193675 0.072701089 1.077 1.8423905e-38
-0.094416991 0.072701089 1.077 1.8515039e-38
-0.090640321 0.072701089 1.077 1.8422128e-38
-0.086391553 0.07411734 1.077 1.7407623e-38
-0.081198618 0.074589424 1.077 1.7683842e-38
-0.077421933 0.073645256 1.077 1.7777102e-38
-0.073645256 0.073645256 1.077 1.7869683e-38
-0.06986858 0.073645256 1.077 1.722427e-38
-0.066406623 0.073959976 1.077 1.6855865e-38
-0.062315222 0.074589424 1.077 1.7683104e-38
-0.058538534 0.074589424 1.077 1.7962211e-38
-0.054761861 0.074589424 1.077 1.8238073e-38
-0.050041012 0.074589424 1.077 1.8973839e-38
-0.046264332 0.074589424 1.077 1.8789082e-38
0.03021344 0.073645256 1.077 1.6396341e-38
0.033990115 0.073645256 1.077 1.630414e-38
0.037766799 0.073645256 1.077 1.58428e-38
0.040599309 0.072701089 1.077 1.4366971e-38
-0.077421933 0.076477766 1.077 1.7592359e-38
-0.074589424 0.076477766 1.077 1.7224663e-38
-0.066091895 0.076477766 1.077 1.7317567e-38
-0.054761861 0.076477766 1.077 1.8330272e-38
-0.04815267 0.076477766 1.077 1.8974545e-38
-0.045320161 0.076477766 1.077 1.8881994e-38
-0.041543476 0.076477766 1.077 1.8882002e-38
-0.037452079 0.077107213 1.077 1.9160393e-38
-0.033990115 0.076477766 1.077 1.6948072e-38
-0.030528164 0.077736661 1.077 1.7593442e-38
-0.026436759 0.078366108 1.077 1.8238083e-38
-0.02266008 0.078366108 1.077 1.8053686e-38
-0.0188834 0.078366108 1.077 1.7962211e-38
-0.0047208499 0.078366108 1.077 1.7871425e-38
-0.0018883399 0.078366108 1.077 1.7872163e-38
0.0018883399 0.078366108 1.077 1.7224663e-38
0.01416255 0.078366108 1.077 1.5382923e-38
0.01793923 0.078366116 1.077 1.3539026e-38
0.022974804 0.077736661 1.077 1.4184753e-38
0.026436759 0.077421933 1.077 1.501343e-38
0.030213438 0.076477766 1.077 1.6119034e-38
0.033675395 0.077107213 1.077 1.6579286e-38
0.037766799 0.076477766 1.077 1.6488177e-38
-0.016995061 0.081198618 1.077 1.8975638e-38
-0.01321838 0.082142793 1.077 1.879088e-38
-0.0094416998 0.081198618 1.077 1.7685638e-38
-0.0056650201 0.081198618 1.077 1.6302694e-38
-0.0018883399 0.081198618 1.077 1.6946183e-38
0.0018883399 0.081198618 1.077 1.6945551e-38
0.0056650201 0.081198618 1.077 1.7038828e-38
0.0094416998 0.081198618 1.077 1.6486041e-38
0.013218379 0.081198618 1.077 1.6211245e-38
0.017561562 0.081009783 1.077 1.3909609e-38
0.02266008 0.080254443 1.077 1.2619587e-38
0.0084975297 0.084031127 1.077 1.602757e-38
-0.28456426 0.005689567 1.082 1.6120152e-38
-0.28252512 0.0060104271 1.0826668 1.3355355e-38
-0.28144297 0.0092989774 1.0824 9.3005286e-39
-0.27887291 0.013279746 1.082 7.7310897e-39
-0.2782895 0.018268418 1.0825 1.1418495e-38
-0.27463862 0.01995644 1.084 1.1050082e-38
-0.27697581 0.022765279 1.082 1.3629744e-38
-0.27463862 0.02280736 1.084 1.2801067e-38
-0.27744186 0.026739035 1.0816001 1.4182559e-38
-0.27463862 0.026608584 1.084 1.3814855e-38
-0.27697581 0.029405152 1.082 1.3352093e-38
-0.27438352 0.030856036 1.0829999 1.5010521e-38
-0.27385172 0.033970483 1.0824001 1.4827225e-38
-0.2708374 0.035161342 1.084 1.6579997e-38
-0.27362522 0.0369252 1.08 1.6210841e-38
-0.27081499 0.038146224 1.0824001 1.7961856e-38
-0.26703617 0.038962573 1.084 1.8608714e-38
0.042130262 0.038329035 1.084 1.7870017e-38
0.045297951 0.038329035 1.084 1.8794522e-38
-0.26985621 0.041531559 1.0816001 1.8882762e-38
-0.26703617 0.041813493 1.084 1.8515809e-38
0.038962573 0.042763796 1.084 1.2063486e-38
0.041774042 0.041774042 1.0830001 1.2337536e-38
0.0451308 0.0413436 1.0800002 1.6117554e-38
-0.26983801 0.044499598 1.08 1.7960413e-38
-0.26637694 0.045502506 1.0813334 1.6948097e-38
-0.26323494 0.045614719 1.084 1.7684914e-38
0.030409813 0.046565026 1.084 1.5471874e-38
0.034527805 0.045931488 1.084 1.5289647e-38
0.037940379 0.045530558 1.082 1.4645702e-38
0.041659199 0.0454464 1.08 1.317058e-38
-0.26559317 0.049324773 1.082 1.7871834e-38
-0.26323494 0.050366253 1.084 1.7871091e-38
0.027558891 0.049415946 1.084 1.28929e-38
0.030351952 0.049324773 1.082 1.3445733e-38
0.034084801 0.049233597 1.08 1.4273706e-38
0.037872002 0.0492336 1.08 1.4734666e-38
0.0413436 0.048918001 1.0800002 1.4091455e-38
-0.26415721 0.052074 1.08 1.7870366e-38
-0.26164645 0.052833777 1.0826668 1.8238802e-38
-0.25721401 0.054598801 1.0800002 1.9436615e-38
-0.254058 0.054598801 1.0800002 2.0265293e-38
-0.25088096 0.054167476 1.084 2.0633352e-38
-0.2452212 0.055861197 1.08 2.0083391e-38
-0.24332759 0.055861197 1.08 1.9991196e-38
0.027558891 0.053217169 1.084 1.4646418e-38
0.030530443 0.053667426 1.0816001 1.5475109e-38
0.034084804 0.053967606 1.08 1.446025e-38
0.036925204 0.053967603 1.0800002 1.3538298e-38
-0.24137788 0.056068093 1.084 1.9805398e-38
-0.23808512 0.056911446 1.082 1.9989437e-38
-0.23429091 0.056911446 1.082 2.0359294e-38
-0.22969368 0.058512241 1.08 2.0729526e-38
-0.22575569 0.05880855 1.082 1.9897965e-38
-0.22155121 0.059648398 1.08 1.833207e-38
-0.2181655 0.059758857 1.082 1.8057688e-38
-0.21392421 0.059088498 1.0813334 1.7505566e-38
-0.21049291 0.059394162 1.084 1.7507363e-38
-0.20621653 0.059869315 1.084 1.5387605e-38
-0.19671348 0.059869315 1.084 1.8238076e-38
-0.19386256 0.059869315 1.084 1.8237361e-38
-0.19006133 0.059869315 1.084 1.9068909e-38
-0.1862601 0.059869315 1.084 1.8886321e-38
-0.18245888 0.059869315 1.084 1.7962207e-38
-0.17960794 0.059869315 1.084 1.9620268e-38
0.026798645 0.058348831 1.084 1.5105605e-38
0.030173464 0.058261868 1.0824001 1.5751685e-38
0.034084801 0.058701601 1.08 1.556728e-38
0.0369252 0.058701601 1.08 1.5935336e-38
-0.2168172 0.061542001 1.08 1.8518301e-38
-0.21492359 0.061542001 1.08 1.8702314e-38
-0.20924279 0.061542001 1.08 1.8150565e-38
-0.20640239 0.061542001 1.08 1.6217741e-38
-0.20219509 0.062345028 1.0808001 1.4372021e-38
-0.19824588 0.062602766 1.082 1.6488193e-38
-0.194094 0.062173203 1.0800002 1.7592005e-38
-0.19006133 0.061769929 1.084 1.9529541e-38
-0.18571541 0.062325157 1.0826668 1.8792696e-38
-0.18212223 0.062602766 1.082 1.8515025e-38
-0.17832801 0.062602766 1.082 1.9436616e-38
-0.17415789 0.062483188 1.0832001 1.9529534e-38
-0.16978928 0.062602766 1.082 1.9529528e-38
-0.16599508 0.062602758 1.082 1.9803958e-38
-0.162001 0.062863313 1.0832001 1.8882728e-38
-0.1577509 0.063670546 1.084 1.989898e-38
-0.15394968 0.063670546 1.084 1.8977419e-38
-0.15014845 0.063670546 1.084 1.8423545e-38
-0.14634722 0.062720239 1.084 1.8514315e-38
-0.142546 0.063670546 1.084 1.8144448e-38
-0.13969506 0.063670546 1.084 1.7960063e-38
-0.10928526 0.063670546 1.084 1.8055145e-38
-0.10738464 0.063670546 1.084 1.7501971e-38
0.023757666 0.063670546 1.084 1.6027573e-38
0.026608584 0.062720239 1.084 1.4921591e-38
0.030351954 0.062604517 1.082 1.4091827e-38
0.034084801 0.062488802 1.08 1.3536857e-38
0.0369252 0.062488802 1.08 1.4272991e-38
-0.1742112 0.065329202 1.08 1.989687e-38
-0.170424 0.065329202 1.08 1.9436252e-38
-0.16663679 0.065329202 1.08 1.8975641e-38
-0.16152409 0.066086642 1.08 1.8791232e-38
-0.15716881 0.066275999 1.08 1.9805392e-38
-0.1533816 0.066275999 1.08 1.87916e-38
-0.1495944 0.066275999 1.08 1.7961132e-38
-0.14580721 0.066275999 1.08 1.8054399e-38
-0.14228299 0.066396974 1.082 1.7592729e-38
-0.13848877 0.066396974 1.082 1.7499092e-38
-0.13382724 0.066438474 1.0826668 1.805369e-38
-0.1297116 0.067222796 1.08 1.7593413e-38
-0.12592441 0.067222796 1.0800002 1.7500524e-38
-0.12141307 0.067347281 1.082 1.8054053e-38
-0.11762061 0.066396974 1.082 1.7962211e-38
-0.1138264 0.066396974 1.082 1.777602e-38
-0.11003219 0.066396974 1.082 1.832884e-38
-0.10623797 0.066396974 1.082 1.8699063e-38
-0.10244375 0.066396974 1.082 1.7870029e-38
-0.098741598 0.066459216 1.0829999 1.777891e-38
-0.094320215 0.06623181 1.0824001 1.7133891e-38
-0.090194091 0.06693437 1.0829999 1.7776741e-38
-0.085527591 0.067471765 1.084 1.7131724e-38
-0.081726372 0.067471765 1.084 1.6025028e-38
-0.077925146 0.066521458 1.084 1.6853009e-38
-0.074123919 0.066521458 1.084 1.7959359e-38
-0.070639461 0.066838227 1.084 1.8513576e-38
-0.044664409 0.067471765 1.084 1.8516108e-38
-0.041813493 0.067471765 1.084 1.8055484e-38
-0.038012266 0.067471765 1.084 1.7041346e-38
-0.034211036 0.067471765 1.084 1.6578587e-38
-0.03136012 0.067471765 1.084 1.9250464e-38
0.023124129 0.066838227 1.084 1.6764761e-38
0.02655774 0.066398725 1.082 1.602684e-38
0.0302976 0.066275999 1.08 1.519745e-38
0.033137999 0.066275999 1.08 1.4275857e-38
-0.1098288 0.069116399 1.08 1.7684553e-38
-0.1060416 0.069116399 1.08 1.8146611e-38
-0.1022544 0.069116399 1.08 1.8054778e-38
-0.098467201 0.069116399 1.08 1.8146252e-38
-0.089567281 0.069873832 1.08 1.8605424e-38
-0.085369796 0.07019119 1.082 1.7590931e-38
-0.081501067 0.070127189 1.081 1.6947355e-38
-0.077637598 0.070063196 1.08 1.7039183e-38
-0.073850401 0.070063196 1.08 1.7776753e-38
-0.070063196 0.070063196 1.08 1.8974542e-38
-0.066459216 0.070256941 1.0830001 1.915751e-38
-0.062720239 0.070322692 1.084 1.9618869e-38
-0.057896234 0.070235029 1.0826668 1.9250427e-38
-0.053217169 0.070322692 1.084 1.9158225e-38
-0.049415946 0.070322692 1.084 2.0263488e-38
-0.045614719 0.070322692 1.084 2.0080533e-38
-0.041813493 0.070322692 1.084 1.8884162e-38
-0.038012266 0.070322692 1.084 1.7226098e-38
-0.034211036 0.070322692 1.084 1.6486737e-38
-0.030409813 0.070322692 1.084 1.7591644e-38
-0.026608584 0.071272999 1.084 1.6762233e-38
-0.02280736 0.071272999 1.084 1.7501607e-38
-0.018435949 0.070512757 1.084 1.7226109e-38
0.010453372 0.071272999 1.084 1.6484624e-38
0.013304293 0.071272999 1.084 1.7406551e-38
0.018055826 0.070322692 1.0840001 1.7410148e-38
0.022763526 0.070192941 1.082 1.6950235e-38
0.026510399 0.070063196 1.08 1.667364e-38
0.0302976 0.070063196 1.08 1.6026847e-38
0.033137999 0.069116399 1.08 1.6300561e-38
-0.085212007 0.072903603 1.08 1.7037403e-38
-0.081424803 0.072903603 1.08 1.7315769e-38
-0.065329202 0.072903603 1.08 1.694769e-38
-0.062488802 0.072903603 1.08 1.7776375e-38
-0.058701601 0.072903603 1.08 1.8054751e-38
-0.053967595 0.072903603 1.0800002 1.8052955e-38
-0.0492336 0.072903603 1.08 1.8789435e-38
-0.0451308 0.073534802 1.0800002 1.9158578e-38
-0.04169865 0.073917903 1.081 1.8606498e-38
-0.037872002 0.073850401 1.08 1.7870384e-38
-0.034084801 0.073850401 1.08 1.6303071e-38
-0.030324776 0.073917903 1.081 1.6855882e-38
-0.026559493 0.073985405 1.082 1.7222858e-38
-0.022745116 0.073917903 1.081 1.7961135e-38
-0.018009072 0.073941574 1.0813334 1.7226808e-38
-0.013304293 0.074123919 1.084 1.750232e-38
-0.0094951754 0.074054658 1.0829999 1.8698707e-38
-0.0056869364 0.073917903 1.081 1.8331716e-38
-0.0018936002 0.073850401 1.08 1.8148777e-38
0.00189623 0.073917903 1.0810001 1.6399588e-38
0.0056807999 0.073850401 1.08 1.5476197e-38
0.0094855335 0.073985405 1.082 1.4644648e-38
0.0132552 0.073850401 1.08 1.4367297e-38
0.0179892 0.073850408 1.08 1.584355e-38
0.0227232 0.073850401 1.08 1.6119398e-38
0.026510399 0.073850401 1.08 1.6395619e-38
-0.029350799 0.0766908 1.08 1.703918e-38
-0.026510399 0.0766908 1.08 1.7407248e-38
-0.0227232 0.0766908 1.08 1.8144808e-38
-0.017530704 0.077235207 1.081 1.7779262e-38
-0.01326835 0.077708609 1.081 1.6672934e-38
-0.0094679995 0.077637598 1.08 1.7408684e-38
-0.0059964 0.077322006 1.0800002 1.8056193e-38
-0.0018936001 0.0766908 1.08 1.7138561e-38
0.0018936001 0.0766908 1.08 1.5938967e-38
0.0056807999 0.077637598 1.08 1.6765124e-38
0.0094680004 0.077637598 1.08 1.5568055e-38
0.0129396 0.077321999 1.0800002 1.4276565e-38
0.0179892 0.076690808 1.0800002 1.3168079e-38
0.021776399 0.0766908 1.08 1.4275477e-38
-0.016095599 0.080477998 1.08 1.8606501e-38
-0.013255199 0.080477998 1.08 1.8237373e-38
-0.28206924 0.0028588101 1.087 1.4274803e-38
-0.28111631 0.0057176198 1.087 1.1050774e-38
-0.27921042 0.0066705565 1.087 7.0885524e-39
-0.27857515 0.0098470114 1.0870001 7.6406499e-39
-0.27730456 0.013341113 1.087 8.0998653e-39
-0.2753987 0.01429405 1.087 9.4821047e-39
-0.27730456 0.016199922 1.087 9.1136332e-39
-0.27476344 0.017470505 1.0870001 9.9448218e-39
-0.27349281 0.021917542 1.0870001 1.132705e-38
-0.27158695 0.022870479 1.087 1.1879142e-38
-0.27349281 0.026682226 1.087 1.3905987e-38
-0.270634 0.026682226 1.087 1.3813789e-38
-0.27349281 0.029541034 1.087 1.5566173e-38
-0.270634 0.030493973 1.087 1.58417e-38
-0.26682225 0.031446911 1.087 1.6393816e-38
-0.27031636 0.033988077 1.0870001 1.6947723e-38
-0.26682225 0.034305722 1.087 1.8515048e-38
-0.26396343 0.034305722 1.087 1.7962233e-38
0.039070401 0.035258658 1.087 1.9531023e-38
0.040976275 0.035258658 1.087 1.8701263e-38
-0.26968107 0.037164528 1.087 1.8423932e-38
-0.26650462 0.03779982 1.0870001 1.8516479e-38
-0.26253405 0.038593933 1.087 1.7686358e-38
0.038117465 0.038117465 1.087 1.4181826e-38
0.040976275 0.037164528 1.087 1.9068558e-38
-0.26586932 0.041929211 1.087 1.8514322e-38
-0.2620576 0.041929211 1.087 1.8421765e-38
0.030493973 0.042882148 1.087 1.547512e-38
0.034305722 0.042882148 1.087 1.4092545e-38
0.03779982 0.041611567 1.0870001 1.2154992e-38
-0.26110467 0.045740958 1.087 1.8792333e-38
-0.2572929 0.045740958 1.087 1.9252594e-38
0.027635163 0.045740958 1.087 1.5287823e-38
0.030493973 0.044788022 1.087 1.5565842e-38
0.033352785 0.044788022 1.087 1.5749879e-38
-0.2616764 0.049362119 1.087 1.8331356e-38
-0.2572929 0.049552705 1.087 1.9158955e-38
-0.25348115 0.050505642 1.087 2.0079101e-38
-0.2496694 0.050505642 1.087 1.9530959e-38
-0.23823416 0.050505642 1.087 2.1187616e-38
-0.23442242 0.050505642 1.087 2.082027e-38
0.025729289 0.050505642 1.087 1.409038e-38
-0.26015171 0.052411515 1.087 1.8976025e-38
-0.2572929 0.052411515 1.087 1.9896518e-38
-0.25348115 0.052411515 1.087 2.0356404e-38
-0.24935174 0.053046808 1.0870001 2.0542946e-38
-0.24585766 0.053364452 1.087 2.0084131e-38
-0.24204591 0.053364452 1.087 2.0635886e-38
-0.23823416 0.053364452 1.087 2.0819203e-38
-0.23442242 0.053364452 1.087 2.0911395e-38
-0.2309283 0.0536821 1.0870001 2.0729512e-38
-0.22679891 0.054317389 1.087 2.0545468e-38
-0.22203425 0.054317389 1.087 1.8518637e-38
-0.21695191 0.0536821 1.0870001 1.8610831e-38
-0.21377544 0.0536821 1.0870001 1.7504849e-38
-0.20964608 0.054317389 1.087 1.7321548e-38
0.025729289 0.053364452 1.087 1.5660921e-38
-0.23061067 0.056223262 1.087 2.0453288e-38
-0.22679891 0.056223262 1.087 1.9899023e-38
-0.22203422 0.057176199 1.087 1.8426066e-38
-0.21726955 0.057176195 1.087 1.8151312e-38
-0.21345779 0.056223262 1.087 1.7689975e-38
-0.20964608 0.057176195 1.087 1.6123009e-38
-0.20551667 0.057493843 1.0870001 1.5107438e-38
-0.20202258 0.057176195 1.087 1.4645015e-38
-0.19821081 0.057176195 1.087 1.7778564e-38
-0.19439909 0.057176195 1.087 1.9438077e-38
-0.19058733 0.057176195 1.087 1.8979617e-38
-0.18677558 0.057176195 1.087 1.8702672e-38
-0.18201089 0.057176199 1.087 1.9530627e-38
-0.17724621 0.057176195 1.087 1.8977453e-38
-0.17343447 0.057176195 1.087 1.8976723e-38
-0.16994035 0.057493843 1.0870001 1.8699776e-38
-0.16581097 0.058129132 1.087 1.8791223e-38
-0.16199923 0.058129132 1.087 1.8883092e-38
0.023823416 0.058129132 1.087 1.538075e-38
0.025729289 0.056223262 1.087 1.5844585e-38
-0.20488137 0.060035009 1.087 1.4647896e-38
-0.20202258 0.060035009 1.087 1.4553891e-38
-0.19916375 0.060035009 1.087 1.7318311e-38
-0.17724621 0.060035009 1.087 1.9529907e-38
-0.17343447 0.060035009 1.087 1.9438449e-38
-0.16962272 0.060035009 1.087 1.9068563e-38
-0.16581097 0.060035009 1.087 1.9620643e-38
-0.16199923 0.060035009 1.087 1.8606861e-38
-0.15818748 0.060987942 1.087 1.8421007e-38
-0.15437575 0.060987942 1.087 1.8608281e-38
-0.15056399 0.060987942 1.087 1.8423532e-38
-0.14675224 0.060035009 1.087 1.8052981e-38
-0.14198756 0.060987946 1.087 1.8144091e-38
-0.13722287 0.061940886 1.087 1.8330629e-38
-0.13360173 0.062322062 1.087 1.8515738e-38
-0.12959938 0.063846759 1.087 1.851501e-38
-0.12547001 0.063211471 1.0870001 1.8424985e-38
-0.12197588 0.062893823 1.087 1.8240603e-38
-0.11816415 0.062893823 1.087 1.7316854e-38
-0.1143524 0.062893823 1.087 1.750161e-38
-0.11085831 0.062576175 1.0870001 1.6949518e-38
-0.10641125 0.062576175 1.0870001 1.6487812e-38
-0.10196422 0.062893823 1.087 1.7316847e-38
-0.097199529 0.062893823 1.087 1.7317192e-38
-0.093387797 0.062893823 1.087 1.5752063e-38
-0.089893691 0.063211471 1.0870001 1.5750981e-38
-0.085764296 0.063846759 1.087 1.7038832e-38
-0.081952557 0.063846759 1.087 1.7038454e-38
-0.07814081 0.063846759 1.087 1.7866788e-38
-0.074329056 0.062893823 1.087 1.8605433e-38
-0.070834957 0.063211471 1.0870001 1.7593822e-38
-0.066705562 0.063846759 1.087 1.81484e-38
-0.063846759 0.063846759 1.087 1.860795e-38
-0.045740958 0.063846759 1.087 1.6307363e-38
-0.041929211 0.063846759 1.087 1.6305941e-38
-0.038117465 0.063846759 1.087 1.7225736e-38
-0.034305722 0.063846759 1.087 1.7317929e-38
0.017152859 0.063846759 1.087 1.7502309e-38
0.022394011 0.062417354 1.087 1.5934664e-38
-0.12959938 0.065752625 1.087 1.8606501e-38
-0.12578765 0.065752625 1.087 1.8424274e-38
-0.12197588 0.065752625 1.087 1.7964016e-38
-0.088623106 0.065752625 1.087 1.6486728e-38
-0.085764296 0.065752625 1.087 1.6394535e-38
-0.081952557 0.065752625 1.087 1.6668951e-38
-0.069564372 0.065752625 1.087 1.8881649e-38
-0.066705562 0.066705562 1.087 1.8700139e-38
-0.062322062 0.066896155 1.087 1.9619944e-38
-0.057176195 0.067658499 1.087 1.9342609e-38
-0.053046808 0.06702321 1.0870001 1.925185e-38
-0.049552705 0.066705562 1.087 1.8884162e-38
-0.046058606 0.066387922 1.0870001 1.7226819e-38
-0.041929211 0.065752625 1.087 1.6582164e-38
-0.038117465 0.065752625 1.087 1.7225735e-38
-0.034305722 0.065752625 1.087 1.7500884e-38
-0.030493973 0.066705562 1.087 1.8146625e-38
-0.026682226 0.067658499 1.087 1.6856268e-38
-0.022298718 0.066896155 1.087 1.6119059e-38
-0.017152859 0.066705562 1.087 1.7503053e-38
0.013341113 0.067658499 1.087 1.9068221e-38
0.017152859 0.066705562 1.087 1.7593805e-38
0.02064696 0.066387922 1.0870001 1.6579666e-38
-0.026682226 0.069564372 1.087 1.7317228e-38
-0.022870479 0.069564372 1.087 1.6488912e-38
-0.016199922 0.069564372 1.087 1.952883e-38
-0.013023468 0.070834957 1.0870001 1.8239155e-38
-0.0095293662 0.070517309 1.087 1.8883443e-38
-0.0060352655 0.070834957 1.0870001 1.778002e-38
-0.0019058734 0.071470246 1.087 1.6581504e-38
0.0019058734 0.071470246 1.087 1.5937889e-38
0.0057176198 0.071470246 1.087 1.4737181e-38
0.0092117209 0.070199668 1.0870001 1.7590574e-38
0.013341113 0.069564372 1.087 1.952885e-38
-0.28189218 -0.00095556665 1.09 1.5936839e-38
-0.27998102 -0.00095556665 1.09 1.6766599e-38
-0.28189218 0.00095556665 1.09 1.7685316e-38
-0.27998102 0.0019111333 1.09 1.4734338e-38
-0.27806988 0.0057333997 1.09 8.8356128e-39
-0.2767958 0.0092371441 1.09 8.7455528e-39
-0.27424765 0.0095556667 1.09 9.6682419e-39
-0.27615875 0.012422366 1.09 8.4689841e-39
-0.27424765 0.013377933 1.09 9.0235886e-39
-0.27424765 0.016244633 1.09 9.7611578e-39
0.0028666998 0.018155767 1.09 1.446498e-38
0.0047778334 0.018155767 1.09 1.4466722e-38
-0.27233651 0.0200669 1.09 9.7615264e-39
-0.26994756 0.022455817 1.09 1.0590938e-38
-0.26660311 0.023889165 1.09 1.1050097e-38
0.0028666998 0.0200669 1.09 1.5937201e-38
0.0060519218 0.020703945 1.09 1.5571241e-38
0.0086000999 0.021022467 1.09 1.4834087e-38
-0.26851422 0.026755866 1.09 1.3629755e-38
-0.26596606 0.027074387 1.09 1.3446081e-38
-0.26851422 0.029622566 1.09 1.5658374e-38
-0.265329 0.030259609 1.09 1.5933924e-38
-0.26278082 0.031533699 1.09 1.6025769e-38
0.026755866 0.031533699 1.09 1.6304487e-38
0.030578133 0.031533699 1.09 1.8884557e-38
-0.26182526 0.0344004 1.09 1.7319392e-38
-0.25895858 0.035355967 1.09 1.7413038e-38
0.023889165 0.0344004 1.09 1.1878399e-38
0.026755866 0.0344004 1.09 1.2615957e-38
0.030578133 0.0344004 1.09 1.3166223e-38
0.0344004 0.0344004 1.09 1.7406506e-38
0.037904143 0.034081876 1.09 1.8609049e-38
0.042363457 0.034081876 1.09 1.3916441e-38
-0.26182526 0.0372671 1.09 1.7503423e-38
-0.258003 0.038222667 1.09 1.8242413e-38
-0.25513628 0.039178234 1.09 1.8883458e-38
0.023889165 0.039178234 1.09 1.547727e-38
0.027074387 0.03854119 1.09 1.298729e-38
0.030578133 0.038222667 1.09 1.1511789e-38
0.0344004 0.038222667 1.09 1.1509967e-38
-0.258003 0.042044934 1.09 1.9252968e-38
-0.25449926 0.042363457 1.09 1.9529901e-38
-0.23602496 0.043000501 1.09 1.8704114e-38
-0.23411384 0.043000501 1.09 1.7781799e-38
0.022933599 0.042044934 1.09 1.5473644e-38
0.026755866 0.042044934 1.09 1.5842821e-38
0.030578133 0.041089367 1.09 1.4646074e-38
0.0344004 0.041089367 1.09 1.2709963e-38
-0.25418073 0.045867197 1.09 1.9989073e-38
-0.25067699 0.046185724 1.09 1.9897604e-38
-0.2465362 0.046822764 1.09 1.9897941e-38
-0.24271393 0.046822764 1.09 2.1278014e-38
-0.23793608 0.045867201 1.0900002 2.1003222e-38
-0.2334768 0.046185724 1.09 2.0544061e-38
0.022933599 0.045867201 1.09 1.4089647e-38
0.025800299 0.045867197 1.09 1.4919424e-38
-0.25418073 0.048733898 1.09 1.9896171e-38
-0.25035846 0.048733898 1.09 1.9253656e-38
-0.24653618 0.049689464 1.09 1.9713903e-38
-0.24271393 0.049689464 1.09 2.1002865e-38
-0.23793611 0.048733901 1.09 2.1371625e-38
-0.23283975 0.049370944 1.09 2.0820624e-38
-0.22933599 0.049689464 1.09 2.0268891e-38
-0.22583227 0.050007991 1.09 1.9162555e-38
-0.22169146 0.050645031 1.09 1.6764758e-38
-0.21755068 0.050007991 1.09 1.916185e-38
-0.21404693 0.049689464 1.09 1.8054442e-38
-0.21022466 0.050645031 1.09 1.7777843e-38
0.021978034 0.049689464 1.0900002 1.5564785e-38
0.025800299 0.048733898 1.09 1.3630111e-38
-0.22933599 0.052556165 1.09 2.0822404e-38
-0.22551373 0.052556165 1.09 1.9624234e-38
-0.22200999 0.053193212 1.09 1.6397419e-38
-0.21882476 0.052556165 1.09 1.8978175e-38
-0.21309136 0.052556165 1.09 1.8148064e-38
-0.21022466 0.052556165 1.09 1.7780356e-38
-0.20640239 0.053511731 1.09 1.5568034e-38
-0.20289867 0.053830259 1.09 1.6119047e-38
-0.19875786 0.053511731 1.09 1.8513605e-38
-0.19398004 0.053511731 1.0900002 1.8609409e-38
-0.18920219 0.053511731 1.09 1.7136078e-38
-0.18537992 0.053511731 1.09 1.8145886e-38
-0.18155766 0.054467298 1.09 1.8516852e-38
-0.17773539 0.054467298 1.09 1.8423556e-38
-0.17391312 0.054467298 1.09 1.9251502e-38
-0.17009085 0.054467298 1.09 1.9345503e-38
0.018155767 0.053511731 1.09 1.7221796e-38
0.021978034 0.053511731 1.0900002 1.6119388e-38
-0.20735797 0.056378435 1.09 1.5384384e-38
-0.1691353 0.056378435 1.09 1.8330993e-38
-0.16626859 0.056378435 1.09 1.952628e-38
-0.16244632 0.056378435 1.09 1.9526297e-38
-0.15862405 0.057334002 1.09 1.9158576e-38
-0.15480179 0.057334002 1.09 1.9617767e-38
-0.15002397 0.057334002 1.0900002 1.9527362e-38
-0.14524613 0.057334002 1.09 1.9528441e-38
-0.14142387 0.057334002 1.09 1.8422823e-38
-0.1376016 0.057334002 1.09 1.9068557e-38
-0.13377933 0.057334002 1.09 1.869977e-38
-0.12995706 0.058289569 1.09 1.8332071e-38
-0.12581629 0.057652526 1.09 1.6674717e-38
-0.12263106 0.057652526 1.09 1.5936784e-38
-0.11849026 0.058289569 1.09 1.7042401e-38
-0.114668 0.058289569 1.09 1.658036e-38
-0.11084574 0.058289569 1.09 1.6395265e-38
-0.10415677 0.058289569 1.09 1.5385383e-38
-0.10129007 0.058289569 1.09 1.6395961e-38
-0.097467802 0.058289569 1.09 1.6761517e-38
-0.093645535 0.058289569 1.09 1.6666804e-38
-0.089823268 0.058289569 1.09 1.7684902e-38
-0.042044934 0.058289569 1.09 1.5750989e-38
-0.039178234 0.058289569 1.09 1.538257e-38
0.010511233 0.058289569 1.09 1.7870385e-38
0.013377933 0.057334002 1.09 1.6304507e-38
0.0172002 0.057334002 1.09 1.5289289e-38
0.021595808 0.057142891 1.09 1.5565129e-38
-0.13282377 0.060200702 1.09 1.8607938e-38
-0.12995706 0.061156265 1.09 1.8516462e-38
-0.12645333 0.060837746 1.09 1.8241323e-38
-0.12231253 0.060200702 1.09 1.8242038e-38
-0.11849026 0.060200702 1.09 1.7041691e-38
-0.114668 0.060200702 1.09 1.66715e-38
-0.11084574 0.060200702 1.09 1.5935021e-38
-0.10606791 0.060200702 1.09 1.6213053e-38
-0.10129007 0.060200702 1.09 1.6856214e-38
-0.097467802 0.060200702 1.09 1.639346e-38
-0.093645535 0.060200702 1.09 1.5288903e-38
-0.089504749 0.060837746 1.09 1.6488897e-38
-0.086001001 0.061156265 1.09 1.7500161e-38
-0.082178734 0.061156265 1.09 1.8146245e-38
-0.078356467 0.061156265 1.09 1.8700118e-38
-0.0745342 0.060200702 1.09 1.8516441e-38
-0.070393413 0.060837746 1.09 1.722647e-38
-0.065934099 0.061156265 1.0900002 1.6950251e-38
-0.061156265 0.061156265 1.09 1.6028668e-38
-0.057334002 0.061156265 1.09 1.6581108e-38
-0.053511731 0.062111828 1.09 1.6396694e-38
-0.049689464 0.062111828 1.09 1.5198497e-38
-0.045548677 0.061474785 1.09 1.6305932e-38
-0.042044934 0.061156265 1.09 1.6581814e-38
-0.038222667 0.061156265 1.09 1.7964761e-38
-0.0344004 0.061156265 1.09 1.7044238e-38
-0.030578133 0.062111828 1.09 1.6120829e-38
-0.026755866 0.062111828 1.09 1.5657698e-38
-0.023889165 0.062111828 1.09 1.6026125e-38
-0.0172002 0.062111828 1.09 1.6301283e-38
-0.0057333997 0.062111828 1.09 1.8331735e-38
0.0028666998 0.062111828 1.09 1.786896e-38
0.0057333997 0.062111828 1.09 1.7499457e-38
0.0095556667 0.061156265 1.09 1.713211e-38
0.013377933 0.061156265 1.09 1.7131378e-38
0.0172002 0.061156265 1.09 1.7316132e-38
0.021022467 0.061156265 1.09 1.6301646e-38
-0.060837746 0.064660013 1.09 1.9160405e-38
-0.057334002 0.064978532 1.09 1.8607223e-38
-0.053830259 0.064660013 1.09 1.8423545e-38
-0.049689464 0.064022966 1.09 1.741154e-38
-0.030259609 0.064660013 1.09 1.6396704e-38
-0.026755866 0.064978532 1.09 1.4920506e-38
-0.02150025 0.064500749 1.09 1.6856257e-38
-0.0172002 0.064022966 1.09 1.6397423e-38
-0.013377934 0.065934099 1.0900002 1.6397438e-38
-0.0093645537 0.066316329 1.09 1.5199973e-38
-0.0057334001 0.065934099 1.0900002 1.5291451e-38
-0.00172002 0.066316329 1.09 1.5934987e-38
0.0019111333 0.065934099 1.0900002 1.8236303e-38
0.0057334001 0.065934099 1.0900002 1.9435886e-38
0.0095556676 0.065934099 1.0900002 1.8699774e-38
0.013377933 0.064978532 1.09 1.7963309e-38
-0.0143335 0.069756366 1.09 1.9898342e-38
-0.0047778334 0.069756366 1.09 1.6490363e-38
-0.0019111333 0.069756366 1.09 1.4647519e-38
0.0019111333 0.069756366 1.09 1.4552787e-38
0.0057333997 0.069756366 1.09 1.6119702e-38
-0.27813125 -0.00095907325 1.094 1.2985484e-38
-0.27525404 -0.00095907325 1.094 8.4700841e-39
-0.27813125 0.0019181466 1.094 1.1417111e-38
-0.27429497 0.0019181466 1.094 8.7455752e-39
-0.27717218 0.0047953664 1.094 1.0767747e-38
-0.27429497 0.0057544396 1.094 1.0498e-38
-0.2733359 0.0095907329 1.094 1.0682394e-38
-0.2733359 0.013427026 1.094 9.9455449e-39
-0.27141774 0.013427026 1.094 1.0314326e-38
-0.2733359 0.017263319 1.094 9.7611648e-39
-0.27141774 0.017263319 1.094 9.8544395e-39
-0.0019181466 0.018222392 1.094 1.7596668e-38
0.00095907325 0.018222392 1.094 1.5571688e-38
-0.2694996 0.021099612 1.094 9.6697077e-39
-0.26662236 0.022058684 1.094 1.0498032e-38
-0.0015984555 0.020779921 1.0940001 1.4827212e-38
0.0019181466 0.022058684 1.094 1.3998899e-38
0.0054347487 0.02333745 1.0940001 1.4001385e-38
0.0099104242 0.02333745 1.0940001 1.7317957e-38
-0.2656633 0.025894979 1.094 1.2524852e-38
0.00287722 0.025894979 1.094 1.2338277e-38
0.0060741305 0.026534362 1.0940001 1.215319e-38
0.0092710424 0.026534362 1.0940001 1.3073703e-38
0.013427025 0.026854051 1.094 1.4548097e-38
0.017263319 0.026854051 1.094 1.6578574e-38
0.020140538 0.027813125 1.094 1.7133564e-38
-0.2624664 0.030370653 1.0940001 1.6026848e-38
-0.25990885 0.030690344 1.094 1.6028305e-38
0.0067135128 0.02973127 1.094 1.2429459e-38
0.0099104242 0.030370653 1.0940001 1.1419567e-38
0.013427026 0.030690346 1.094 1.1879871e-38
0.017263319 0.030690346 1.094 1.2890026e-38
0.022058686 0.030690342 1.094 1.4547726e-38
-0.2586301 0.034206949 1.0940001 1.6213431e-38
0.013427026 0.035485711 1.094 1.3540077e-38
0.017263319 0.034526639 1.094 1.2801444e-38
0.02109961 0.034526639 1.094 1.1972757e-38
-0.25607255 0.037403859 1.094 1.8333514e-38
-0.25351506 0.038682625 1.0940001 1.8239525e-38
0.013427026 0.038362931 1.094 1.5843152e-38
0.017263319 0.038362931 1.094 1.5476171e-38
0.021675056 0.03817112 1.094 1.5014473e-38
0.025894979 0.037403859 1.094 1.3356019e-38
-0.25287566 0.041879535 1.0940001 1.9253321e-38
-0.24967876 0.042518914 1.0940001 1.9438067e-38
-0.24552275 0.042199224 1.094 1.9713919e-38
-0.24168646 0.042199224 1.094 1.9805772e-38
-0.23816988 0.041879535 1.0940001 1.8885622e-38
-0.23401389 0.042199224 1.094 1.7044957e-38
0.013427025 0.042199224 1.094 1.3996745e-38
0.017263319 0.042199224 1.094 1.5379681e-38
0.020140538 0.042199224 1.094 1.4920097e-38
-0.24935907 0.045076445 1.094 1.9714292e-38
-0.24552275 0.045076445 1.094 2.017346e-38
-0.24264553 0.045076445 1.094 2.0817389e-38
-0.23305482 0.045076445 1.094 1.907149e-38
-0.23049729 0.04635521 1.0940001 1.8148073e-38
-0.22634129 0.046994589 1.094 1.8054423e-38
-0.222505 0.046994589 1.094 1.8977466e-38
-0.2186687 0.046994589 1.094 1.7781089e-38
-0.21483241 0.046994589 1.094 1.6305599e-38
-0.2119552 0.046994589 1.094 1.6856969e-38
0.013427025 0.046035517 1.094 1.4920136e-38
0.017263319 0.046035517 1.094 1.3719818e-38
0.020140538 0.046035517 1.094 1.3352065e-38
-0.22538222 0.048912738 1.094 1.8239906e-38
-0.222505 0.048912738 1.094 1.7318313e-38
-0.21962778 0.048912738 1.094 1.9162587e-38
-0.20955752 0.049392272 1.094 1.842283e-38
-0.20524168 0.04987181 1.094 1.8701254e-38
-0.20108569 0.050191503 1.0940001 1.8239535e-38
-0.1975691 0.04987181 1.094 1.8146972e-38
-0.1937328 0.04987181 1.094 1.7134277e-38
-0.18989649 0.04987181 1.094 1.7318655e-38
-0.18606022 0.04987181 1.094 1.8238425e-38
-0.18222392 0.050830882 1.094 1.9436635e-38
-0.17934671 0.050830882 1.094 2.0818866e-38
0.010549806 0.04987181 1.094 1.6947351e-38
0.013427025 0.04987181 1.094 1.5659124e-38
0.017263319 0.04987181 1.094 1.5472237e-38
-0.20236446 0.05274903 1.094 1.7223606e-38
-0.18222392 0.05274903 1.094 1.8792014e-38
-0.17838764 0.05274903 1.094 1.8974583e-38
-0.17455134 0.05274903 1.094 1.9435558e-38
-0.17071505 0.05274903 1.094 1.971248e-38
-0.16591968 0.054667175 1.0940001 2.0723746e-38
-0.16112432 0.054667175 1.094 1.9341526e-38
-0.15728801 0.054667175 1.094 1.9894352e-38
-0.15345174 0.054667175 1.094 2.0632288e-38
-0.14961544 0.054667175 1.094 2.0266009e-38
-0.14577913 0.054667175 1.094 2.0451494e-38
-0.14194284 0.054667175 1.094 1.8515394e-38
-0.13810655 0.054667175 1.094 1.8331715e-38
-0.13427025 0.054667175 1.094 1.7963294e-38
-0.13043396 0.054667175 1.094 1.8053679e-38
-0.12659767 0.054667175 1.094 1.8514289e-38
-0.12276138 0.054667175 1.094 1.7039878e-38
0.0067135128 0.054667175 1.094 1.4831169e-38
0.0095907329 0.053708103 1.094 1.5841368e-38
0.013427025 0.053708103 1.094 1.5566208e-38
0.016304245 0.053708103 1.094 1.6115447e-38
-0.13043396 0.056585323 1.094 1.8515385e-38
-0.12755674 0.056585323 1.094 1.7408328e-38
-0.12180231 0.056585323 1.094 1.6578901e-38
-0.11796602 0.056585323 1.0940001 1.7777441e-38
-0.11317065 0.056585323 1.094 1.6670771e-38
-0.10933435 0.057544395 1.094 1.6302359e-38
-0.10581776 0.057224706 1.0940001 1.6027173e-38
-0.10166176 0.056585323 1.094 1.7224646e-38
-0.097825475 0.056585323 1.094 1.7040252e-38
-0.093989179 0.056585323 1.094 1.6854438e-38
-0.090152889 0.056585323 1.094 1.7870012e-38
-0.08663629 0.057864092 1.0940001 1.7134615e-38
-0.082480304 0.058503471 1.094 1.630558e-38
-0.078644007 0.058503471 1.094 1.6120078e-38
-0.074807718 0.058503471 1.094 1.6949854e-38
-0.070012353 0.058503471 1.0940001 1.6209436e-38
-0.065216981 0.058503471 1.094 1.5290015e-38
-0.061380692 0.058503471 1.094 1.4922317e-38
-0.057544395 0.058503471 1.094 1.6765503e-38
-0.053708103 0.058503471 1.094 1.7226849e-38
-0.04987181 0.058503471 1.094 1.6396724e-38
-0.046035517 0.058503471 1.094 1.6764775e-38
-0.041240152 0.056585323 1.094 1.5842841e-38
-0.038362931 0.057544395 1.094 1.538293e-38
-0.034526639 0.058503471 1.094 1.6214471e-38
-0.031649418 0.058503471 1.094 1.612299e-38
-0.025894979 0.058503471 1.094 1.6672564e-38
-0.023017759 0.058503471 1.094 1.7594171e-38
-0.017263319 0.058503471 1.094 1.7779302e-38
-0.0086316597 0.058503471 1.094 1.7319376e-38
-0.0057544396 0.058503471 1.094 1.6764759e-38
-0.0019181466 0.058503471 1.094 1.6854435e-38
0.0019181466 0.057544395 1.094 1.6855527e-38
0.0057544396 0.057544399 1.094 1.6858753e-38
0.0092710424 0.057224706 1.0940001 1.6948789e-38
-0.053708103 0.060421616 1.094 1.6580759e-38
-0.04987181 0.060421616 1.094 1.5197462e-38
-0.046994589 0.060421616 1.094 1.639635e-38
-0.030690344 0.060421616 1.094 1.6398147e-38
-0.026854053 0.060421616 1.094 1.5566243e-38
-0.021675056 0.061188877 1.094 1.6117976e-38
-0.017263319 0.060421616 1.094 1.6210183e-38
-0.013427026 0.062339764 1.094 1.5381124e-38
-0.0092710424 0.061700385 1.0940001 1.7040613e-38
-0.0057544396 0.060421616 1.094 1.85179e-38
-0.0019181466 0.061380692 1.094 1.8700161e-38
0.0015984555 0.061061002 1.0940001 1.8238446e-38
0.0057544396 0.060421616 1.094 1.7409413e-38
-0.010549806 0.064257905 1.094 1.48301e-38
-0.00287722 0.064257905 1.094 1.7131761e-38
-0.27600884 -0.0048085167 1.097 1.4371655e-38
-0.27312374 -0.0048085167 1.097 1.0683864e-38
-0.27793226 -0.0028851097 1.097 1.4277677e-38
-0.27312374 -0.0019234065 1.097 8.5644125e-39
-0.27216202 0.0019234065 1.097 8.9324734e-39
-0.27023861 0.0019234065 1.097 9.2090617e-39
-0.27216202 0.0057702195 1.097 1.0497968e-38
-0.27023861 0.0057702195 1.097 1.0313578e-38
-0.27216202 0.0096170334 1.097 1.0868548e-38
-0.27023861 0.0096170334 1.097 1.1145135e-38
-0.26927692 0.013463845 1.097 1.0683111e-38
-0.26927692 0.01731066 1.097 9.7615068e-39
-0.2644684 0.022119176 1.097 1.1143051e-38
-0.2644684 0.025965989 1.097 1.2711042e-38
-0.26190385 0.02724826 1.097 1.4277646e-38
-0.00096170331 0.025004286 1.097 1.196953e-38
0.0014425549 0.02644684 1.097 1.2246079e-38
0.0048085167 0.027889395 1.097 1.2612732e-38
0.010578737 0.027889395 1.097 1.2060614e-38
0.013463845 0.024042582 1.097 1.7776785e-38
-0.25773644 0.030774504 1.097 1.5844274e-38
0.0028851097 0.030774506 1.097 1.317058e-38
0.0054496522 0.031095073 1.097 1.2431951e-38
0.0086553302 0.03173621 1.097 1.1882336e-38
-0.25677475 0.034621321 1.097 1.6213787e-38
-0.25388968 0.035583023 1.097 1.6950965e-38
0.0028851097 0.033659615 1.097 1.5107762e-38
0.00577022 0.034621321 1.097 1.4555664e-38
0.0096170334 0.034621317 1.097 1.3447528e-38
0.013463845 0.033659615 1.097 1.2156109e-38
-0.25292796 0.037506428 1.097 1.8239894e-38
-0.25004286 0.038468134 1.097 1.9254034e-38
-0.24619605 0.03846813 1.097 1.8332808e-38
-0.24234924 0.039429836 1.097 1.7227185e-38
-0.23850243 0.039429836 1.097 1.7873275e-38
-0.23561732 0.039429836 1.097 1.6859123e-38
0.0060907877 0.038147565 1.097 1.6028988e-38
0.0096170334 0.03846813 1.097 1.5934316e-38
-0.24908113 0.041353244 1.097 1.962208e-38
-0.23369391 0.041353244 1.097 1.6397095e-38
-0.23112938 0.042635515 1.097 1.6857709e-38
-0.22696199 0.043276649 1.097 1.860905e-38
0.0067319227 0.042314947 1.097 1.1605016e-38
0.0096170334 0.042314947 1.097 1.2890765e-38
-0.2298471 0.045200057 1.097 1.7962233e-38
-0.22600028 0.045200061 1.097 1.8516486e-38
-0.22119176 0.045200057 1.097 1.7044593e-38
-0.21734494 0.045200057 1.097 1.6211235e-38
-0.21349813 0.045200057 1.097 1.7499823e-38
-0.20965132 0.047123458 1.097 1.9342979e-38
-0.2058045 0.047123458 1.097 1.8699086e-38
-0.20163712 0.046482325 1.097 1.7686367e-38
-0.19811088 0.046161756 1.097 1.7502303e-38
-0.19426405 0.04616176 1.097 1.7869673e-38
-0.19041725 0.046161756 1.097 1.8422836e-38
-0.18657044 0.047123458 1.097 1.9528445e-38
-0.18272364 0.047123458 1.097 2.0079821e-38
0.0067319227 0.046161756 1.097 1.6215543e-38
0.0096170334 0.046161756 1.097 1.6397779e-38
-0.20291939 0.049046867 1.097 1.8332442e-38
-0.18272364 0.049046867 1.097 1.9896153e-38
-0.17855625 0.049688004 1.097 2.0726309e-38
-0.17454916 0.050489422 1.097 1.9805037e-38
-0.16925979 0.050970275 1.097 1.9987983e-38
-0.16541296 0.050970275 1.097 2.1093253e-38
-0.16156615 0.050970275 1.097 2.0540077e-38
-0.15771934 0.050970275 1.097 2.0170591e-38
-0.14906402 0.050970275 1.097 1.8790855e-38
-0.1461789 0.050970275 1.097 1.943553e-38
-0.14233209 0.050970275 1.097 1.943663e-38
-0.13848528 0.050970275 1.097 2.0359663e-38
-0.13560016 0.050970275 1.097 1.897601e-38
0.0067319227 0.050008573 1.097 1.7409397e-38
0.0086553302 0.050008573 1.097 1.7593079e-38
-0.16829808 0.05289368 1.097 2.0263486e-38
-0.16541296 0.05289368 1.097 2.0816652e-38
-0.16156615 0.05289368 1.097 1.9894674e-38
-0.15771934 0.05289368 1.097 2.0355326e-38
-0.15387253 0.05289368 1.097 2.0264232e-38
-0.15002573 0.05289368 1.097 2.0081254e-38
-0.1461789 0.05289368 1.097 2.0543323e-38
-0.14233209 0.05289368 1.097 1.8792706e-38
-0.13848528 0.05289368 1.097 1.8423207e-38
-0.13463846 0.05289368 1.097 1.8606515e-38
-0.13079165 0.05289368 1.097 1.851394e-38
-0.12598315 0.05289368 1.097 1.8422792e-38
-0.12085405 0.053534817 1.097 1.7869649e-38
-0.1173278 0.054817088 1.097 1.8330272e-38
-0.11348099 0.054817088 1.097 1.777819e-38
-0.10963418 0.054817088 1.097 1.8419239e-38
-0.10578737 0.054817088 1.097 1.851359e-38
-0.10194054 0.053855386 1.097 1.7316123e-38
-0.098093733 0.054817088 1.097 1.6857678e-38
-0.094246924 0.053855386 1.097 1.6395628e-38
-0.090400115 0.053855382 1.097 1.6764049e-38
-0.086553305 0.053855386 1.097 1.6672582e-38
-0.082706481 0.053855382 1.097 1.740977e-38
-0.078859672 0.053855386 1.097 1.5291808e-38
-0.074051157 0.054817092 1.097 1.5013781e-38
-0.069242641 0.054817088 1.097 1.58421e-38
-0.065395825 0.054817088 1.097 1.6119054e-38
-0.061549008 0.054817088 1.097 1.6119412e-38
-0.057702199 0.054817088 1.097 1.6857696e-38
-0.053855382 0.054817088 1.097 1.6582557e-38
-0.050008573 0.054817088 1.097 1.5936464e-38
-0.03846813 0.054817088 1.097 1.7225027e-38
-0.034621321 0.054817088 1.097 1.8606151e-38
-0.030774506 0.054817088 1.097 1.925189e-38
-0.025965989 0.054817092 1.097 1.9436642e-38
-0.021157473 0.054817088 1.097 1.8421782e-38
-0.018272363 0.054817088 1.097 1.7775669e-38
-0.0057702195 0.054817088 1.097 1.63967e-38
-0.0019234065 0.054817088 1.097 1.7408331e-38
0.0019234065 0.054817088 1.097 1.6214106e-38
0.0054496522 0.053534817 1.097 1.5750977e-38
-0.10867247 0.056740493 1.097 1.6669342e-38
-0.085591599 0.056740493 1.097 1.6673996e-38
-0.082706481 0.056740493 1.097 1.6487819e-38
-0.078859672 0.056740493 1.097 1.6029013e-38
-0.074051157 0.056740493 1.097 1.630414e-38
-0.069242641 0.056740493 1.097 1.5933572e-38
-0.065395825 0.056740493 1.097 1.56588e-38
-0.061549008 0.056740493 1.097 1.5659526e-38
-0.057702199 0.056740493 1.097 1.6950259e-38
-0.053855382 0.056740493 1.097 1.7042466e-38
-0.050008573 0.056740493 1.097 1.6305267e-38
-0.046161756 0.056740493 1.097 1.6487842e-38
-0.043276649 0.056740493 1.097 1.5933942e-38
-0.037506428 0.056740493 1.097 1.5934292e-38
-0.034621321 0.056740493 1.097 1.7132833e-38
-0.030453939 0.05738163 1.097 1.6764405e-38
-0.02644684 0.057221346 1.097 1.7778178e-38
-0.020836905 0.05738163 1.097 1.7870378e-38
-0.01731066 0.056740493 1.097 1.8146264e-38
-0.013463845 0.058663901 1.097 1.8054792e-38
-0.0096170334 0.057702199 1.097 1.7319731e-38
-0.0057702195 0.056740493 1.097 1.6303804e-38
-0.0019234065 0.056740493 1.097 1.6762614e-38
-0.013463845 0.060587306 1.097 1.6302729e-38
-0.010578737 0.060587306 1.097 1.740976e-38
-0.27025878 -0.008686889 1.101 1.3535442e-38
-0.27315441 -0.0067564696 1.101 1.3542636e-38
-0.27025878 -0.0057912595 1.101 9.2995001e-39
-0.27025878 -0.0019304199 1.101 8.3796611e-39
-0.26736316 -0.0019304199 1.101 8.4707918e-39
-0.26929358 0.0019304199 1.101 9.2090729e-39
-0.26639795 0.0019304199 1.101 9.2090799e-39
-0.26929358 0.0057912595 1.101 1.0313953e-38
-0.26639795 0.0057912595 1.101 1.0221042e-38
-0.26929358 0.0096520986 1.101 1.169472e-38
-0.26639795 0.0096520986 1.101 1.1970948e-38
-0.26350233 0.0096520986 1.101 1.2247536e-38
-0.26639795 0.013512939 1.101 1.1972049e-38
-0.26350233 0.013512939 1.101 1.3906713e-38
-0.026060669 0.01447815 1.1010001 1.3442823e-38
-0.021234617 0.014478149 1.101 1.5750627e-38
-0.26639795 0.017373778 1.101 1.104972e-38
-0.26350233 0.016408568 1.101 1.2799644e-38
-0.025674585 0.017180737 1.101 1.2522664e-38
-0.020912882 0.017052043 1.1010001 1.4549128e-38
-0.018338988 0.017373778 1.101 1.5010541e-38
-0.26639795 0.020269407 1.101 1.0865356e-38
-0.26253712 0.022199828 1.101 1.2064276e-38
-0.024773723 0.020912882 1.1010001 1.381342e-38
-0.021234617 0.022199828 1.101 1.390849e-38
-0.00289563 0.022199828 1.101 1.3074042e-38
-0.26221538 0.024773723 1.1010001 1.2709965e-38
-0.25867626 0.026060669 1.101 1.5105985e-38
-0.25578064 0.027991088 1.101 1.5660243e-38
-0.029921506 0.027025878 1.101 1.4828308e-38
-0.026060669 0.026060669 1.101 1.4462042e-38
-0.021234617 0.025095459 1.101 1.400141e-38
-0.0022521566 0.027347615 1.1010001 1.1969167e-38
-0.25481543 0.030886717 1.101 1.5292182e-38
-0.25127634 0.031208456 1.1010001 1.5568052e-38
-0.026060669 0.030886721 1.101 1.455316e-38
-0.022199828 0.030886717 1.101 1.4000711e-38
-0.0016086833 0.030564979 1.1010001 1.344754e-38
0.00096520991 0.030886717 1.101 1.3631918e-38
-0.25481543 0.033782348 1.101 1.6397819e-38
-0.24998939 0.03474756 1.101 1.7042452e-38
-0.24548505 0.035069294 1.1010001 1.6765505e-38
-0.24130248 0.035712767 1.101 1.6765855e-38
-0.23744164 0.035712767 1.101 1.6121928e-38
-0.23454602 0.035712767 1.101 1.6489251e-38
-0.025095459 0.034747556 1.101 1.3908521e-38
-0.021234617 0.034747556 1.101 1.3170956e-38
-0.017373778 0.034747556 1.101 1.4183653e-38
-0.00096520991 0.034747556 1.101 1.4278744e-38
0.0016086833 0.035069294 1.1010001 1.4646792e-38
-0.2441981 0.037643187 1.101 1.6673678e-38
-0.24130248 0.037643187 1.101 1.7319397e-38
-0.23744164 0.037643187 1.101 1.6491765e-38
-0.23358081 0.038608395 1.101 1.6855872e-38
-0.23004168 0.038930133 1.1010001 1.7593807e-38
-0.22585912 0.039573606 1.101 1.6951688e-38
-0.025095459 0.038608395 1.101 1.8058383e-38
-0.021234617 0.038608395 1.101 1.8426444e-38
-0.017373778 0.038608395 1.101 1.7137503e-38
-0.00096520991 0.037643187 1.101 1.3724827e-38
0.0022521566 0.03828666 1.1010001 1.4828676e-38
0.0048260493 0.039573606 1.101 1.5751681e-38
-0.22971995 0.041504025 1.101 1.759313e-38
-0.22553739 0.042147499 1.1010001 1.6397782e-38
-0.22199827 0.042469233 1.101 1.5199247e-38
-0.21813744 0.042469233 1.101 1.7315423e-38
-0.21427661 0.042469233 1.101 1.7960773e-38
-0.21041577 0.043434445 1.101 1.7317918e-38
-0.20558971 0.043434445 1.101 1.8054782e-38
-0.20269409 0.043434445 1.101 1.8609398e-38
-0.19883324 0.042469233 1.101 1.87927e-38
-0.19439329 0.042662278 1.101 1.9895439e-38
-0.19014636 0.043434445 1.101 2.0355334e-38
-0.033782348 0.043434445 1.101 1.7411925e-38
-0.030886717 0.042469233 1.101 1.805622e-38
-0.025674585 0.042662274 1.101 1.980613e-38
-0.021234617 0.042469233 1.101 1.8701979e-38
-0.017373778 0.042469233 1.101 1.7781436e-38
0.00289563 0.042469233 1.101 1.3908515e-38
0.0048260493 0.042469233 1.101 1.363332e-38
-0.21041577 0.045364868 1.101 1.8607562e-38
-0.20655492 0.045364868 1.101 1.8239524e-38
-0.2036593 0.045364868 1.101 1.7962596e-38
-0.18821594 0.045364868 1.101 1.9619918e-38
-0.18532032 0.045364868 1.101 1.9988346e-38
-0.18113774 0.046008345 1.1010001 2.0449696e-38
-0.17759863 0.046330079 1.101 2.0634441e-38
-0.17373778 0.047295287 1.101 2.091031e-38
-0.16987693 0.047295287 1.101 2.0724477e-38
-0.1660161 0.047295287 1.101 2.0357128e-38
-0.16215526 0.047295287 1.101 1.9344059e-38
-0.15829442 0.047295287 1.101 1.9434814e-38
-0.15443358 0.047295287 1.101 2.0080187e-38
-0.15057275 0.047295287 1.101 1.9621008e-38
-0.1467119 0.047295287 1.101 1.9528815e-38
-0.14285107 0.047295287 1.101 1.8699058e-38
-0.13899022 0.047295287 1.101 1.9067838e-38
-0.090729728 0.047295287 1.101 1.4920513e-38
-0.034425821 0.046651818 1.1010001 1.7227168e-38
-0.030886717 0.046330076 1.101 1.713354e-38
-0.026060669 0.046330079 1.101 1.860795e-38
-0.021234617 0.046330079 1.101 1.8793778e-38
-0.017373778 0.046330079 1.101 1.7411585e-38
0.00289563 0.046330079 1.101 1.5290717e-38
0.0048260493 0.046330079 1.101 1.5016998e-38
-0.17373778 0.049225707 1.101 1.9895794e-38
-0.16987693 0.049225707 1.101 2.0263856e-38
-0.1660161 0.049225707 1.101 2.090994e-38
-0.16215526 0.049225707 1.101 2.007911e-38
-0.15829442 0.049225707 1.101 1.9801098e-38
-0.15443358 0.050190914 1.101 1.943411e-38
-0.15089449 0.04986918 1.1010001 1.8790876e-38
-0.1467119 0.049225707 1.101 1.9251855e-38
-0.14285107 0.049225707 1.101 1.9251871e-38
-0.13802502 0.04922571 1.1010001 1.9896852e-38
-0.13319896 0.050190918 1.101 1.9525588e-38
-0.12933813 0.050190914 1.101 1.9252564e-38
-0.12547728 0.050190914 1.101 1.9068539e-38
-0.12161645 0.050190914 1.101 1.9437323e-38
-0.11775561 0.050190914 1.101 1.7964387e-38
-0.11389478 0.050190914 1.101 1.7134987e-38
-0.11003393 0.051156126 1.101 1.796547e-38
-0.10617309 0.051156126 1.101 1.667436e-38
-0.10231225 0.051156126 1.101 1.7224649e-38
-0.098451413 0.051156126 1.101 1.6488918e-38
-0.094590575 0.050190918 1.101 1.5197815e-38
-0.090729728 0.050190918 1.101 1.5013047e-38
-0.08686889 0.050190914 1.101 1.528893e-38
-0.082042843 0.050190918 1.101 1.5105246e-38
-0.077216789 0.050190914 1.101 1.4552452e-38
-0.07335595 0.050190918 1.101 1.5105613e-38
-0.069495112 0.051156126 1.101 1.5750979e-38
-0.065634273 0.051156126 1.101 1.5751698e-38
-0.061773434 0.051156126 1.101 1.6489268e-38
-0.057590865 0.050512653 1.1010001 1.6949534e-38
-0.054051757 0.050190918 1.101 1.7503417e-38
-0.050190918 0.050190918 1.101 1.833461e-38
-0.046330079 0.051156126 1.101 1.7505215e-38
-0.042469233 0.051156126 1.101 1.8147698e-38
-0.038608395 0.050190914 1.101 1.8331355e-38
-0.034747556 0.050190914 1.101 1.7871459e-38
-0.030886717 0.050190914 1.101 1.7319381e-38
