# .PCD v0.7 - Point Cloud Data file format
VERSION 0.7
FIELDS x y z rgb
SIZE 4 4 4 4
TYPE F F F F
COUNT 1 1 1 1
WIDTH 1085
HEIGHT 1
VIEWPOINT 0 0 0 1 0 0 0
POINTS 1085
DATA ascii
-0.0097978022 0.20513177 0.88700002 0
-0.0062208269 0.20528728 0.88700002 1.4012985e-45
-0.003110413 0.20450968 0.88700002 1.4012985e-45
-0.080611542 0.21021211 0.88700002 0
-0.077614516 0.21033397 0.88533342 0
-0.074481599 0.21025532 0.88500011 0
-0.056637045 0.21180704 0.88499999 0
-0.054050878 0.21128981 0.88499999 0
-0.050467651 0.20963788 0.88566673 0
-0.045878597 0.20995292 0.88700002 0
-0.041990578 0.2091753 0.88700002 2.8025969e-45
-0.039657768 0.2091753 0.88700002 0
-0.080870748 0.21384093 0.88700002 0
-0.077672668 0.21437743 0.88599998 4.2038954e-45
-0.073705755 0.21413462 0.88500011 1.4012985e-45
-0.056637045 0.2141346 0.88499999 0
-0.053432461 0.21428528 0.88700008 0
-0.050155416 0.2134521 0.88700002 0
-0.080870748 0.21772893 0.88700002 0
-0.077760339 0.21772893 0.88700002 0
-0.074149087 0.21823552 0.88500011 0
-0.057024971 0.21840176 0.88499999 0
-0.054537959 0.21799771 0.88619995 0
-0.050651826 0.21794261 0.88550007 0
-0.045878597 0.21850654 0.88700002 0
-0.080715232 0.22130592 0.88700002 0
-0.077760339 0.22161697 0.88700002 1.4012985e-45
-0.073705748 0.22189307 0.88500011 0
-0.057412896 0.22189307 0.88499999 2.8025969e-45
-0.053872339 0.2219682 0.88633335 0
-0.050097555 0.22097829 0.88599998 0
-0.045878597 0.22006175 0.88700002 0
-0.080093138 0.22472736 0.88700002 0
-0.077760339 0.22628258 0.88700002 0
-0.074566633 0.22602747 0.88600004 0
-0.073817961 0.22922057 0.88633341 0
-0.070602342 0.22887576 0.88499999 0
-0.053115476 0.10701206 0.89099997 1.1978341e-39
-0.049934931 0.10611085 0.88999999 1.5687718e-39
-0.046033766 0.10611086 0.88999999 1.2017872e-39
-0.042440306 0.10649133 0.89099997 1.8446357e-39
-0.054033853 0.10951407 0.88957143 2.1748152e-42
-0.049878825 0.10833057 0.889 9.4729177e-41
-0.045982044 0.10833057 0.88900006 9.5082305e-41
-0.04192939 0.10957755 0.88900006 1.5673285e-39
-0.039193839 0.11039881 0.89060003 2.5815001e-39
-0.057021026 0.11482316 0.89099997 3.7021184e-40
-0.055334322 0.11378607 0.889 7.3756504e-40
-0.037909698 0.11373259 0.88980001 2.5793365e-39
-0.033587731 0.11482316 0.89099997 2.5804042e-39
-0.030463289 0.11482316 0.89099997 2.6726195e-39
-0.058062505 0.1179476 0.89099997 2.5153307e-42
-0.036629763 0.11768286 0.88900006 2.396013e-39
-0.033989996 0.11757214 0.88985711 2.3963773e-39
-0.030216726 0.117943 0.88949996 2.2127119e-39
-0.025999803 0.11839397 0.89099997 2.5811217e-39
-0.022652188 0.11950982 0.89099997 2.6733201e-39
-0.05773814 0.12249574 0.88999999 1.0761972e-42
-0.034291692 0.12080028 0.889 2.3967347e-39
-0.03039491 0.12157963 0.88900006 2.1212254e-39
-0.025718769 0.12235899 0.88900006 2.2141441e-39
-0.02183835 0.12244958 0.88966668 2.3063397e-39
-0.017952086 0.12254134 0.89033329 2.0311891e-39
-0.014442205 0.12256457 0.89050001 2.0308416e-39
-0.011716649 0.12263426 0.89099997 2.0308374e-39
-0.070299894 0.12732093 0.89099997 1.8798839e-40
-0.064832121 0.12732093 0.89099997 0
-0.061317131 0.12693037 0.89099997 2.8025969e-45
-0.058019843 0.12514387 0.89033335 4.2038954e-45
-0.024939412 0.12547642 0.889 2.3981766e-39
-0.021821987 0.12625578 0.889 2.1215869e-39
-0.017925203 0.12625578 0.88900006 1.7549638e-39
-0.013878509 0.12584393 0.88940001 2.0301101e-39
-0.01034357 0.12588254 0.89049989 1.8468035e-39
-0.0070299897 0.12653981 0.89099997 1.7546106e-39
-0.073163971 0.12992463 0.89099997 3.7237825e-40
-0.070194706 0.13024901 0.88966668 1.0832037e-42
-0.065186299 0.13037127 0.89049995 0
-0.061631132 0.13028152 0.88988888 2.8025969e-45
-0.058451749 0.13015255 0.889 5.6051939e-45
-0.017145846 0.12859385 0.889 1.8468063e-39
-0.01402842 0.12859385 0.889 1.7549638e-39
-0.010131637 0.12937321 0.88900006 1.7549666e-39
-0.0060814363 0.12989867 0.88940001 1.9386404e-39
-0.0039026279 0.1303466 0.89033335 1.6627709e-39
-0.073424339 0.13278869 0.89099997 4.6242149e-40
-0.070299894 0.1343509 0.89099997 7.2026741e-43
-0.066370092 0.13325946 0.89066666 0
-0.061569177 0.13404934 0.88900006 2.8025969e-45
-0.0020791613 0.13357915 0.88933337 1.8468035e-39
0.0020305354 0.13444646 0.89060003 1.6598997e-39
-0.074986547 0.13825646 0.89099997 7.342804e-43
-0.070299894 0.13825646 0.89099997 2.8025969e-45
-0.066171169 0.13870281 0.89099997 0
-0.061569173 0.13794613 0.88900006 4.2038954e-45
-0.00077935669 0.13794613 0.88900006 1.847158e-39
0.002342161 0.13811815 0.89011109 1.8457343e-39
0.0062488797 0.13981868 0.89099997 2.3045348e-39
-0.074986547 0.14138091 0.89099997 2.8025969e-45
-0.070299894 0.14216201 0.89099997 1.4012985e-45
-0.066394344 0.14216201 0.89099997 1.4012985e-45
-0.061616518 0.14194928 0.88966668 5.6051939e-45
-0.058451749 0.14262226 0.889 2.7658689e-40
0.0026498127 0.14168704 0.88900006 2.2137811e-39
0.0062488797 0.14216201 0.89099997 2.2130496e-39
-0.064832121 0.14450534 0.89099997 4.2038954e-45
-0.061222266 0.14575171 0.89042854 2.8025969e-45
-0.058451753 0.14573967 0.88900006 9.219563e-41
0.0038967833 0.14418097 0.889 2.2141216e-39
0.0062395288 0.14584781 0.88966668 8.3082986e-40
0.0093733193 0.14684868 0.89099997 8.311942e-40
-0.060716357 0.15030573 0.89020008 2.8025969e-45
-0.058451749 0.14963648 0.889 1.836766e-40
0.0070142099 0.14885712 0.889 1.8654085e-40
0.00969656 0.15056036 0.88985711 9.2268357e-40
-0.061283384 0.15379231 0.89050001 1.1210388e-44
0.010924142 0.15409563 0.88999999 4.6314596e-40
-0.064832121 0.15856533 0.89099997 1.4012985e-45
-0.062655658 0.15728772 0.88966668 9.1841101e-41
0.011072124 0.15796813 0.88940001 3.6986712e-40
-0.088890314 0.16200221 0.89099997 9.219563e-41
-0.086703204 0.16168976 0.89099997 1.8404094e-40
-0.065398805 0.16185634 0.89019996 9.2557165e-41
0.011690349 0.16210619 0.889 9.1845305e-41
0.014059979 0.16168976 0.89099997 9.2209643e-41
0.016403308 0.16325198 0.89099997 1.44614e-42
-0.089046538 0.16481419 0.89099997 0
-0.086703204 0.16481419 0.89099997 0
-0.066618077 0.16584131 0.88980001 3.657389e-43
0.01169035 0.16600296 0.88900006 7.0064923e-45
0.014028421 0.16600296 0.88900006 3.7414669e-43
0.016366489 0.16600296 0.88900006 0
-0.069518782 0.17028198 0.89099997 9.219563e-41
-0.067804031 0.16989973 0.889 1.8439546e-40
0.011170778 0.17015952 0.88900006 1.4012985e-45
0.01402842 0.16989973 0.889 1.1210388e-44
0.016366489 0.16989973 0.889 0
-0.069792308 0.17428483 0.88949996 7.272739e-43
-0.067804031 0.17223781 0.889 2.7658689e-40
0.010910993 0.17379653 0.88900006 1.4012985e-45
0.014059979 0.17418751 0.89099997 8.4077908e-45
0.016403308 0.17418753 0.89099997 4.2038954e-45
-0.073109619 0.1782196 0.89033335 2.1622035e-42
-0.070921458 0.17691395 0.889 9.4734783e-41
0.010917568 0.17779368 0.88949996 0
0.01379961 0.17783269 0.89099997 2.8025969e-45
-0.077792764 0.18290275 0.89033335 4.2038954e-45
-0.075292945 0.1814038 0.88999999 2.8025969e-45
0.010336337 0.18193813 0.88974994 0
-0.077850632 0.18612142 0.88980001 1.821688e-44
-0.075597592 0.18470752 0.889 2.6624671e-44
0.0099433716 0.18617572 0.88949996 0
-0.07845816 0.18970321 0.89050001 7.0064923e-45
0.010365581 0.19001159 0.88985711 0
-0.08045432 0.19449638 0.89099997 1.4012985e-45
-0.078715019 0.19405979 0.88900006 0
0.0038967833 0.19561851 0.889 0
0.006494639 0.19509894 0.88900006 0
0.00983427 0.19338511 0.89019996 0
-0.081079215 0.19793327 0.89099997 0
-0.078715019 0.19795658 0.889 0
0.0033772122 0.19821636 0.88900006 0
0.0062427428 0.19817926 0.88999999 0
0.0091129495 0.19657934 0.89099997 0
-0.081145138 0.20208043 0.88999999 0
-0.078715019 0.20029466 0.889 0
-0.021821987 0.20341209 0.889 0
-0.018314881 0.20302239 0.889 0
-0.00077935663 0.20341209 0.889 0
0.0023400739 0.20198363 0.88957143 0
0.0054677697 0.20074525 0.89099997 0
-0.082705602 0.20598158 0.88999999 0
-0.037409119 0.20575017 0.889 0
-0.034291692 0.20575015 0.889 0
-0.03039491 0.20575017 0.88900006 0
-0.025718769 0.20575017 0.88900006 0
-0.021821987 0.20575015 0.889 0
-0.017925203 0.20575017 0.88900006 0
-0.014288206 0.20600995 0.88900006 0
-0.011690349 0.20652951 0.889 0
-0.0019483916 0.20613983 0.889 0
0.00130185 0.20595264 0.89099997 1.4012985e-45
-0.085140981 0.2116808 0.89099997 0
-0.082880236 0.2096182 0.89019996 0
-0.04208526 0.21120565 0.889 1.5414283e-44
-0.037910398 0.20952384 0.88980001 0
-0.033885092 0.20940006 0.89059991 0
-0.030109817 0.20890036 0.88980001 0
-0.02552866 0.20947163 0.89014292 0
-0.021854714 0.20996253 0.89033329 0
-0.017952085 0.20996253 0.89033329 0
-0.014059979 0.20933746 0.89099997 0
-0.010143033 0.20910341 0.88999999 0
-0.0062418664 0.20910339 0.88999999 0
-0.0026529685 0.20899399 0.89019996 0
-0.085689433 0.21429923 0.89020008 1.4012985e-45
-0.08339116 0.21432309 0.88900006 0
-0.049099468 0.21510243 0.889 0
-0.04598204 0.21432309 0.88900006 0
-0.042108491 0.21366426 0.88949996 1.4012985e-45
-0.039836608 0.21324302 0.89099997 0
-0.086040102 0.21814358 0.89060003 7.0064923e-45
-0.08339116 0.21821986 0.889 0
-0.045982044 0.21744052 0.88900006 0
-0.042179938 0.21792969 0.89099997 0
-0.088265426 0.22183523 0.89099997 0
-0.085651211 0.22200409 0.88980001 7.0064923e-45
-0.08300148 0.22250633 0.889 0
-0.086078316 0.22605324 0.89099997 0
-0.082144186 0.2261693 0.88900006 0
-0.085922092 0.22886521 0.89099997 0
-0.081893817 0.23008378 0.88966668 0
-0.077979937 0.23081973 0.88950002 0
-0.074038886 0.23146892 0.88900006 0
-0.081235439 0.23355187 0.89099997 0
-0.078067601 0.23420192 0.89050001 0
-0.075597592 0.23302764 0.889 0
-0.054078057 0.10658863 0.89399999 1.3825799e-39
-0.046240658 0.10423742 0.89399999 2.0293857e-39
-0.042321958 0.10502116 0.89399999 2.0293927e-39
-0.039186999 0.10658863 0.89399999 2.7651612e-39
-0.038403258 0.10893986 0.89399999 2.7644676e-39
-0.057735514 0.1136423 0.89399999 5.5353251e-40
-0.036835779 0.11207481 0.89399999 2.5811245e-39
-0.034092687 0.11325043 0.89399999 2.7640766e-39
-0.029520875 0.11416479 0.89399999 2.580777e-39
-0.026647158 0.11520977 0.89399999 2.5811245e-39
-0.060347974 0.11912848 0.89399999 2.7767009e-40
-0.058780499 0.11677725 0.89399999 2.8768657e-42
-0.025079679 0.11677725 0.89399999 2.4892848e-39
-0.021787971 0.11803124 0.89399999 2.4896519e-39
-0.018339517 0.11928523 0.89399999 2.5811273e-39
-0.014891059 0.11991221 0.89399999 2.5804239e-39
-0.061601963 0.12242018 0.89399999 2.1537957e-42
-0.013323579 0.12147969 0.89399999 2.1223198e-39
-0.01018862 0.12226343 0.89399999 2.0308332e-39
-0.068185374 0.12774962 0.89399999 7.1746481e-43
-0.065834157 0.12696588 0.89399999 0
-0.062228955 0.12524165 0.89399999 2.8025969e-45
-0.0086211395 0.12461465 0.89399999 1.846456e-39
-0.0058780494 0.12579027 0.89399999 1.7546092e-39
-0.0033962063 0.12722713 0.89399999 1.6627695e-39
-0.068185374 0.13010083 0.89399999 3.61535e-43
-0.066617899 0.12931709 0.89399999 1.4012985e-45
-0.0015674799 0.13010083 0.89399999 1.5702152e-39
0.00078373996 0.13088457 0.89399999 1.7542603e-39
-0.073671557 0.13558702 0.89399999 2.7623656e-40
-0.068185374 0.13558702 0.89399999 0
-0.066617899 0.13558702 0.89399999 0
-0.00078373996 0.13245206 0.89399999 1.7546106e-39
0.0027430896 0.13284393 0.89399999 1.6606172e-39
0.0061131716 0.13433301 0.89399999 1.5666223e-39
0.0086211395 0.13558702 0.89399999 1.5666265e-39
-0.072887816 0.13793823 0.89399999 4.2038954e-45
-0.068185374 0.13715449 0.89399999 0
-0.066617899 0.13715449 0.89399999 0
0.0062699197 0.13793823 0.89399999 1.291836e-39
0.0094048791 0.13793823 0.89399999 1.1985614e-39
-0.076022781 0.14342442 0.89399999 1.4012985e-45
-0.073279686 0.14224881 0.89399999 2.8025969e-45
0.0099926842 0.14205286 0.89399999 1.2918206e-39
-0.069752865 0.14577563 0.89399999 0
-0.066095404 0.14603689 0.89399999 0
-0.06348294 0.14655937 0.89399999 3.5873241e-43
0.010580489 0.14538376 0.89399999 1.1989005e-39
-0.081508957 0.15126181 0.89399999 1.8404094e-40
-0.077366337 0.15014219 0.89400005 4.2038954e-45
-0.074455306 0.14969432 0.89399999 2.8025969e-45
-0.069752857 0.14969432 0.89399993 1.4012985e-45
-0.065834165 0.14969434 0.89399999 0
-0.06348294 0.14969432 0.89399999 1.4012985e-45
0.0117561 0.1489106 0.89399999 4.635159e-40
-0.085950159 0.15544176 0.89399999 9.1845305e-41
-0.082292691 0.15439677 0.89399993 5.6051939e-45
-0.077590257 0.15439677 0.89399993 0
-0.069752857 0.15282929 0.89399999 1.1210388e-44
-0.065834165 0.15439677 0.89399999 1.4012985e-45
-0.06348294 0.15439677 0.89399999 2.8025969e-45
0.0117561 0.15439677 0.89399999 4.6422496e-40
0.013323579 0.15439677 0.89399999 4.6242709e-40
-0.089085102 0.15857673 0.89399999 2.7731276e-40
-0.086211398 0.15831548 0.89399999 2.7696944e-40
-0.082292698 0.15831548 0.89399999 1.4012985e-45
-0.078373998 0.15831548 0.89399999 1.4012985e-45
-0.068185374 0.15909921 0.89399999 0
-0.066095404 0.15805423 0.89399999 1.4012985e-45
0.013846072 0.15857673 0.89399999 2.8866748e-42
-0.093265057 0.1630179 0.89399999 1.83678e-40
-0.091305703 0.16184232 0.89399999 3.6735039e-40
-0.085427664 0.16223417 0.89399999 8.4077908e-45
-0.082292691 0.16223417 0.89399993 2.8025969e-45
-0.078765862 0.16184232 0.89399999 1.4012985e-45
-0.068185374 0.16223417 0.89399999 2.8025969e-45
-0.066617899 0.1606667 0.89399999 7.1746481e-43
0.016458539 0.16145045 0.89399999 3.673546e-40
-0.093265057 0.16693661 0.89399999 3.657389e-43
-0.090521961 0.16654474 0.89399999 2.8025969e-45
-0.085950159 0.16641413 0.89399999 0
-0.082606189 0.16599612 0.89399999 0
-0.069752857 0.16641413 0.89399999 3.657389e-43
0.01802602 0.16615286 0.89399999 0
-0.093265057 0.16928783 0.89399999 0
-0.089934155 0.16987565 0.89399999 2.8025969e-45
-0.086211398 0.17007159 0.89399999 0
-0.083337687 0.16902658 0.89399999 0
-0.070928469 0.1696797 0.89399999 2.8025969e-45
0.01802602 0.17007157 0.89399999 0
-0.089346349 0.17399026 0.89399999 1.4012985e-45
-0.08699514 0.17320654 0.89399999 0
-0.072887816 0.17477401 0.89399999 5.6051939e-45
-0.071320333 0.17399028 0.89399999 4.2038954e-45
0.01802602 0.17399028 0.89399999 5.6051939e-45
-0.076806515 0.17947645 0.89399999 3.657389e-43
-0.073671557 0.17712523 0.89399999 2.1537957e-42
0.014891059 0.17947645 0.89399999 5.6051939e-45
0.017242279 0.17790897 0.89399999 2.8025969e-45
-0.08124771 0.18208891 0.89399999 0
-0.078635246 0.18156642 0.89399999 0
0.01410732 0.18182766 0.89399999 5.6051939e-45
0.016458539 0.18104392 0.89399999 4.2038954e-45
-0.081508964 0.18574637 0.89399999 0
0.013715449 0.1853545 0.89399999 1.2611686e-44
-0.081508957 0.18966508 0.89399999 2.8025969e-45
0.013323579 0.18966508 0.89399999 0
-0.08166571 0.19327028 0.89399999 0
0.0117561 0.19515125 0.89399999 0
0.013323579 0.19201629 0.89399999 0
-0.085427657 0.19985369 0.89399999 0
-0.083337687 0.19828622 0.89399999 0
0.01018862 0.19828622 0.89399999 0
-0.085427657 0.20220491 0.89399999 0
-0.083860174 0.20220491 0.89399999 0
0.0062699197 0.20220491 0.89399999 0
-0.088562615 0.20690735 0.89399999 0
-0.086211398 0.20612362 0.89399999 0
-0.083860174 0.20455614 0.89399999 0
0.0033962063 0.20612362 0.89399999 0
0.0054861796 0.20455614 0.89399999 0
-0.088562615 0.2100423 0.89399999 1.4012985e-45
-0.086211398 0.2100423 0.89399999 1.4012985e-45
-0.00078373996 0.21082604 0.89399999 0
0.00078373996 0.20925857 0.89399999 0
-0.089346349 0.21396101 0.89399999 1.821688e-44
-0.08699514 0.21239354 0.89399999 0
-0.038142011 0.21396101 0.89399999 0
-0.03370082 0.21239355 0.89399999 0
-0.02978212 0.21239354 0.89399999 0
-0.025863418 0.21396102 0.89400005 2.7622676e-40
-0.02194472 0.21396101 0.89399999 0
-0.01802602 0.21396101 0.89399999 0
-0.014107319 0.21239354 0.89399999 5.5317378e-40
-0.010188621 0.21239355 0.89399999 3.1349695e-39
-0.0062699197 0.21317726 0.89399999 4.7008967e-39
-0.0033962063 0.21291602 0.89399999 4.7001891e-39
-0.089816593 0.21803646 0.89399999 7.0064923e-45
-0.039186999 0.21787971 0.89399999 0
-0.090577945 0.2215745 0.89400005 0
-0.039970737 0.22023094 0.89399999 5.6051939e-45
-0.089346349 0.22571711 0.89399999 0
-0.088562615 0.22885206 0.89399999 0
-0.086211398 0.2312033 0.89399999 0
-0.082292698 0.23538324 0.89399999 0
-0.052745525 0.10312931 0.898 2.5814776e-39
-0.051171031 0.10312931 0.898 2.5814776e-39
-0.046344109 0.10289963 0.89600009 2.6733159e-39
-0.041724078 0.10312931 0.898 2.7658689e-39
-0.038575083 0.10312931 0.898 2.7658689e-39
-0.057341017 0.10761259 0.89600003 9.2125985e-40
-0.054229286 0.1053144 0.89649999 1.2014313e-39
-0.050271571 0.10447062 0.89600003 1.7549638e-39
-0.040845655 0.10447062 0.89600003 2.4889303e-39
-0.037352137 0.10576633 0.89700001 2.7651528e-39
-0.034376435 0.10680312 0.89799994 2.305974e-39
-0.029915374 0.10785279 0.898 1.939355e-39
-0.058192257 0.1100918 0.89700001 8.3085088e-40
-0.036918186 0.10996906 0.89600003 2.7655158e-39
-0.033788778 0.11000969 0.8963334 2.3985297e-39
-0.029864965 0.11003 0.89649999 1.8471538e-39
-0.026294038 0.11037198 0.89799994 2.5836426e-39
-0.022830153 0.11100178 0.898 2.6751348e-39
-0.060617995 0.11493801 0.898 5.5281925e-40
-0.058912002 0.11311103 0.89600003 1.0141519e-39
-0.032990716 0.11232555 0.89600003 2.5811245e-39
-0.029848747 0.11232555 0.89600003 2.5807742e-39
-0.02570462 0.1134835 0.89628577 2.5818448e-39
-0.022010177 0.11398011 0.89666671 2.9495483e-39
-0.018288363 0.11425093 0.89724994 2.8573569e-39
-0.014162111 0.11487358 0.89750004 2.7651612e-39
-0.010549105 0.11509546 0.89799994 2.6733201e-39
-0.0070852195 0.11572525 0.898 2.5811245e-39
-0.061337736 0.11795637 0.89700001 7.3756504e-40
-0.0176736 0.11743125 0.89600003 2.306697e-39
-0.014138879 0.117824 0.89600003 2.4900177e-39
-0.010214629 0.11786754 0.8963334 2.5811245e-39
-0.0062940279 0.1180208 0.89749998 2.4896505e-39
-0.002755363 0.11848062 0.898 2.4896477e-39
-0.065195948 0.12332244 0.89600003 2.7658689e-40
-0.062910475 0.12110186 0.89700001 3.7022586e-40
-0.013353386 0.12018047 0.89600003 2.6726195e-39
-0.0098186666 0.12057322 0.89600003 2.030836e-39
-0.0062839463 0.12175147 0.89600003 2.2141441e-39
-0.0023590124 0.12190127 0.89711106 2.3056166e-39
0.001836909 0.12254807 0.89799994 1.9382816e-39
-0.068337917 0.12646443 0.89600003 2.8768657e-42
-0.06598144 0.12567893 0.89600003 9.3273228e-41
-0.0020422826 0.12552184 0.89600003 1.7549638e-39
0.0023591099 0.12581831 0.89700001 1.4790986e-39
0.0060355579 0.12622188 0.898 1.4769378e-39
-0.00078549335 0.12803541 0.89600003 1.7549638e-39
0.0025528534 0.12941003 0.89599997 1.6616948e-39
0.0062892064 0.12970226 0.89666671 1.7517254e-39
0.008659713 0.13068295 0.898 1.6588123e-39
0.0070694396 0.13274838 0.89600003 1.5666265e-39
0.010221684 0.13444737 0.89685714 1.2900354e-39
0.0117824 0.13824683 0.89600003 7.3866226e-40
0.014165472 0.13771644 0.89766663 9.2124724e-40
0.016532179 0.13855541 0.898 5.5426959e-40
-0.077763841 0.14295977 0.89600003 1.44614e-42
0.0117824 0.1406033 0.89600003 4.635187e-40
0.014144431 0.14222661 0.8963334 9.2160738e-40
0.01715461 0.14211257 0.8976 5.5391507e-40
-0.081086405 0.14642787 0.898 4.6242149e-40
-0.078013562 0.14581095 0.89628577 9.2559967e-41
-0.073836371 0.14610176 0.89600003 0
0.014138879 0.14610176 0.89600003 6.4717288e-40
0.018284198 0.14567438 0.89699996 1.8656047e-40
0.021255659 0.14642787 0.898 2.7803443e-40
-0.084582113 0.15067314 0.89750004 6.4609808e-40
-0.081737325 0.14932658 0.89649999 1.8511853e-40
-0.078549333 0.14845824 0.89600003 5.6051939e-45
-0.073050879 0.15002923 0.89600009 2.8025969e-45
0.014138879 0.15002924 0.89600003 7.3829371e-40
0.018076086 0.15010327 0.89644444 2.7766449e-40
0.022042906 0.15036412 0.89799994 2.7766869e-40
-0.089417659 0.15444762 0.89733332 9.2195209e-40
-0.0866661 0.15369487 0.89600009 4.6062782e-40
-0.073836371 0.15395668 0.89600003 1.4012985e-45
-0.069908909 0.15474218 0.89600009 4.2038954e-45
0.014924373 0.15395668 0.89600003 3.7022586e-40
0.018073654 0.15401426 0.8963334 1.8620454e-40
0.022042906 0.15430033 0.898 4.6098095e-40
-0.093630187 0.1585412 0.89749998 6.4465194e-40
-0.090645932 0.15756997 0.89600003 9.3633362e-41
-0.076192856 0.15866965 0.89600003 0
-0.073836371 0.15788417 0.89600003 0
-0.070105284 0.15768778 0.89599997 0
0.014924373 0.15709867 0.89600003 2.1734139e-42
0.018085048 0.15804 0.89688885 9.2571178e-41
0.022042906 0.15823659 0.89799994 2.7588204e-40
0.024404645 0.15981106 0.898 2.7589044e-40
-0.096831337 0.16217279 0.898 3.6734759e-40
-0.094521031 0.16154979 0.89600009 4.5918589e-40
-0.07671652 0.16207346 0.89600009 0
-0.073836371 0.16181162 0.89600003 0
-0.070694402 0.16181162 0.89600003 0
0.018851839 0.16181162 0.89600003 2.7587223e-40
0.022019237 0.16199221 0.89699996 5.6051939e-45
0.024404645 0.16217279 0.898 1.8404234e-40
-0.097732902 0.16666415 0.8976 2.8025969e-45
-0.094651945 0.16573909 0.89600003 2.8025969e-45
-0.08090581 0.16731007 0.89600003 0
-0.077567466 0.16593546 0.89599997 1.4012985e-45
-0.073836371 0.16573909 0.89600003 4.2038954e-45
-0.070694402 0.16495359 0.89600003 2.8025969e-45
0.019244585 0.16534635 0.89600003 3.61535e-43
0.022019237 0.16592407 0.89700001 0
-0.098333947 0.16991904 0.89733332 3.5873241e-43
-0.095044687 0.16966656 0.89600003 0
-0.081429474 0.1699284 0.89600009 2.8025969e-45
-0.077821121 0.16979337 0.89666671 1.4012985e-45
-0.073836371 0.16966656 0.89600003 3.5873241e-43
0.019637333 0.16966656 0.89600003 2.8025969e-45
0.022031071 0.16995102 0.89749998 1.4012985e-45
-0.097863562 0.17404039 0.89714289 0
-0.094259188 0.17359403 0.89600003 4.2038954e-45
-0.091902718 0.17359403 0.89600009 8.4077908e-45
-0.085095108 0.17411768 0.89600003 0
-0.081691295 0.17359404 0.89600003 0
-0.077937417 0.17398153 0.89799988 0
-0.073993467 0.17327981 0.89600003 0
0.019637335 0.17359403 0.89600009 4.2038954e-45
0.021255661 0.17398152 0.898 4.2038954e-45
-0.098004669 0.17760178 0.89720005 0
-0.094259195 0.178307 0.89600003 3.629363e-43
-0.090331733 0.17830701 0.89600003 1.4012985e-45
-0.085618772 0.178307 0.89600003 0
-0.08169131 0.178307 0.89600003 0
-0.078038365 0.17797086 0.8965714 4.2038954e-45
-0.074621864 0.176736 0.89600003 1.4349296e-42
0.019113671 0.17830698 0.89600009 4.2038954e-45
0.021255659 0.17791773 0.898 2.8025969e-45
-0.098154664 0.18194866 0.89749992 2.8025969e-45
-0.094259188 0.18223445 0.89600003 7.0064923e-45
-0.090331733 0.18223445 0.89600003 1.4012985e-45
-0.085618779 0.18223445 0.89600003 0
-0.082476795 0.18144897 0.89600003 0
0.018611927 0.18217513 0.89700001 8.4077908e-45
0.021255659 0.18106672 0.898 1.821688e-44
-0.09804596 0.18606898 0.89649999 8.4077908e-45
-0.094259195 0.18616192 0.89600003 8.4077908e-45
-0.090331733 0.18616195 0.89600003 0
-0.085618772 0.18616195 0.89600003 0
0.014924373 0.18694741 0.89600003 7.0064923e-45
0.017880931 0.186069 0.89649999 1.4012985e-45
-0.098506525 0.18993385 0.89685714 0
-0.094259195 0.19008939 0.89600003 2.8025969e-45
-0.090331733 0.19008939 0.89600003 4.2038954e-45
-0.085618779 0.19008939 0.89600003 1.4012985e-45
0.014924373 0.19008939 0.89600003 0
0.01832108 0.19005507 0.89742857 0
-0.098057166 0.19375309 0.89685714 2.8025969e-45
-0.094259195 0.19401686 0.89600003 1.4012985e-45
-0.090331733 0.19401684 0.89600003 7.0064923e-45
-0.085618772 0.19401684 0.89600003 0
0.014138879 0.19401686 0.89600003 0
0.017703842 0.19316164 0.89749998 0
-0.098521329 0.19762981 0.89724994 4.2038954e-45
-0.094259195 0.19794431 0.89600003 0
-0.090331733 0.19794433 0.89600003 5.6051939e-45
-0.08593297 0.19778723 0.89600003 0
0.0117824 0.19872981 0.89600003 0
0.014170439 0.1975989 0.898 0
-0.10155482 0.20389688 0.898 0
-0.098236144 0.20197153 0.89644444 4.2038954e-45
-0.094259202 0.2018718 0.89600003 8.4077908e-45
-0.090331726 0.2018718 0.89600003 5.6051939e-45
-0.087189756 0.2018718 0.89600009 1.4012985e-45
0.0070694396 0.20344277 0.89600003 0
0.0099108918 0.20182793 0.89720005 0
-0.10155482 0.20625862 0.898 0
-0.098186664 0.20579927 0.89600003 0
-0.094259195 0.20579925 0.89600003 2.8025969e-45
-0.090645932 0.20564215 0.89600003 0
0.0065510375 0.20621479 0.89666671 0
0.008659713 0.20547138 0.898 0
-0.10155482 0.20862035 0.898 0
-0.098236151 0.20983115 0.89644444 0
-0.094259195 0.20972674 0.89600003 9.1835496e-41
-0.091117233 0.20972672 0.89600003 0
0.0026724306 0.21013454 0.89639997 0
0.0055107265 0.20862035 0.898 0
-0.0980478 0.21387862 0.8976 0
-0.094259195 0.21365419 0.89600003 0
-0.091902718 0.21365419 0.89600003 3.5873241e-43
-0.033776212 0.21443968 0.89600009 0
-0.029848747 0.21443968 0.89600003 0
-0.014138879 0.21443968 0.89600003 2.5789567e-39
-0.010211414 0.21443968 0.89600009 4.4257406e-39
-0.0013091557 0.21391603 0.89600009 5.0696764e-39
0.0013114933 0.21371029 0.89733332 3.227905e-39
-0.096831337 0.21728006 0.898 0
-0.094329916 0.21774414 0.89666665 0
-0.091902718 0.21679616 0.89600003 4.2038954e-45
-0.036918186 0.21758166 0.89600009 0
-0.03380134 0.21774471 0.89666665 0
-0.029848747 0.21758166 0.89600003 1.1974516e-39
-0.026145708 0.21803051 0.89600003 2.5800343e-39
-0.021993814 0.21758166 0.89600003 4.2381263e-39
-0.018066347 0.21758167 0.89600003 4.3317513e-39
-0.014143849 0.2176632 0.8963334 3.0438977e-39
-0.010413923 0.21750757 0.89649999 2.7651472e-39
-0.0062909601 0.21703899 0.89699996 3.0413628e-39
-0.00340848 0.21685693 0.89733332 3.5938009e-39
-0.094186954 0.22217818 0.89680004 0
-0.037744883 0.22096996 0.89700001 1.4012985e-45
-0.033851605 0.22121631 0.898 1.8439126e-40
-0.029915374 0.22121631 0.898 4.1444873e-39
-0.02566424 0.2218461 0.89799994 4.3335323e-39
-0.02201836 0.2217572 0.89699996 3.9669078e-39
-0.01808651 0.22175722 0.89700001 2.857689e-39
-0.01417044 0.22200355 0.898 3.4094432e-39
-0.0118087 0.22200355 0.898 3.412662e-39
-0.093578026 0.22647543 0.89700001 0
-0.091902718 0.22622207 0.89600003 0
-0.01417044 0.22436529 0.898 3.5034339e-39
-0.0118087 0.22436529 0.898 4.7952321e-39
-0.092107855 0.22908877 0.898 0
-0.090432547 0.22962092 0.89700001 0
-0.088958867 0.23223776 0.898 0
-0.086206138 0.23398992 0.89666671 0
-0.084047787 0.23643349 0.89600003 0
-0.056205727 0.10370352 0.903 2.3970864e-39
-0.054501489 0.10347384 0.90100002 2.3970864e-39
-0.049818337 0.10240212 0.90200001 2.85771e-39
-0.045863692 0.10121554 0.90199995 3.0435418e-39
-0.041909929 0.10121554 0.90200007 3.3179875e-39
-0.037956156 0.1020063 0.90200001 2.9499084e-39
-0.034416176 0.10325029 0.90250003 2.8580603e-39
-0.030081939 0.10370352 0.903 2.8580701e-39
-0.057725869 0.10596095 0.90200001 1.0163323e-39
-0.032911532 0.10558017 0.90100002 2.4903638e-39
-0.030015312 0.10584347 0.90100002 2.3067096e-39
-0.02611356 0.10603897 0.90266669 2.5811287e-39
-0.060888004 0.11070459 0.90200001 1.5655362e-39
-0.059240751 0.1082131 0.90100002 1.1974866e-39
-0.025670992 0.10860804 0.90100002 2.8584415e-39
-0.021978207 0.10957298 0.90179998 2.5832923e-39
-0.018416388 0.11038298 0.90214282 2.4914512e-39
-0.014232682 0.11149621 0.90200001 3.0417523e-39
-0.01108282 0.11161982 0.903 2.6726195e-39
-0.061919838 0.11356252 0.90166664 1.0134513e-39
-0.01658741 0.11295236 0.90100002 3.0413992e-39
-0.014217779 0.11295236 0.90100002 2.8580701e-39
-0.0098782796 0.11340998 0.90149999 2.6729684e-39
-0.0063260263 0.1138676 0.90200001 2.6736859e-39
-0.00237489 0.11478635 0.90300006 2.7655214e-39
0.00079162995 0.11478634 0.903 2.5832923e-39
-0.064122029 0.11953612 0.903 8.2976067e-40
-0.062400255 0.11690175 0.90100002 6.4536941e-40
-0.0055291364 0.11611187 0.90100002 2.4907436e-39
-0.0020536794 0.11674377 0.90100002 2.5814846e-39
0.0021747909 0.11801884 0.90199995 2.3067026e-39
0.0063330396 0.11953612 0.903 2.3063327e-39
-0.065705284 0.12270264 0.903 1.1063476e-39
-0.063980013 0.12085112 0.90100002 9.219563e-40
0.0034227991 0.12137771 0.90100002 2.2141441e-39
0.0063260263 0.12177513 0.90199995 2.1215925e-39
0.0087079294 0.12270264 0.903 2.3956739e-39
-0.068871804 0.12586915 0.903 2.8018262e-40
-0.067214027 0.12493815 0.90200001 2.7767009e-40
0.0065823058 0.12453721 0.90100002 2.2119875e-39
0.0096540283 0.12644601 0.90259999 1.7528072e-39
0.010733781 0.13026828 0.90214288 1.4758574e-39
0.013457709 0.13061894 0.903 1.4747798e-39
0.01184815 0.13348915 0.90100002 1.4747798e-39
0.014244372 0.13373551 0.90266669 1.2903899e-39
0.016624229 0.1345771 0.903 1.1056385e-39
0.018183995 0.13803449 0.90179998 5.5354512e-40
0.019761529 0.14149137 0.90166664 2.7766869e-40
0.021997845 0.14195494 0.90259999 2.7803163e-40
0.022524197 0.14581245 0.90149999 9.4363439e-41
0.024540529 0.14645153 0.903 2.8866748e-42
-0.086096555 0.15086643 0.90100002 1.1056385e-39
0.025152091 0.14980146 0.90220004 3.6842939e-40
-0.09330976 0.15577841 0.90200001 1.1981929e-39
-0.090245813 0.15357623 0.903 1.2910919e-39
-0.087676309 0.1524462 0.90100002 1.1056385e-39
0.025304981 0.15419692 0.90199995 2.7731977e-40
-0.100537 0.15911762 0.903 5.5317378e-40
-0.098162115 0.15911762 0.903 6.4536941e-40
-0.095119208 0.15782836 0.90166664 8.2940474e-40
0.025304981 0.15815067 0.90199995 1.8404094e-40
-0.10528678 0.16386741 0.903 0
-0.10183842 0.16234639 0.90224999 1.4012985e-45
-0.098394439 0.16161875 0.90149999 2.7622816e-40
0.026065931 0.16192472 0.90100002 9.2198432e-41
-0.10528678 0.1662423 0.903 0
-0.10197064 0.16599683 0.90166664 2.8025969e-45
-0.09873458 0.16587409 0.90100002 1.1210388e-44
0.025304981 0.1660582 0.90199995 3.657389e-43
-0.10528679 0.17020045 0.90300006 0
-0.1027988 0.17001198 0.90199995 0
0.025152091 0.16973372 0.90220004 1.4012985e-45
-0.10528678 0.1741586 0.903 0
-0.10197064 0.17390144 0.90166664 0
0.022906424 0.17377286 0.90100002 0
0.024540529 0.1741586 0.903 0
-0.10528679 0.17811677 0.90300006 0
-0.10244388 0.17811699 0.90185714 0
0.022906426 0.17772226 0.90100002 0
0.024540529 0.17811674 0.90300006 0
-0.10528678 0.1820749 0.903 0
-0.10230191 0.18167496 0.90179998 0
0.022957269 0.1820749 0.903 0
-0.10528679 0.18603306 0.90300006 0
-0.1027988 0.18582705 0.90199995 0
0.022141969 0.18582702 0.90199995 0
-0.10528678 0.18999121 0.903 0
-0.10261786 0.19021265 0.90179998 9.1835496e-41
0.021870201 0.18944679 0.90166664 0
-0.10297974 0.19409347 0.90219992 0
0.018978957 0.19531608 0.90200001 0
0.02137401 0.1931577 0.903 0
-0.10261786 0.19811843 0.90179998 5.6051939e-45
0.015007655 0.19983879 0.90100002 0
0.017397448 0.19768833 0.90200001 0
-0.10528678 0.20344891 0.903 0
-0.10297974 0.20200275 0.90220004 1.4012985e-45
0.01184815 0.2029983 0.90100002 0
0.013975527 0.20224437 0.90233338 0
-0.10528678 0.20582378 0.903 0
-0.10347384 0.2061578 0.90100002 0
0.010274972 0.2058764 0.90149999 0
-0.10528679 0.20978193 0.90300006 0
-0.10302382 0.21052651 0.90166664 0
0.0063190134 0.21010718 0.90100002 0
0.0094995592 0.20899031 0.903 0
-0.10195151 0.21377954 0.90149999 0
0.0034257211 0.21421497 0.90166664 1.6609507e-39
0.0055414098 0.21294846 0.903 0
-0.10106476 0.21769825 0.90300006 0
-0.09873458 0.21800596 0.90100002 0
-0.0013170455 0.21843114 0.90166664 3.8685829e-39
0.0019786367 0.2175777 0.90250003 4.1498515e-39
-0.097754471 0.22106522 0.90166664 0
-0.033964701 0.22353511 0.90100002 4.0576755e-39
-0.030015312 0.22353509 0.90100002 1.5662719e-39
-0.097370483 0.22403127 0.903 0
-0.095681153 0.22615632 0.90200001 0
-0.094203964 0.23036432 0.903 0
-0.089454189 0.23511411 0.903 0
-0.087278306 0.23757812 0.90233338 0
-0.049352825 0.099501662 0.90799999 2.8609414e-39
-0.046168771 0.099501662 0.90799999 3.3186895e-39
-0.042188704 0.099501662 0.90799999 3.133948e-39
-0.039004654 0.099501662 0.90799999 3.1346514e-39
-0.054009676 0.10245954 0.90600002 2.5814776e-39
-0.049244121 0.10087102 0.90600002 3.2279162e-39
-0.037330218 0.10087102 0.90600002 3.3186895e-39
-0.034172025 0.10172094 0.90649998 3.0431775e-39
-0.030214317 0.10257262 0.90700001 2.6758383e-39
-0.027064452 0.10268571 0.90799999 2.5832923e-39
-0.061225522 0.10654743 0.90700001 1.5612511e-39
-0.059083827 0.10465413 0.9066667 1.1085294e-39
-0.02621058 0.10404806 0.90600002 2.6736733e-39
-0.022255644 0.10571314 0.9066667 2.6736733e-39
-0.018491309 0.10598046 0.90725005 2.8577044e-39
-0.014328239 0.10666578 0.90799999 2.7655158e-39
-0.011940199 0.1074618 0.90799999 2.6736733e-39
-0.062384039 0.11006506 0.90649998 2.0247221e-39
-0.01747372 0.10881361 0.90600002 2.39925e-39
-0.014304131 0.10966793 0.90649998 2.4900135e-39
-0.010110972 0.11008604 0.90714294 2.3971102e-39
-0.006363431 0.11056344 0.90733337 2.2141525e-39
-0.00238541 0.11131825 0.90700001 1.4794615e-39
-0.064406067 0.11449879 0.90700001 1.0137974e-39
-0.00238278 0.11357918 0.90600002 2.2159335e-39
0.00238541 0.11396872 0.90700001 2.1230246e-39
0.0055720932 0.11542193 0.90799999 2.0315409e-39
-0.06520208 0.11768022 0.90700006 1.0141519e-39
0.0039713001 0.11675622 0.90600002 2.1237365e-39
0.0063580247 0.11761492 0.90649998 2.4899995e-39
0.010138212 0.11867303 0.90700001 2.4896323e-39
0.013532226 0.11860597 0.90799999 1.9357579e-39
-0.066551268 0.12170061 0.90733337 1.1985432e-39
0.010643084 0.12215718 0.90600008 2.2130623e-39
0.014323272 0.12174474 0.90766668 2.3041803e-39
0.016716279 0.12338207 0.90799999 2.2123448e-39
-0.069100618 0.12469882 0.90600002 1.1056385e-39
0.01111964 0.12549308 0.90600002 2.0279535e-39
0.014302233 0.12633322 0.90633339 1.3850995e-39
0.017512292 0.12577009 0.90799999 1.7513666e-39
0.014561433 0.1299939 0.90600002 1.4747812e-39
0.018295642 0.12965412 0.90733337 1.1992733e-39
0.022023035 0.13081151 0.90799999 1.0148778e-39
0.02467641 0.13134219 0.90799999 1.2907388e-39
0.018721843 0.13400301 0.90600014 7.3793498e-40
0.022247754 0.13427874 0.90633339 7.3793498e-40
0.02467641 0.13373023 0.90799999 8.2941034e-40
0.0198565 0.13740698 0.90600002 8.2941034e-40
0.022239279 0.13820124 0.90600002 6.4501908e-40
0.02580581 0.1378939 0.90771437 7.3686019e-40
0.023033539 0.14058401 0.90600002 9.5082305e-41
0.026034586 0.14209077 0.90675008 9.4004706e-41
0.026770769 0.14577475 0.90700006 9.3996298e-41
-0.088162854 0.15170366 0.90600002 1.4747798e-39
-0.086574338 0.15011515 0.90600002 9.2449265e-40
0.027432652 0.14988282 0.90700001 3.6878812e-40
-0.093827002 0.15505165 0.90700001 1.6595213e-39
-0.090644702 0.15266535 0.90700001 1.6595213e-39
0.0277991 0.15408644 0.90600002 1.460153e-42
-0.1041629 0.15902644 0.90700001 9.2921502e-41
-0.10177749 0.15823132 0.90700001 4.6170122e-40
-0.098098651 0.1572428 0.90680009 9.219619e-40
0.027840009 0.15828918 0.90733337 1.8404234e-40
-0.10575405 0.16220789 0.90700006 0
0.0277991 0.16202903 0.90600002 1.8403673e-40
0.029452493 0.16238672 0.90799999 1.8439126e-40
-0.10738289 0.16624346 0.90733337 0
0.0277991 0.16600034 0.90600002 8.4077908e-45
0.029452493 0.16636679 0.90799999 9.2199834e-41
-0.10905382 0.17034684 0.90799999 0
-0.1072251 0.16997164 0.90600002 0
0.0277991 0.16997164 0.90600002 2.8025969e-45
0.030216068 0.17015924 0.90700001 7.1746481e-43
-0.10905382 0.17432693 0.90799999 1.4012985e-45
-0.10722511 0.17394292 0.90600002 0
0.027025295 0.17407152 0.90666676 0
0.030237693 0.17426351 0.90766668 2.8025969e-45
-0.10905382 0.17830698 0.90799999 0
-0.1072251 0.17791423 0.90600002 0
0.027035523 0.17811061 0.90700006 0
0.029452493 0.17830698 0.90799999 0
-0.10905382 0.18228704 0.90799999 4.2038954e-45
-0.10722511 0.18188554 0.90600002 0
0.026439387 0.18228529 0.90700006 0
0.029452493 0.18069501 0.90799999 0
-0.10905382 0.18626711 0.90799999 2.8025969e-45
-0.1072251 0.18585683 0.90600002 0
0.025928292 0.1859438 0.90720004 0
-0.10905382 0.19024718 0.90799999 0
-0.10722511 0.18982814 0.90600002 0
0.023033539 0.19141667 0.90600002 0
0.02467641 0.19024718 0.90799999 0
-0.10905382 0.19422725 0.90799999 1.4012985e-45
-0.10643084 0.19379944 0.90600002 0
0.023084387 0.19422725 0.90799999 8.4077908e-45
-0.10969062 0.1978889 0.90799999 1.4012985e-45
-0.10643084 0.19777074 0.90600008 0
0.0198565 0.19856501 0.90600002 0
0.021468688 0.19719476 0.90700001 0
-0.10984983 0.20218736 0.90799999 1.1210388e-44
-0.10643084 0.20174202 0.90600002 0
0.017967107 0.20176132 0.90679997 0
-0.10984983 0.20616746 0.90799999 1.4012985e-44
-0.10722511 0.20571333 0.90600002 0
0.011913899 0.20730186 0.90600002 0
0.014312459 0.20594126 0.90700001 0
0.016716279 0.20457542 0.90799999 0
-0.10905382 0.2101475 0.90799999 4.2038954e-45
-0.1072251 0.20968464 0.90600002 0
0.011144185 0.2101475 0.90799999 0
-0.10905382 0.21253556 0.90799999 0
-0.10569575 0.21417011 0.90649998 0
0.0066240928 0.21381316 0.9066667 0
0.0087561458 0.21253556 0.90799999 0
-0.10495891 0.21707231 0.90700001 0
-0.10245954 0.2184215 0.90600002 0
0.0039713001 0.2184215 0.90600002 6.362946e-39
0.0055720932 0.21810764 0.90799999 3.3233671e-39
-0.10177749 0.22184399 0.90700006 0
-0.099282496 0.22318704 0.90600002 0
0.0033411519 0.22157434 0.90720004 3.3168707e-39
-0.098826051 0.22600114 0.9066667 0
-0.097113624 0.22925183 0.90799999 0
-0.093133554 0.2332319 0.90799999 0
-0.089949496 0.23800798 0.90799999 0
-0.088357478 0.24119203 0.90799999 9.8090893e-45
-0.086765453 0.24119203 0.90799999 1.1210388e-44
-0.042281635 0.098125301 0.91000003 3.3168917e-39
-0.038292799 0.098923057 0.91000003 3.5023591e-39
-0.058236968 0.10291191 0.91000003 2.1201464e-39
-0.053450365 0.10131636 0.91000003 2.4921491e-39
-0.051854834 0.10131636 0.91000003 2.5843461e-39
-0.024730766 0.1029119 0.91000003 2.4917987e-39
-0.023135234 0.1029119 0.91000003 2.4917987e-39
-0.06302356 0.1076985 0.91000003 3.7710553e-39
-0.0167531 0.10450743 0.91000003 3.1346514e-39
-0.0143598 0.10450743 0.91000003 3.0421027e-39
-0.010902811 0.10663482 0.91000003 2.6736733e-39
-0.064619094 0.11009181 0.91000003 2.1172723e-39
-0.0023932999 0.10929404 0.91000003 2.0304801e-39
0.00079776667 0.11088957 0.91000003 2.0308374e-39
-0.065682784 0.11408063 0.91000003 9.2160317e-40
0.0031910664 0.1124851 0.91000003 1.847158e-39
0.0061162114 0.11408063 0.91000003 1.7553099e-39
0.0087754335 0.11567616 0.91000003 1.3861714e-39
0.0119665 0.1172717 0.91000003 2.3974339e-39
0.015157566 0.11886723 0.91000003 1.5669768e-39
-0.067810163 0.1220583 0.91000003 1.5669768e-39
0.018029526 0.12237741 0.91000003 2.2119861e-39
0.019944165 0.12604713 0.91000003 2.0265158e-39
0.021539701 0.1268449 0.91000003 1.7510079e-39
-0.071001232 0.12844044 0.91000003 3.7237825e-40
0.022337466 0.1292382 0.91000003 1.5669712e-39
0.024730766 0.13003597 0.91000003 1.5673257e-39
0.026858144 0.13429072 0.91000003 7.3686439e-40
0.027921833 0.13721585 0.91000003 7.3651266e-40
0.029517367 0.13881139 0.91000003 2.7732818e-40
0.030315135 0.14200246 0.91000003 2.7732818e-40
-0.081372201 0.14519353 0.91000003 9.2160177e-40
0.029517367 0.14599131 0.91000003 9.3640369e-41
-0.088552095 0.15077789 0.91000003 1.2014397e-39
-0.083765499 0.14918236 0.91000003 1.3825841e-39
0.029517367 0.14998013 0.91000003 2.7623656e-40
-0.09732753 0.1555645 0.91000003 1.7513666e-39
-0.094136462 0.15396896 0.91000003 1.9361082e-39
-0.091743164 0.15237342 0.91000003 1.9361082e-39
0.029517367 0.15396897 0.91000003 9.3643171e-41
-0.10450743 0.15716003 0.91000003 4.6457528e-40
-0.1029119 0.15716003 0.91000003 4.6457528e-40
0.029517367 0.15795779 0.91000003 9.2925706e-41
-0.10716666 0.16088295 0.91000003 0
0.029517367 0.1603511 0.91000003 2.7658689e-40
-0.10929403 0.16673324 0.91000003 4.2038954e-45
0.0311129 0.16593547 0.91000003 9.2198432e-41
-0.11009181 0.16992429 0.91000003 1.4012985e-45
0.0311129 0.16832876 0.91000003 1.44614e-42
0.032708433 0.17151983 0.91000003 2.155197e-42
-0.11088957 0.17391312 0.91000003 1.4012985e-45
0.032708433 0.17391312 0.91000003 8.4077908e-45
-0.11088958 0.17790197 0.91000003 0
0.0311129 0.17869973 0.91000003 0
-0.11088957 0.1818908 0.91000003 0
0.030315135 0.1818908 0.91000003 0
0.027921833 0.18747516 0.91000003 0
0.029517367 0.18428409 0.91000003 0
0.026858144 0.18960254 0.91000003 0
-0.11088957 0.19545284 0.91000003 0
0.024730766 0.19465506 0.91000003 7.0064923e-45
0.023135234 0.19704837 0.91000003 5.6051939e-45
-0.11088957 0.20023943 0.91000003 5.6051939e-45
0.019944165 0.20343049 0.91000003 0
-0.1124851 0.20662156 0.91000003 0
0.017550867 0.20582379 0.91000003 0
-0.1124851 0.20901486 0.91000003 0
-0.11088957 0.21061039 0.91000003 1.4012985e-45
0.0119665 0.21140817 0.91000003 0
0.015157566 0.2082171 0.91000003 0
-0.11009181 0.21380147 0.91000003 0
-0.1076985 0.21459924 0.91000003 0
0.0095731998 0.21380147 0.91000003 0
-0.10610297 0.21832214 0.91000003 1.4012985e-45
0.0071799001 0.21619476 0.91000003 0
0.0087754335 0.21619476 0.91000003 0
-0.10450743 0.22098136 0.91000003 0
0.0055843666 0.22098136 0.91000003 6.6380882e-39
-0.10184821 0.22576797 0.91000003 0
-0.098923057 0.2297568 0.91000003 0
-0.096529759 0.23215009 0.91000003 0
-0.094136462 0.2345434 0.91000003 0
-0.091743164 0.23534116 0.91000003 0
-0.091743164 0.23773447 0.91000003 0
-0.090679482 0.24065959 0.91000003 0
-0.0449204 0.095455848 0.91500002 3.5942016e-39
-0.0417118 0.095455848 0.91500002 3.7778684e-39
-0.039305352 0.095455848 0.91500002 3.8700641e-39
-0.048931152 0.098664448 0.91500002 2.6758383e-39
-0.046004135 0.097616307 0.91420001 3.0435488e-39
-0.041620627 0.096847989 0.91299999 3.594189e-39
-0.038179711 0.097452305 0.91366667 3.9629884e-39
-0.061731797 0.10261865 0.9145 1.475898e-39
-0.05769255 0.10176171 0.91400003 1.6627583e-39
-0.054086387 0.10055936 0.91400003 2.4003178e-39
-0.036096748 0.10026874 0.91500002 3.3179861e-39
-0.033398952 0.10072929 0.91433334 2.6758355e-39
-0.029647112 0.10095955 0.91400003 3.134664e-39
-0.025654335 0.10101523 0.9145 2.7669619e-39
-0.021642854 0.10206504 0.91433334 2.6754739e-39
-0.017627137 0.10336426 0.91400003 3.0424558e-39
-0.01524085 0.10347735 0.91500002 3.0424558e-39
-0.065508924 0.10615119 0.91500008 7.6382355e-39
-0.062743917 0.10546213 0.91366673 3.5867201e-39
-0.01203225 0.10508165 0.91500002 3.0424558e-39
-0.00882365 0.10668594 0.91500002 2.6733201e-39
-0.00561505 0.10668595 0.91500008 2.6729712e-39
-0.068182752 0.1106967 0.91500002 9.2921502e-41
-0.066032723 0.10925414 0.91299999 3.8664739e-39
-0.0088043632 0.10805354 0.91299999 2.6729698e-39
-0.0056027765 0.10805355 0.91299999 2.4900219e-39
-0.0016016698 0.1081719 0.91400003 2.0308374e-39
0.0018693454 0.11026801 0.91366673 2.5818532e-39
0.0052117836 0.11103684 0.9145 2.4896477e-39
0.00882365 0.11149885 0.91500002 2.2152189e-39
-0.068182752 0.1139053 0.91500002 5.5317798e-40
-0.066432923 0.11285593 0.91299999 4.6026909e-40
0.0072035696 0.11365633 0.91299999 1.7549638e-39
0.0096152797 0.11377993 0.91400003 1.7549624e-39
0.012567016 0.11417268 0.91500008 1.9393508e-39
-0.068083391 0.11774306 0.91366673 1.0141547e-39
0.010405156 0.11605751 0.91299999 1.6631171e-39
0.013939525 0.11679953 0.91380006 1.5709256e-39
0.017638095 0.1186529 0.9145 2.0279493e-39
-0.069202602 0.12157117 0.91433334 1.1056385e-39
0.018409124 0.12085988 0.91299999 1.5669768e-39
0.02005375 0.12272895 0.91500002 1.3861714e-39
-0.070753716 0.12575403 0.91366673 9.2339123e-40
0.022448365 0.12586872 0.9145 2.3031041e-39
0.024866648 0.12754184 0.91500002 1.7510079e-39
0.023211502 0.12886386 0.91299999 1.4747798e-39
0.025918067 0.12958682 0.91433334 1.6591654e-39
0.02807525 0.13075045 0.91500002 1.1985432e-39
0.026413089 0.13206545 0.91299999 1.1985432e-39
0.028830495 0.13373944 0.91350007 7.3793498e-40
0.030727459 0.13760248 0.91433334 4.6135089e-40
0.031215467 0.14006941 0.91299999 4.5992157e-40
0.033529866 0.14230141 0.91500008 2.7731556e-40
-0.0841337 0.14583087 0.91400003 1.5666167e-39
-0.082621448 0.14518915 0.91500002 1.1056385e-39
0.031215467 0.14567217 0.91299999 9.3638967e-41
0.033654355 0.14583173 0.91400003 1.7950633e-42
0.036096748 0.1459913 0.91500002 2.1678087e-42
-0.10026874 0.15160634 0.91500002 1.7549638e-39
-0.097862303 0.15160634 0.91500002 2.5811245e-39
-0.093784332 0.15149587 0.91433334 2.5803986e-39
-0.089741737 0.15063849 0.91400003 1.8453559e-39
-0.086076573 0.14890902 0.91420001 1.2007124e-39
0.031215467 0.14967418 0.91299999 9.2564171e-41
0.033654355 0.14983812 0.91400003 1.8403813e-40
0.036096748 0.15000205 0.91500008 9.2564171e-41
-0.10508165 0.1540128 0.91500002 1.6623856e-39
-0.10179941 0.1539 0.91433334 2.1212141e-39
-0.097702302 0.15375987 0.91349995 2.1201492e-39
-0.094446801 0.15287575 0.91299999 2.4881904e-39
0.031215467 0.15367615 0.91299999 9.3284439e-41
0.033654355 0.15384448 0.91400003 9.2199834e-41
0.036096748 0.15321064 0.91500002 9.1845305e-41
-0.10863215 0.15833738 0.9145 4.6133408e-40
-0.10611086 0.15736341 0.91349995 1.0145079e-39
-0.10165038 0.15607736 0.91299999 1.751717e-39
0.031215467 0.15767813 0.91299999 9.3284439e-41
0.033654355 0.15785085 0.91400003 9.3637566e-41
-0.11026917 0.16206557 0.91366667 8.4077908e-45
0.031215467 0.16168012 0.91299999 1.8439126e-40
0.033654355 0.1618572 0.91400003 7.1746481e-43
-0.1107123 0.16550641 0.91380006 8.4077908e-45
0.031215467 0.16408131 0.91299999 2.7658689e-40
0.033654355 0.16586357 0.91400003 5.6051939e-45
-0.11310314 0.17005581 0.91500002 8.4077908e-45
-0.11125513 0.16968408 0.91299999 1.4012985e-45
0.033654355 0.16986994 0.91400003 1.44614e-42
-0.11364599 0.17423451 0.91420001 4.2038954e-45
0.034492448 0.17406654 0.91500008 7.2447131e-43
-0.11378168 0.17788267 0.91400003 1.4012985e-45
0.032816261 0.17768805 0.91299999 7.0064923e-45
-0.11631175 0.18289021 0.91500002 0
-0.11378168 0.18188904 0.91400003 1.4012985e-45
0.031215467 0.18329082 0.91299999 0
0.032888148 0.18128589 0.91500002 3.629363e-43
-0.11684652 0.18636617 0.91500008 0
-0.11378169 0.18589541 0.91400003 1.4012985e-45
-0.11125513 0.18569201 0.91299999 9.8090893e-45
0.030727459 0.18622999 0.91433334 0
-0.12176638 0.1904304 0.91500008 1.1983265e-38
-0.11791606 0.19010957 0.91500008 8.2975787e-40
-0.11378169 0.18990177 0.91400003 2.8025969e-45
-0.11125513 0.18969399 0.91299999 0
0.029124325 0.18996987 0.91433334 0
-0.12112466 0.19331814 0.91500002 1.0143317e-38
-0.11751498 0.19371921 0.91500002 7.3792938e-40
-0.11378169 0.19390814 0.91400003 0
-0.11125513 0.19369598 0.91299999 1.4012985e-45
0.026442019 0.19390902 0.91400003 0
0.02807525 0.19331814 0.91500002 0
-0.11382289 0.19798611 0.91433334 0
0.023262348 0.19973534 0.91500002 0
0.024839472 0.19871666 0.91400003 2.8025969e-45
-0.11378168 0.20192087 0.91400003 1.1210388e-44
0.022436529 0.20192087 0.91400003 0
0.024866648 0.20133965 0.91500002 0
-0.11631175 0.2053504 0.91500002 3.0424572e-39
-0.11386655 0.20547119 0.91339999 9.3281636e-41
0.018409124 0.20730272 0.91299999 0
0.021328423 0.20574157 0.91460001 0
0.014407139 0.21050432 0.91299999 0
0.017367644 0.20974337 0.91433334 0
-0.11285593 0.2137059 0.91299999 1.8548007e-40
-0.11125513 0.2153067 0.91299999 0
0.010405156 0.2153067 0.91299999 8.4077908e-45
0.013624777 0.21397342 0.91414291 1.4012985e-45
-0.11310314 0.21738265 0.91500002 1.3850995e-39
-0.11002324 0.2179637 0.91339999 3.61535e-43
0.0072035696 0.21850827 0.91299999 9.5432629e-41
0.0098791569 0.21813425 0.91366667 9.8090893e-45
0.01203225 0.21738265 0.91500002 2.3822074e-44
-0.10863215 0.22167392 0.9145 0
-0.10591915 0.22277705 0.91299999 0
0.0068112612 0.22235377 0.91400003 4.3328233e-39
0.009622586 0.22211519 0.91466677 4.1498697e-39
0.01203225 0.2229977 0.91500002 2.6772536e-39
-0.10553985 0.22577469 0.91433334 0
-0.10325117 0.22651224 0.91299999 0
0.0064110635 0.22515781 0.91400003 1.2892983e-39
0.00882365 0.22540416 0.91500002 3.4112383e-39
-0.10206101 0.23023458 0.91380006 2.8025969e-45
-0.10080352 0.23396042 0.91500008 4.2038954e-45
-0.097987078 0.23415385 0.91366667 0
-0.09770187 0.23791769 0.91500008 3.643376e-43
-0.094606891 0.23803797 0.91300005 1.4012985e-44
-0.045067675 0.089330569 0.91799998 4.1488061e-39
-0.049198534 0.095977463 0.92000002 2.9527839e-39
-0.045872457 0.093890987 0.9180001 3.4116167e-39
-0.042146623 0.093691111 0.91866672 3.5949303e-39
-0.037879597 0.095370226 0.91933334 3.7796677e-39
-0.060489997 0.099203601 0.92000002 1.7520645e-39
-0.058070399 0.099203601 0.92000002 1.8457091e-39
-0.053634465 0.098800339 0.92000002 2.6758285e-39
-0.050201438 0.097985618 0.91866672 2.6758383e-39
-0.036254548 0.098289236 0.91900003 3.5945772e-39
-0.033837579 0.098289236 0.91899997 3.3186938e-39
-0.029809296 0.098289236 0.91900003 3.0431789e-39
-0.026040506 0.098522142 0.91866672 2.7683912e-39
-0.02175945 0.099131718 0.9193334 3.1353731e-39
-0.017743733 0.099203601 0.92000002 3.1346514e-39
-0.065187179 0.10381661 0.91799998 1.4769602e-39
-0.06201306 0.10120707 0.91866672 1.5687845e-39
-0.057944156 0.10059749 0.91799998 1.3865302e-39
-0.020924278 0.10059749 0.91799998 2.6761914e-39
-0.017714364 0.10145707 0.91850001 2.7673066e-39
-0.013696162 0.10258608 0.91900003 2.7669381e-39
-0.066796735 0.10542617 0.91799998 3.31008e-39
-0.0096678799 0.10473449 0.91900003 2.6733173e-39
-0.0059651905 0.1049647 0.91960001 2.6733243e-39
-0.0024195998 0.1064624 0.92000002 2.3985353e-39
-0.068406299 0.1086453 0.91799998 3.657389e-43
