# .PCD v0.7 - Point Cloud Data file format
VERSION 0.7
FIELDS x y z rgb
SIZE 4 4 4 4
TYPE F F F F
COUNT 1 1 1 1
WIDTH 1012
HEIGHT 1
VIEWPOINT 0 0 0 1 0 0 0
POINTS 1012
DATA ascii
0.039090566 0.20582379 0.91000003 1.8439126e-40
0.037495032 0.21061039 0.91000003 2.8025969e-45
0.035899498 0.21459924 0.91000003 4.2038954e-45
0.034702849 0.2173914 0.91000003 2.8025969e-45
0.032708433 0.2225769 0.91000003 1.44614e-42
-0.11328286 0.23294786 0.91000003 2.2141343e-39
-0.11088957 0.23534116 0.91000003 3.3631163e-44
-0.10929403 0.23773447 0.91000003 0
-0.10610297 0.2417233 0.91000003 1.1210388e-44
0.089349866 0.24650989 0.91000003 7.4010279e-40
0.081771083 0.25009984 0.91000003 9.2232904e-40
0.086318351 0.24938188 0.91000003 7.3831053e-40
0.090147637 0.24970095 0.90999997 8.2981112e-40
0.093338698 0.2489032 0.91000003 1.6570494e-39
-0.0288774 0.1026752 0.91500002 1.2028704e-39
-0.025936184 0.10294259 0.91500008 2.0326227e-39
-0.023262348 0.10347735 0.91500002 2.8609414e-39
-0.048824195 0.10645276 0.91299999 3.1342983e-39
-0.045722552 0.1058838 0.91500008 3.3179735e-39
-0.0417118 0.10588379 0.91500002 3.7796677e-39
-0.039305352 0.10508165 0.91500002 3.964059e-39
-0.028814279 0.10485195 0.91299999 2.6754599e-39
-0.025612693 0.10485195 0.91299999 3.4119488e-39
-0.021633502 0.10576808 0.91400003 3.3204958e-39
-0.0176473 0.10668594 0.91500002 2.7683926e-39
-0.01524085 0.10668594 0.91500002 2.9527839e-39
-0.060161248 0.1106967 0.91500002 2.4885715e-39
-0.057734054 0.10985392 0.91466665 2.4885744e-39
-0.053994425 0.10878854 0.91380006 2.8570107e-39
-0.049624592 0.10805354 0.91299999 3.0417523e-39
-0.0472234 0.10805354 0.91299999 3.1328914e-39
-0.020009914 0.10805354 0.91299999 3.136815e-39
-0.017608726 0.10805354 0.91299999 3.5034339e-39
-0.013303066 0.10883659 0.91420001 3.5030794e-39
-0.0093519883 0.11034808 0.91433334 3.2272156e-39
-0.0060091116 0.11057484 0.91400003 3.2283016e-39
-0.0016034233 0.11057484 0.91400003 3.1353661e-39
0.0016043 0.11149885 0.91500002 3.8722165e-39
-0.064974152 0.11470745 0.91500002 8.3265015e-40
-0.061699212 0.11378052 0.91399997 1.6620437e-39
-0.058428954 0.11365633 0.91299999 2.0297556e-39
0.00240645 0.11310314 0.91500002 3.7800208e-39
0.00401075 0.11470745 0.91500002 3.4112383e-39
-0.065752633 0.11787252 0.91466677 3.6951119e-40
-0.062831134 0.1172581 0.91299999 1.0145261e-39
0.0060099885 0.11658482 0.91400003 3.0428243e-39
0.0096152797 0.11858758 0.91400003 2.8584317e-39
0.01203225 0.11952035 0.91500002 3.1342983e-39
-0.068717517 0.12219419 0.91500008 7.3756504e-40
-0.065899327 0.12139349 0.91299999 2.7694422e-40
0.014685044 0.12148174 0.91366673 2.6747593e-39
0.01762889 0.12259482 0.91400003 2.8577114e-39
-0.069700889 0.12578025 0.91385722 3.6986432e-40
-0.066432923 0.12406148 0.91299999 1.0761972e-42
0.018409124 0.12406148 0.91299999 2.7655158e-39
0.02117363 0.12600844 0.91385722 2.2137769e-39
-0.070512928 0.12980628 0.91400003 3.6987133e-40
0.02647095 0.12914614 0.91500002 2.8580645e-39
0.028814279 0.12886386 0.91299999 3.1342997e-39
-0.072995648 0.13476121 0.91500002 7.3756504e-40
-0.070512928 0.13381265 0.91400003 6.4573375e-40
-0.072995648 0.13796979 0.91500002 1.8690519e-40
-0.070434898 0.13766822 0.91299999 5.5533038e-40
-0.0737978 0.14198056 0.91500008 5.5534859e-40
-0.071235299 0.14167021 0.91299999 5.5606466e-40
-0.073718026 0.14583173 0.91400003 7.3938112e-40
-0.076522037 0.15023831 0.91400003 1.4744238e-39
-0.073636487 0.14807338 0.91299999 7.3865805e-40
-0.070434898 0.14807338 0.91299999 2.8025969e-45
-0.081492886 0.15416738 0.91433334 1.5662523e-39
-0.079412848 0.15321064 0.91500002 1.3818779e-39
-0.074436881 0.15447655 0.91299999 0
-0.1049668 0.15865123 0.91400003 2.1212113e-39
-0.10221758 0.15833738 0.9145 2.1208596e-39
-0.097648382 0.15927893 0.91299999 2.3963773e-39
-0.093782 0.15951155 0.91433334 1.8457203e-39
-0.089508548 0.15897678 0.91433334 1.9354048e-39
-0.085736245 0.1570487 0.91399997 1.38331e-39
-0.082440853 0.15607734 0.91299999 1.4747798e-39
-0.10829025 0.16283645 0.91500002 7.4045452e-40
-0.10656935 0.16185632 0.91400003 1.2921892e-39
-0.11310314 0.16764934 0.91500002 5.5282345e-40
-0.11030921 0.1653288 0.91400003 6.4608547e-40
-0.11631175 0.17085795 0.91500002 0
-0.11378169 0.16986994 0.91400003 9.2201235e-41
-0.11125513 0.16888368 0.91299999 8.2724394e-40
-0.11685177 0.17423452 0.91420001 0
-0.11445672 0.17288567 0.91299999 9.8090893e-45
0.045722552 0.1748687 0.91500002 7.3848429e-43
-0.11698678 0.17788267 0.91400003 0
-0.11694383 0.18182212 0.91366673 0
0.045155641 0.18195421 0.91433334 7.2026741e-43
-0.12112466 0.18690094 0.91500002 1.1338983e-38
-0.11881258 0.18556023 0.91366673 2.120138e-39
0.044070031 0.18589628 0.91400003 9.1845305e-41
-0.12206049 0.18929379 0.91299999 1.2626482e-38
-0.12246068 0.19289558 0.91299999 1.1705971e-38
0.042513952 0.19412029 0.91500002 1.8034711e-42
0.042513952 0.19813105 0.91500008 9.2917299e-41
0.04082023 0.20250034 0.91299999 2.7658689e-40
-0.1192591 0.20570193 0.91299999 5.4399121e-39
0.04082023 0.20490155 0.91299999 3.6878252e-40
-0.1192591 0.20970392 0.91299999 8.2061453e-39
0.039219435 0.20970392 0.91299999 7.2026741e-43
-0.1192591 0.2121051 0.91299999 1.1243919e-38
0.038630668 0.21430694 0.91420001 7.0064923e-45
0.037139982 0.21829264 0.91433334 1.2611686e-44
0.034417056 0.22251025 0.91299999 1.0860063e-42
0.03672269 0.22177826 0.91460001 2.7661071e-40
0.031215467 0.22651224 0.91299999 2.7660931e-40
0.033654355 0.22595908 0.91400003 3.7095593e-40
-0.11614226 0.22988275 0.91366673 6.6380854e-39
-0.11631175 0.23342565 0.91500002 6.8221039e-39
-0.11470745 0.23502994 0.91500002 5.0732764e-39
-0.11344241 0.23770817 0.9145 2.952421e-39
-0.11137699 0.23878032 0.91400003 2.776771e-40
0.085830055 0.23984283 0.91500008 1.3861911e-39
0.0898408 0.23984283 0.91500002 1.294364e-39
0.055348348 0.2422493 0.91500002 1.662415e-39
0.056952652 0.2422493 0.91500002 1.7546106e-39
0.071391352 0.24305144 0.91500002 1.6627667e-39
0.0737978 0.24305144 0.91500002 1.8450056e-39
0.078209624 0.24265036 0.91500002 1.6616948e-39
0.081819296 0.2422493 0.91500002 1.4776692e-39
0.085830055 0.2422493 0.91500008 1.5694935e-39
0.0898408 0.24224928 0.91500002 1.6606129e-39
0.093851551 0.2422493 0.91500008 1.0163281e-39
0.097862303 0.24224928 0.91500002 1.3825799e-39
0.055348348 0.24465574 0.91500002 1.9354076e-39
0.056952652 0.24465574 0.91500002 2.396027e-39
0.077732563 0.24601966 0.91411114 1.6598899e-39
0.081700072 0.24590002 0.91366673 1.6588179e-39
0.085662887 0.24578118 0.91322219 1.2914675e-39
0.089644425 0.24492136 0.91299999 1.3825869e-39
0.093714789 0.24590002 0.91366673 9.2270459e-40
0.097826943 0.24616975 0.91466665 1.4762371e-39
0.10026874 0.24545789 0.91500002 1.2025537e-39
-0.053920262 0.10381661 0.91799998 3.4112397e-39
-0.050701138 0.10381661 0.91799998 3.6863861e-39
-0.03299598 0.10301183 0.91799998 2.1237267e-39
-0.031386416 0.10301183 0.91799998 1.4791028e-39
-0.060489997 0.10726893 0.92000002 3.1342983e-39
-0.057636011 0.10600083 0.91950005 3.4116054e-39
-0.053920262 0.10623096 0.9180001 3.2265023e-39
-0.050701138 0.10623095 0.91799998 3.2257708e-39
-0.042746268 0.10565586 0.92000002 3.7796677e-39
-0.020947948 0.10473448 0.91900003 3.1364689e-39
-0.017723568 0.10554102 0.91900003 2.8605883e-39
-0.013697039 0.1063458 0.91899997 3.1364563e-39
-0.0096783992 0.10726893 0.92000002 3.5967142e-39
-0.06558957 0.11065724 0.91799998 2.3048921e-39
-0.062467009 0.11009256 0.91857153 2.4892834e-39
-0.0096573597 0.1086453 0.91799998 3.6878252e-39
-0.0056387195 0.10916604 0.91900003 3.595638e-39
-0.066308729 0.11409291 0.91866672 1.4758602e-39
0.0056395959 0.11386526 0.91900003 3.595275e-39
0.0096783992 0.11533426 0.92000002 3.2275813e-39
-0.06880869 0.11870504 0.91799998 8.2976067e-40
0.0096573597 0.11669309 0.91799998 3.1357416e-39
0.013897795 0.11822902 0.91900003 3.2272086e-39
0.016937198 0.1185604 0.92000002 2.6758383e-39
-0.07082063 0.12232655 0.91799998 7.393629e-40
0.017734528 0.1209138 0.91949999 2.949907e-39
0.020141415 0.12245893 0.91900003 2.859854e-39
-0.073341355 0.12653281 0.9193334 6.4609528e-40
-0.071625412 0.12474089 0.91799998 8.2976067e-40
0.02333862 0.12635045 0.91799998 2.489282e-39
0.025502816 0.12751526 0.91866672 2.3970878e-39
0.0281673 0.12796001 0.91799998 2.7655158e-39
-0.073234975 0.13037436 0.91799998 7.3721612e-40
-0.074121289 0.13373987 0.91900003 7.3721612e-40
-0.076620668 0.13872373 0.92000002 5.5461712e-40
-0.074953251 0.1378161 0.91933334 5.5389965e-40
-0.076620668 0.14194986 0.92000002 2.7948057e-40
-0.077199265 0.14617752 0.91920006 1.3825925e-39
-0.078658037 0.15006664 0.91866672 1.8428378e-39
-0.085895792 0.15525766 0.92000002 1.6580836e-39
-0.082475051 0.15286086 0.91933334 1.8424819e-39
-0.079673216 0.15210341 0.91799998 1.5669768e-39
-0.11210813 0.15888706 0.92000002 1.8693041e-40
-0.11049506 0.15888706 0.92000002 1.3851149e-39
-0.1040428 0.15727401 0.92000002 2.2123448e-39
-0.10162319 0.15727401 0.92000002 2.2119931e-39
-0.098290108 0.15790783 0.91900003 2.1205289e-39
-0.094261825 0.15790784 0.91900003 1.8449958e-39
-0.090534538 0.15769656 0.91933334 2.0283081e-39
-0.11331794 0.16251646 0.92000002 3.7023286e-40
-0.11039829 0.16229343 0.91919994 8.3085228e-40
-0.10703573 0.1601512 0.91799998 1.3861714e-39
-0.11694734 0.1669524 0.92000002 0
-0.11446592 0.16605514 0.91950005 9.2915897e-41
-0.12017346 0.17098507 0.92000002 5.4381002e-39
-0.11776192 0.16963394 0.9188 2.3956248e-39
-0.11508354 0.16819902 0.91799998 0
-0.12017346 0.1742112 0.92000002 3.3176119e-39
-0.11830265 0.17302769 0.91799998 0
0.047482017 0.17463724 0.91799998 1.8202867e-42
-0.11991222 0.17785637 0.91799998 8.2870409e-40
0.046879575 0.17833398 0.9188 9.220684e-41
0.049198534 0.17824388 0.92000002 6.4466876e-40
-0.12152177 0.18268505 0.91799998 1.2353849e-38
-0.11991221 0.18188027 0.91799998 5.5281505e-40
0.047585469 0.18227652 0.92000002 9.3278834e-41
0.049736224 0.18200767 0.92000002 9.1980811e-40
-0.12246069 0.18610755 0.91900003 1.226093e-38
-0.11991221 0.18429461 0.91799998 1.5665998e-39
0.046728965 0.18610668 0.91900003 9.4719368e-41
0.049198534 0.18550266 0.92000002 7.3756504e-40
0.045591228 0.18993263 0.9188 4.6098796e-40
0.045004558 0.19405192 0.92000002 1.8727233e-40
0.044359334 0.1984072 0.92000002 1.8546886e-40
0.042653337 0.20199977 0.91799998 9.1845305e-41
0.042746268 0.20485947 0.92000002 4.6062362e-40
0.041043781 0.20924279 0.91799998 1.4363309e-42
0.041133203 0.21373133 0.92000002 9.1848108e-41
0.039434217 0.21890014 0.91799998 1.8406055e-40
0.041133199 0.21776399 0.92000002 3.6952941e-40
0.039520133 0.2226032 0.92000002 5.5571153e-40
-0.11669309 0.22694796 0.91799998 6.2678819e-39
0.037536409 0.22601764 0.9188 1.1092398e-39
0.037907068 0.22824894 0.92000002 1.3858211e-39
0.066135734 0.23147507 0.92000002 1.8471566e-39
0.070168406 0.23147509 0.92000002 1.7549638e-39
0.074201062 0.23147507 0.92000002 1.9389935e-39
0.078233734 0.23147509 0.92000002 2.397808e-39
0.099203601 0.23147507 0.92000002 2.4889289e-39
0.10081666 0.23147507 0.92000002 2.4889289e-39
0.054037731 0.2347012 0.92000002 2.6740264e-39
0.058070399 0.23470119 0.92000002 2.5811217e-39
0.062471699 0.23497602 0.91950005 2.0297486e-39
0.066087812 0.23452996 0.9193334 1.6631171e-39
0.070117556 0.23452994 0.91933334 1.6624122e-39
0.074147299 0.23452994 0.9193334 1.7546092e-39
0.078177042 0.23452994 0.91933334 1.7545994e-39
0.08206968 0.23427582 0.91960001 2.0301269e-39
0.086654544 0.23497602 0.91950005 2.1215813e-39
0.090283066 0.23457274 0.91950005 1.8464363e-39
0.094364397 0.23389468 0.92000002 2.2134266e-39
0.098397069 0.23389465 0.92000002 1.8453643e-39
0.10081666 0.23389465 0.92000002 1.7531659e-39
0.047585469 0.23954038 0.92000002 2.2145154e-39
0.050005067 0.23873386 0.92000002 2.3074145e-39
0.053985134 0.23769628 0.91911113 2.3978165e-39
0.057986241 0.23758134 0.91866672 2.4892904e-39
0.061800174 0.23773971 0.91850007 2.12231e-39
0.065991953 0.23821487 0.91799998 1.5713026e-39
0.070015863 0.23821488 0.9180001 1.7546106e-39
0.074039757 0.23821487 0.91799998 2.0301213e-39
0.078063659 0.23821488 0.9180001 2.3041845e-39
0.082284629 0.23783474 0.91839999 2.1201618e-39
0.085956722 0.23773971 0.91850007 1.5702208e-39
0.090335943 0.23783474 0.91839999 1.6624136e-39
0.094227642 0.23758133 0.91866672 1.7535345e-39
0.098254465 0.23758134 0.91866672 1.8432091e-39
0.10155015 0.23775433 0.9193334 7.4080624e-40
0.1040428 0.23792732 0.92000002 5.5788214e-40
0.058346551 0.24183637 0.91799998 1.8464489e-39
0.069814652 0.24203756 0.9180001 1.6627723e-39
0.074039757 0.24143398 0.91799998 1.93829e-39
0.077741742 0.24127303 0.91800004 1.9372068e-39
0.082087554 0.24062921 0.91799998 2.1197974e-39
0.094159245 0.24062923 0.91799998 1.2014383e-39
0.098183155 0.24062921 0.91799998 9.2449405e-40
0.10147651 0.2424141 0.91866672 1.2929543e-39
0.1040428 0.24115348 0.92000002 1.6645814e-39
-0.025084062 0.10276374 0.92299998 1.662415e-39
-0.022656571 0.10276374 0.92299998 2.6762026e-39
-0.061766133 0.10653983 0.92300004 3.1350172e-39
-0.059068918 0.10600039 0.92299998 3.4108852e-39
-0.0064733066 0.10761871 0.92299998 3.5967198e-39
-0.07409624 0.11432321 0.92299998 2.2130567e-39
-0.069183461 0.1144966 0.92299998 1.6595213e-39
0.0097099598 0.11328286 0.92299998 2.0301227e-39
0.012137448 0.11571035 0.92299998 2.4910967e-39
-0.073310189 0.117976 0.92299998 1.3829344e-39
-0.070397206 0.11813784 0.92299998 1.1985432e-39
-0.072986528 0.12185998 0.92299998 1.0148708e-39
0.020229081 0.12056533 0.92299998 2.9491461e-39
0.026702389 0.12703863 0.92299998 2.118689e-39
-0.075252183 0.13108444 0.92299998 1.0141519e-39
-0.076870508 0.13513026 0.92299998 6.4501908e-40
-0.075252183 0.13351195 0.92299998 9.2160738e-40
-0.077679679 0.13836692 0.92299998 4.6206696e-40
-0.078488842 0.14241274 0.92299998 3.716762e-40
-0.080107167 0.14645857 0.92299998 1.2903885e-39
-0.078488842 0.14484023 0.92299998 7.4045171e-40
-0.081078164 0.14937155 0.92299998 1.6588081e-39
-0.089007959 0.15455019 0.92299998 1.7510079e-39
-0.086041033 0.15347132 0.92300004 2.0261417e-39
-0.11490119 0.15940516 0.92299998 4.4170763e-39
-0.10923705 0.15940516 0.92299998 1.3861714e-39
-0.10680955 0.15859601 0.92299998 1.8453559e-39
-0.097099595 0.15616851 0.92299998 2.4885786e-39
-0.093862936 0.15616851 0.92299998 2.303453e-39
-0.090626284 0.15616851 0.92299998 2.4864107e-39
-0.11732867 0.16183266 0.92299998 5.4348506e-39
-0.11490119 0.16183266 0.92299998 2.0225333e-39
-0.10923705 0.1610235 0.92299998 1.0177477e-39
-0.12056533 0.1674968 0.92299998 1.2442442e-38
-0.11829968 0.16555481 0.92299998 7.0979481e-39
-0.12056533 0.16911513 0.92299998 1.0781847e-38
0.050977286 0.17801592 0.92299998 1.6588249e-39
-0.12380198 0.18368007 0.92299998 1.3458391e-38
-0.12380198 0.18529838 0.92299998 1.2997413e-38
0.047740631 0.1917717 0.92299998 1.1056385e-39
0.04935896 0.1893442 0.92299998 9.2340524e-40
0.046122309 0.19743584 0.92299998 1.8763246e-40
0.044503979 0.20229082 0.92299998 4.6062782e-40
0.042885654 0.20795497 0.92299998 5.5282345e-40
0.044503979 0.20552747 0.92299998 6.4537361e-40
0.042885654 0.20957328 0.92299998 2.7589044e-40
0.041267328 0.22171074 0.92299998 1.7524639e-39
0.039648999 0.2273749 0.92299998 1.3858211e-39
0.04191466 0.22608022 0.92299998 1.5694963e-39
0.045582861 0.22683546 0.92300004 2.1208722e-39
0.050168123 0.2273749 0.92299998 2.5807742e-39
0.038030677 0.23007208 0.92300004 1.7549652e-39
0.041267328 0.22899319 0.92299998 1.7546106e-39
0.047740631 0.22980237 0.92299998 2.5822077e-39
0.050168123 0.22980236 0.92299998 2.76552e-39
0.052595612 0.23061153 0.92299998 2.7655158e-39
0.058259755 0.23061153 0.92299998 1.8468063e-39
0.06311474 0.23061153 0.92299998 2.0308374e-39
0.066351391 0.23061153 0.92299998 1.1124782e-39
0.069588043 0.23061153 0.92299998 1.7546106e-39
0.074038438 0.23020697 0.92299998 1.9389935e-39
0.077409953 0.23007211 0.92300004 2.2155776e-39
0.08091633 0.23061153 0.92299998 2.3981724e-39
0.085771307 0.23061153 0.92299998 2.5811245e-39
0.091435447 0.23061153 0.92299998 2.3070642e-39
0.093862936 0.23061153 0.92299998 2.305981e-39
0.097908758 0.23061153 0.92300004 2.4889289e-39
0.10195458 0.23061153 0.92299998 2.4885786e-39
0.10632405 0.22996421 0.92299998 4.6495363e-40
0.042885654 0.23303902 0.92299998 2.6729656e-39
0.0463246 0.23364587 0.92299992 2.9502742e-39
0.050168123 0.23384818 0.92299998 2.6747355e-39
0.054213941 0.23303902 0.92299998 2.7662346e-39
0.058259755 0.23303902 0.92299998 2.3981766e-39
0.062305577 0.23303902 0.92299998 2.1223128e-39
0.082534656 0.23222987 0.92299998 2.6733201e-39
0.085771307 0.23303902 0.92299998 2.4889289e-39
0.089493454 0.23287718 0.92299998 2.4889275e-39
0.093862936 0.23222987 0.92299998 2.4889303e-39
0.097099595 0.23222987 0.92299998 2.4889261e-39
0.10276374 0.2338482 0.92300004 1.7524442e-39
0.10600038 0.23384817 0.92299992 1.294008e-39
0.10680955 0.237894 0.92299998 4.4297371e-39
-0.02138789 0.1012569 0.92649996 2.1241064e-39
-0.018681329 0.10233987 0.92649996 3.5034367e-39
-0.041490879 0.10494751 0.92799997 3.413053e-39
-0.039863784 0.10494751 0.92799997 3.9662268e-39
-0.020272916 0.10460825 0.92500001 3.3208574e-39
-0.017840166 0.10460825 0.92500001 3.2290121e-39
-0.01216375 0.10623008 0.92500001 3.2290121e-39
-0.004067733 0.1082017 0.92799997 3.5027305e-39
-0.0016270932 0.11064234 0.92799997 3.6874693e-39
0.00081354659 0.11145588 0.92799997 3.8722165e-39
-0.072171584 0.11352833 0.92500001 2.3052439e-39
-0.070549749 0.11352833 0.92500001 1.9361082e-39
0.0065083727 0.11308298 0.92799997 2.9509874e-39
0.012730661 0.11458471 0.92699999 3.2304638e-39
-0.077286929 0.11877781 0.92799997 1.3825799e-39
-0.075415246 0.11920475 0.92500001 1.2903885e-39
0.015457386 0.11633717 0.92799997 1.1095944e-39
-0.077286929 0.12203199 0.92799997 7.3791817e-40
-0.075415246 0.12163749 0.92500001 1.0145051e-39
-0.077286929 0.12609974 0.92799997 1.0141519e-39
-0.075415246 0.12569208 0.92500007 1.0141519e-39
-0.077162005 0.12995574 0.92649996 1.2907388e-39
-0.075415246 0.12893574 0.92500001 8.2976067e-40
-0.078112222 0.13364941 0.92620003 1.381854e-39
-0.080541112 0.13830292 0.92799997 7.3866085e-40
-0.078658909 0.13785583 0.92500001 7.3830072e-40
-0.081180207 0.14206296 0.926 1.8763807e-40
-0.082335308 0.14599217 0.92619991 7.4080764e-40
-0.085284323 0.15107377 0.92649996 1.3847337e-39
-0.083524421 0.15001959 0.92500007 1.6591654e-39
-0.1082017 0.1553874 0.92799997 1.3858211e-39
-0.10576106 0.1553874 0.92799997 2.0276032e-39
-0.10161114 0.15444827 0.92724997 1.7528128e-39
-0.097922787 0.15443519 0.92620003 2.1205107e-39
-0.094218865 0.1543227 0.92649996 1.8439154e-39
-0.090128526 0.15346101 0.92620003 1.6591654e-39
-0.087049484 0.15213321 0.92799997 1.751717e-39
-0.11371242 0.15757161 0.92649996 0
-0.11005672 0.15757161 0.92649996 1.2932598e-39
-0.10634493 0.15721671 0.926 1.9368341e-39
-0.10217549 0.15650691 0.92500001 2.1198002e-39
-0.099742748 0.15650691 0.92500001 2.3956739e-39
-0.11920475 0.16299425 0.92500001 1.3548422e-38
-0.12082657 0.165427 0.92500001 1.2813375e-38
0.051087748 0.18083441 0.92500001 1.5669768e-39
0.047844082 0.19461998 0.92500001 1.0173889e-39
0.049626343 0.19281054 0.92799997 5.5642059e-40
0.047999252 0.19850537 0.92799997 1.2017858e-39
0.046222251 0.20191824 0.92500007 8.2905161e-40
0.046222251 0.20597282 0.92500001 1.0134499e-39
0.042978581 0.21164924 0.92500001 5.5282345e-40
0.04527913 0.20983927 0.92560005 9.2125705e-40
0.042978581 0.214082 0.92500001 1.8404794e-40
0.045663461 0.21401046 0.92679995 1.8432119e-39
0.042978581 0.21813658 0.92500007 2.7841839e-40
0.046077725 0.21807595 0.92671442 2.4903974e-39
0.050439887 0.21884404 0.92799997 2.3070642e-39
0.066710822 0.21884404 0.92799997 2.1237365e-39
0.070778556 0.21884404 0.92799997 2.6754879e-39
0.073219195 0.21884404 0.92799997 2.6758383e-39
0.095184952 0.21884404 0.92799997 2.6729698e-39
0.097625591 0.21884404 0.92799997 2.6729698e-39
0.10169333 0.21884404 0.92799997 2.3041873e-39
0.042978581 0.22219115 0.92500001 2.2123476e-39
0.046501245 0.22194065 0.92650008 2.4889373e-39
0.050385542 0.22185716 0.92699999 2.4889345e-39
0.053694077 0.22209823 0.92799997 2.0301185e-39
0.057719726 0.22193751 0.9273333 2.6726041e-39
0.061829545 0.22209823 0.92799997 2.1219484e-39
0.065897278 0.22209823 0.92799991 2.1222946e-39
0.069965005 0.22209823 0.92799997 2.6740418e-39
0.074032731 0.22209823 0.92799991 2.4907253e-39
0.078100473 0.22209823 0.92799997 2.4910841e-39
0.081625849 0.2226406 0.92799997 2.7669521e-39
0.086507127 0.22318296 0.92799997 2.7666088e-39
0.090303682 0.22291178 0.92799997 2.3988983e-39
0.094371408 0.22209823 0.92799997 2.3978193e-39
0.097882591 0.22212404 0.92714286 2.5807756e-39
0.10181387 0.22171403 0.92724997 2.304909e-39
0.10601054 0.22212404 0.92714292 1.9361475e-39
0.10950337 0.22242366 0.92799997 8.3196071e-40
0.042978581 0.22462392 0.92500001 1.4776664e-39
0.046492558 0.22570515 0.92500007 2.0293969e-39
0.050276831 0.22543484 0.92500001 1.7546106e-39
0.054331414 0.22624575 0.92500007 2.3056236e-39
0.058385998 0.22624576 0.92500007 2.7658829e-39
0.061663419 0.22636718 0.92550004 2.7658787e-39
0.065755263 0.22648859 0.92600006 2.0311779e-39
0.06988962 0.22673318 0.92699999 2.2148587e-39
0.073873192 0.22648859 0.92599994 2.6744061e-39
0.077932157 0.22648859 0.92600006 2.491447e-39
0.081866525 0.22649965 0.926875 2.5836412e-39
0.086143009 0.22673318 0.92699999 2.5822147e-39
0.09039627 0.22649965 0.92687505 2.2152245e-39
0.094066337 0.22624576 0.92500007 2.2145042e-39
0.098120913 0.22624575 0.92500007 2.2141469e-39
0.1021755 0.22624576 0.92500007 2.4885814e-39
0.10626778 0.2263267 0.92533344 1.2921934e-39
0.11033761 0.22635953 0.92679995 2.4921967e-39
0.039734915 0.23111124 0.92500001 2.123033e-39
0.042437971 0.23057064 0.92500007 2.2141469e-39
0.045411333 0.23030032 0.92500001 2.4900121e-39
0.054655787 0.23013814 0.92500001 2.3978165e-39
0.058385998 0.2294894 0.92500001 2.0308332e-39
0.061359357 0.23003003 0.92500007 2.3066984e-39
0.065684251 0.22948942 0.92500007 2.1223044e-39
0.069738835 0.2294894 0.92500001 2.0311877e-39
0.072982505 0.2294894 0.92500001 2.6729698e-39
0.078658909 0.2294894 0.92500001 2.5836426e-39
0.082605496 0.22963722 0.92559999 2.3985311e-39
0.085957162 0.2294894 0.92500001 2.5807742e-39
0.089518927 0.2298829 0.92550009 2.3063355e-39
0.094066329 0.2294894 0.92500001 2.0311933e-39
0.098120913 0.22948942 0.92500007 2.3978137e-39
0.10217549 0.2294894 0.92500001 2.2145154e-39
0.10460825 0.2294894 0.92500001 1.4783671e-39
0.11051891 0.22996159 0.92559999 6.0874689e-39
0.038113084 0.23435494 0.92500007 2.2137881e-39
0.11012248 0.23403053 0.92500001 7.9303053e-39
-0.038319096 0.10598899 0.93000001 3.6903433e-39
-0.013860099 0.1051737 0.93000001 3.044618e-39
-0.0097835995 0.1068043 0.93000001 3.5045199e-39
-0.0065223998 0.1068043 0.93000001 3.779316e-39
0.0073376996 0.1116961 0.93000001 4.524874e-39
0.0089683002 0.1116961 0.93000001 4.2479284e-39
-0.079084098 0.1198491 0.93000001 1.1056385e-39
-0.079084098 0.122295 0.93000001 5.5247033e-40
-0.079084098 0.1255562 0.93000001 6.4681275e-40
-0.079084098 0.1296327 0.93000001 1.3825813e-39
-0.080714695 0.13452449 0.93000001 1.7491988e-39
-0.081801765 0.1377857 0.93000001 6.4789034e-40
-0.083975896 0.1426775 0.93000001 4.6422496e-40
-0.083975896 0.14430809 0.93000001 5.5642059e-40
-0.088867702 0.15083049 0.93000001 1.109244e-39
-0.086421803 0.15001521 0.93000001 1.0173959e-39
-0.114142 0.15572229 0.93000001 1.4740483e-39
-0.1108808 0.15572229 0.93000001 7.3865805e-40
-0.1051737 0.1540917 0.93000001 2.1201492e-39
-0.1035431 0.1540917 0.93000001 1.570218e-39
-0.097835995 0.1524611 0.93000001 1.1095874e-39
-0.094574794 0.1524611 0.93000001 1.4769223e-39
-0.090498298 0.1524611 0.93000001 1.8439126e-39
-0.1100655 0.15735289 0.93000001 1.3858211e-39
0.049733296 0.19485669 0.93000001 9.2484297e-40
0.049733296 0.19730259 0.93000001 1.3861757e-39
0.048102695 0.20219439 0.93000001 1.7517212e-39
0.048102699 0.2062709 0.93000001 2.3963843e-39
0.048646227 0.21061915 0.93000001 3.0413978e-39
0.049733296 0.21360859 0.93000001 3.0413852e-39
0.070931099 0.21442389 0.93000001 3.133948e-39
0.0741923 0.21442389 0.93000001 2.9506273e-39
0.078268796 0.21442389 0.93000001 2.8591505e-39
0.081529997 0.21442389 0.93000001 3.1342983e-39
0.114142 0.21442389 0.93000001 5.2587634e-39
0.1174032 0.21360859 0.93000001 1.0601787e-38
0.050059415 0.21670674 0.93000001 2.5825664e-39
0.053809799 0.21850039 0.93000001 2.3981766e-39
0.057478648 0.21890804 0.93000001 2.1226673e-39
0.062234566 0.21877216 0.93000001 2.123026e-39
0.065806352 0.2172192 0.93000001 2.0315437e-39
0.069952749 0.21735898 0.93000001 2.4907366e-39
0.074425243 0.2172192 0.93000001 2.583644e-39
0.078268796 0.21768509 0.93000001 2.8587918e-39
0.082141474 0.21788889 0.92999995 3.0420999e-39
0.086150035 0.21877216 0.93000001 3.0421027e-39
0.089682996 0.21850039 0.93000001 2.6733201e-39
0.09343338 0.21833733 0.93000001 2.3059908e-39
0.09810777 0.21714155 0.93000001 2.3067124e-39
0.10150485 0.21727744 0.93000001 2.1208806e-39
0.10598899 0.21850039 0.93000001 2.3038328e-39
0.1100655 0.21768507 0.93000001 5.5498145e-40
0.114142 0.21768509 0.93000001 6.8239424e-39
0.11699555 0.21727744 0.93000001 1.0601802e-38
0.083432369 0.22148983 0.93000001 2.9502602e-39
0.086150035 0.22148983 0.93000001 2.7651654e-39
0.089682996 0.22094628 0.93000001 2.6736733e-39
0.092128903 0.22094628 0.93000001 2.3074145e-39
0.11115257 0.22148983 0.93000001 2.1902295e-42
0.114142 0.22094628 0.93000001 8.576367e-39
0.1133267 0.22746868 0.93000001 1.0143725e-38
0.1133267 0.22991461 0.93000001 9.8667765e-39
-0.040078569 0.10387711 0.93300003 2.8616995e-39
-0.038442709 0.10387711 0.93300003 2.4939637e-39
-0.013114933 0.10246041 0.935 4.9793277e-39
-0.010655883 0.10246041 0.935 5.8098465e-39
-0.013934616 0.10409978 0.93500006 2.8591477e-39
-0.010095402 0.10504191 0.93366671 2.5832811e-39
-0.0040984168 0.10737851 0.935 2.8573681e-39
-0.0013655545 0.10948544 0.93433332 3.6878266e-39
0.0013661388 0.11011079 0.93500006 3.595645e-39
0.0024590499 0.11229661 0.935 3.9644121e-39
0.0057377829 0.11229661 0.935 4.8895956e-39
0.013904809 0.11451019 0.93300003 5.0737584e-39
-0.079339206 0.11859985 0.93300003 1.7484898e-39
-0.081148647 0.12377217 0.935 4.5992157e-40
-0.081637248 0.12641388 0.93433332 7.3864824e-40
-0.081881545 0.13019025 0.93400002 1.3829373e-39
-0.084427379 0.13524774 0.935 1.3811226e-39
-0.082124673 0.13396314 0.93366671 1.7495464e-39
-0.084367186 0.13842654 0.93433332 4.6349628e-40
-0.082610928 0.13659431 0.93300003 1.1066951e-39
-0.085460097 0.14225057 0.93433332 6.4825328e-40
-0.086840406 0.14582516 0.93449998 1.4751343e-39
-0.11229661 0.15164141 0.935 4.5917748e-40
-0.10977927 0.15074062 0.93450004 5.5389825e-40
-0.10602108 0.15059292 0.9346 1.752433e-39
-0.10200105 0.15079105 0.93380004 1.3858225e-39
-0.098635226 0.15109496 0.93500006 1.20179e-39
-0.093935713 0.15098567 0.93500006 1.2017844e-39
-0.090068728 0.14984074 0.93400002 1.2014397e-39
-0.08703576 0.14869639 0.93366671 1.1099489e-39
-0.11268176 0.15415278 0.93366671 2.850859e-39
-0.10966179 0.15385281 0.93350005 1.0148862e-39
-0.10660355 0.1534982 0.93300003 1.9357579e-39
-0.10224126 0.15295291 0.93300003 1.3854708e-39
-0.092426084 0.15295291 0.93300003 1.751717e-39
0.04992938 0.20217305 0.93366671 2.2141286e-39
0.050766885 0.20633928 0.93400002 3.3179637e-39
0.050875247 0.20988083 0.93300003 2.767664e-39
0.05382587 0.21011215 0.93500006 2.7673136e-39
0.056558147 0.21065861 0.935 2.123033e-39
0.073771499 0.21065861 0.935 2.676197e-39
0.10737851 0.21065861 0.935 1.7546106e-39
0.10983756 0.21065861 0.935 1.7549638e-39
0.11229661 0.21065861 0.935 8.3299767e-40
0.054041535 0.21370737 0.93400002 2.1230288e-39
0.058197513 0.21393731 0.935 2.306697e-39
0.062295936 0.21393733 0.93500006 2.39925e-39
0.066100225 0.21385492 0.93374997 2.7662318e-39
0.069871217 0.2131615 0.93400002 3.1335808e-39
0.073692597 0.21288884 0.93400002 2.8587904e-39
0.077786639 0.21288887 0.93400002 2.767315e-39
0.081880666 0.21288885 0.93400002 2.5832909e-39
0.08580675 0.21433985 0.93471432 2.9499182e-39
0.090165168 0.21475703 0.935 2.8573611e-39
0.094439663 0.21427397 0.93442857 2.5825622e-39
0.098291866 0.21378362 0.93433332 3.1343067e-39
0.1018981 0.21397391 0.93414289 2.8570079e-39
0.10588709 0.21361712 0.93449998 1.8464405e-39
0.10968094 0.21363109 0.93366671 1.7528016e-39
0.11356303 0.21320696 0.9338572 2.3999702e-39
0.11803439 0.21229796 0.935 9.8656555e-39
0.053983375 0.21675146 0.93300003 2.6733201e-39
0.058400203 0.2174058 0.93300003 2.3978179e-39
0.061890036 0.21729675 0.93300003 2.0304787e-39
0.086291619 0.21716042 0.93300003 3.0417481e-39
0.089972302 0.21675146 0.93300003 2.8573625e-39
0.094061956 0.21675146 0.93300003 2.6729726e-39
0.09733367 0.21675146 0.93300003 3.0413992e-39
0.10305918 0.21675146 0.93300003 1.7546106e-39
0.1063309 0.21675146 0.93300003 1.7549638e-39
0.11451019 0.2232949 0.93300003 8.9448048e-39
0.11369226 0.22574869 0.93300003 9.0362998e-39
-0.017268579 0.10278916 0.93800002 3.1342983e-39
-0.014390483 0.10155569 0.93800002 2.6812907e-39
-0.017268579 0.10443379 0.93800002 3.7800208e-39
-0.0016446267 0.10772305 0.93800002 2.3999787e-39
0.0016472565 0.10783789 0.93900001 5.1655519e-39
0.0024669401 0.10936768 0.93800002 5.3477543e-39
0.0053564333 0.11083696 0.94 4.6141521e-39
0.0090647331 0.111249 0.94 4.5245657e-39
0.0041203331 0.11289713 0.94 2.6765417e-39
-0.081409015 0.12252469 0.93800002 8.2941034e-40
-0.084878862 0.12773032 0.94 1.1985432e-39
-0.083142191 0.12512401 0.93900001 2.7802182e-40
-0.084878862 0.13020253 0.94 1.1985432e-39
-0.085307851 0.1341335 0.9386667 1.2896626e-39
-0.086434945 0.13829504 0.93900001 7.4010559e-40
-0.088175133 0.14091539 0.94 1.8439126e-39
-0.087439321 0.14226022 0.93800008 1.1085126e-39
-0.10548053 0.14750792 0.94 1.5687732e-39
-0.10218427 0.14750792 0.94 1.9375516e-39
-0.099712059 0.14750792 0.94 1.6631171e-39
-0.093943596 0.14750792 0.94 2.0283039e-39
-0.090139739 0.14611578 0.93900001 1.6591668e-39
-0.10615498 0.1489445 0.9386667 1.751361e-39
-0.10196685 0.14883871 0.93800002 1.9375516e-39
-0.097609118 0.14962351 0.93880004 1.5709214e-39
-0.093743719 0.14883871 0.93800002 2.1204995e-39
-0.09127678 0.14883871 0.93800002 1.3854708e-39
-0.11430155 0.15377259 0.93800002 7.9266185e-39
0.051842563 0.1983172 0.9386667 2.0311877e-39
0.051805738 0.20228907 0.93800002 2.4914344e-39
0.053564329 0.20354445 0.94 2.6758383e-39
0.051805738 0.20475602 0.93800002 3.4112383e-39
0.054359905 0.20590663 0.93949997 3.2261688e-39
0.057684664 0.20684072 0.94 2.7658689e-39
0.062629066 0.20684072 0.94 3.1342983e-39
0.06592533 0.20684072 0.94 3.1342983e-39
0.070045665 0.20684072 0.94 3.226145e-39
0.074166 0.20684072 0.94 2.5832923e-39
0.085702926 0.20684072 0.94 2.6733201e-39
0.089823268 0.20684072 0.94 2.5811245e-39
0.093943596 0.20684072 0.94 2.8577114e-39
0.098393552 0.20618148 0.94 2.8584289e-39
0.10207556 0.20579661 0.93900001 2.7665976e-39
0.10589256 0.20642871 0.94 2.5814931e-39
0.11036576 0.20590663 0.93949997 1.6624108e-39
0.11336644 0.20614466 0.93933338 7.3972584e-40
0.11619339 0.20684072 0.94 2.6761914e-39
0.054546785 0.20859349 0.93800008 3.1339494e-39
0.057751294 0.20944969 0.93839997 2.4907324e-39
0.061716557 0.20983812 0.93866664 2.9506259e-39
0.065785065 0.2096899 0.93800008 2.950986e-39
0.069896631 0.20968989 0.93800002 2.9509846e-39
0.074008197 0.20886759 0.93800002 2.6758383e-39
0.078175284 0.20983775 0.93866676 2.4907324e-39
0.08228977 0.20983776 0.93866676 2.8584387e-39
0.086182907 0.21000637 0.93850005 2.7655284e-39
0.090183958 0.20964505 0.93885726 2.5814931e-39
0.093843952 0.20991229 0.93900007 2.8580701e-39
0.097900867 0.20978886 0.93844444 2.7662388e-39
0.10196686 0.2096899 0.93800008 2.4907338e-39
0.10587284 0.20948431 0.93800008 2.0308332e-39
0.11018999 0.20886759 0.93800002 1.662415e-39
0.11433638 0.20975326 0.93828583 1.6613206e-39
0.11736681 0.2096123 0.93949997 8.8515049e-39
0.087165214 0.21297914 0.93800002 3.0417523e-39
0.090454467 0.21297914 0.93800002 2.7651668e-39
0.093743719 0.21297914 0.93800002 2.4914456e-39
0.0066135731 0.10995065 0.94300002 5.261744e-39
-0.081842966 0.12152441 0.94300002 8.2941034e-40
-0.085149758 0.12648459 0.94300002 5.5317378e-40
-0.086803146 0.13144477 0.94300002 1.2903885e-39
-0.086803146 0.13392484 0.94300002 1.1985474e-39
-0.088456541 0.13888504 0.94300002 1.3854736e-39
-0.090109937 0.14219183 0.94300002 1.7524302e-39
-0.10829727 0.14797869 0.94300002 7.258726e-43
-0.097550198 0.14797869 0.94300002 1.6631171e-39
-0.094243415 0.14632532 0.94300002 2.2123448e-39
-0.091763332 0.14632532 0.94300002 1.5669768e-39
0.052081887 0.1959271 0.94300002 1.7549638e-39
0.053735282 0.19923389 0.94300002 3.0424558e-39
0.054561976 0.20171398 0.94300002 2.6754711e-39
0.05704207 0.20254068 0.94300002 2.6754879e-39
0.10168369 0.20254068 0.94300002 3.4116139e-39
0.11160404 0.20254068 0.94300002 2.0308374e-39
0.11325745 0.20254068 0.94300002 1.7546106e-39
0.055388674 0.20419407 0.94300002 2.5836426e-39
0.057593197 0.20529634 0.94300002 2.4914456e-39
0.061588898 0.20626083 0.94300002 2.7676738e-39
0.066135734 0.20502077 0.94300002 3.1350158e-39
0.070269212 0.20502079 0.94300002 3.2264967e-39
0.074127138 0.20529634 0.94300002 2.8595093e-39
0.077709489 0.20750086 0.94300002 2.0308374e-39
0.081842974 0.20750086 0.94300002 2.6733201e-39
0.090523288 0.20543411 0.94300002 2.8577114e-39
0.094243415 0.20502079 0.94300002 2.8587904e-39
0.097274646 0.20474522 0.94300002 3.4108852e-39
0.10168369 0.20419407 0.94300002 3.2268639e-39
0.10664387 0.20584747 0.94300002 2.4910967e-39
0.10995065 0.20474522 0.94300002 2.1226729e-39
0.11408414 0.20502077 0.94300002 8.3157115e-40
0.11821762 0.20667417 0.94300002 7.9313451e-39
-0.08376199 0.12356966 0.94599998 9.5085107e-41
-0.087079294 0.12937495 0.94599998 5.5462132e-40
-0.08873795 0.13518023 0.94599998 1.9361082e-39
-0.089662835 0.13781464 0.94700003 1.9354034e-39
-0.092739061 0.14312166 0.94733334 2.1208568e-39
-0.090396598 0.14015619 0.94599998 1.3861714e-39
-0.1061538 0.14679082 0.94599998 2.3020083e-39
-0.10211501 0.14611492 0.94699997 1.937553e-39
-0.097963996 0.14611492 0.94699997 2.0283039e-39
-0.093781129 0.14523445 0.94666672 2.027599e-39
0.055682361 0.18699299 0.94800001 3.6842505e-39
0.057344519 0.18699299 0.94800001 3.4108852e-39
0.053970326 0.19013965 0.94711113 1.4751469e-39
0.057344519 0.19031732 0.94800007 2.9509832e-39
0.053983383 0.19433597 0.94733334 1.7542407e-39
0.057898574 0.19474976 0.94800007 2.2152217e-39
0.062330998 0.1953038 0.94800007 2.0304843e-39
0.066486396 0.1953038 0.94800001 2.3063369e-39
0.11468904 0.1953038 0.94800001 7.404405e-40
0.054901421 0.19787733 0.94600004 2.9513406e-39
0.057960995 0.19812737 0.9472 3.0428271e-39
0.062330998 0.19779705 0.94800007 2.5832965e-39
0.066486396 0.19779705 0.94800001 2.6747691e-39
0.069810718 0.19779705 0.94800001 2.9513462e-39
0.073633686 0.19796327 0.94800007 2.9513504e-39
0.078121513 0.19862811 0.94800001 2.8602379e-39
0.082276925 0.19862811 0.94800007 3.2268779e-39
0.086432323 0.19862811 0.94800001 3.4105349e-39
0.089756645 0.19779703 0.94800001 3.0428355e-39
0.094277173 0.19893801 0.94749999 3.0417537e-39
0.097722039 0.19904131 0.94733334 2.6747663e-39
0.10139176 0.19862811 0.94800001 2.5832923e-39
0.11077138 0.1984598 0.9472 2.2152189e-39
0.11405492 0.19793379 0.94733334 1.2010683e-39
0.11801335 0.19862811 0.94800001 5.3480528e-39
0.058498651 0.20163199 0.94649994 2.7669647e-39
0.062243331 0.20166725 0.94666672 2.7673192e-39
0.066392884 0.20166723 0.94666666 2.7676752e-39
0.069712535 0.20166723 0.94666666 2.9524224e-39
0.073879816 0.20171459 0.94688892 3.1357346e-39
0.078066573 0.20180926 0.94733334 3.3186924e-39
0.082199372 0.20176192 0.94711113 3.3190497e-39
0.086310759 0.20166723 0.94666672 3.3179791e-39
0.089630395 0.20166723 0.94666672 3.0417565e-39
0.093555667 0.20183936 0.9465 2.8591561e-39
0.09806814 0.20194261 0.94639999 3.0442649e-39
0.10211501 0.20090833 0.94700003 2.9513518e-39
0.10630344 0.20180927 0.94733334 2.5832853e-39
0.10992548 0.20170799 0.94685721 2.3070572e-39
0.11504453 0.20184591 0.94749999 5.5498566e-40
0.11784714 0.20195244 0.94800007 4.8867271e-39
0.058882192 0.20484369 0.94599998 2.4914456e-39
0.062199496 0.20484369 0.94599998 3.1346556e-39
0.075468719 0.20484369 0.94599998 3.2264939e-39
0.077956699 0.20567301 0.94599998 2.5832923e-39
0.082103342 0.20567301 0.94600004 2.9499056e-39
0.086249962 0.20567301 0.94599998 2.85771e-39
0.089567274 0.20484369 0.94599998 3.1342983e-39
0.1061538 0.20484369 0.94599998 2.5832909e-39
0.10864178 0.20484369 0.94599998 2.306711e-39
0.1152764 0.20484369 0.94599998 1.8132802e-42
0.11788975 0.20506021 0.94700003 5.5346343e-39
-0.082537279 0.12088794 0.95099998 1.6562941e-39
-0.086705834 0.12672392 0.95099998 9.3277432e-41
-0.089206964 0.13089246 0.95099998 4.6422496e-40
-0.089206964 0.13339359 0.95099998 1.3825855e-39
-0.097544067 0.1425644 0.95099998 1.9361082e-39
-0.094209224 0.1417307 0.95099998 1.4787258e-39
-0.10588117 0.14589925 0.95099998 1.2010893e-39
-0.10171261 0.14423183 0.95099998 2.0283039e-39
-0.098377779 0.14423183 0.95099998 2.0283039e-39
-0.095876642 0.14423183 0.95099998 2.1201492e-39
0.054191146 0.18758473 0.95099998 1.6559466e-39
0.059193403 0.19091958 0.95099998 2.6758383e-39
0.059193403 0.19342071 0.95099998 2.3981766e-39
0.061694533 0.19425441 0.95099998 2.1226645e-39
0.065863088 0.19425443 0.95099998 2.3988955e-39
0.070031635 0.19592184 0.95099998 3.3179637e-39
0.073366478 0.19592184 0.95099998 3.3179525e-39
0.090040669 0.19592184 0.95099998 2.7676892e-39
0.11032762 0.19536602 0.95099998 2.2141441e-39
0.1138014 0.19467127 0.95099998 1.3851037e-39
0.075867608 0.19758925 0.95099998 3.4112383e-39
0.078368738 0.19758925 0.95099998 2.9524336e-39
0.081703573 0.19758925 0.95099998 2.7676892e-39
0.085872129 0.19758925 0.95099998 2.952435e-39
0.094209224 0.19758925 0.95099998 2.6754893e-39
0.098377779 0.19758925 0.95099998 2.4907436e-39
0.10171261 0.19758925 0.95099998 2.5832923e-39
0.10588115 0.19842297 0.95100009 2.5822035e-39
0.109216 0.19758925 0.95099998 2.6733201e-39
0.11755311 0.19758925 0.95099998 1.7520645e-39
0.11922053 0.20259151 0.95099998 9.7727368e-39
0.12088794 0.20592636 0.95099998 1.0970914e-38
-0.089675985 0.11900924 0.95599997 7.7419372e-39
-0.08665885 0.11917686 0.95599997 2.0283165e-39
-0.081961319 0.11959662 0.954 1.2932752e-39
-0.079452291 0.11959662 0.954 1.8435623e-39
-0.090514079 0.12236162 0.95599997 1.8421105e-39
-0.086173698 0.12214801 0.95433331 3.6950839e-40
-0.093028352 0.12655209 0.95599997 0
-0.090387844 0.12637442 0.95466661 9.1841101e-41
-0.087258145 0.12517223 0.954 1.0916115e-42
-0.093028352 0.12906635 0.95599997 1.5414283e-44
-0.090730906 0.13037261 0.95533335 6.4539463e-40
-0.093028352 0.13409492 0.95599997 1.7510121e-39
-0.091161057 0.13381439 0.954 1.7513708e-39
-0.10140929 0.13996157 0.95599997 8.3299767e-40
-0.097640328 0.13917397 0.95520002 1.38617e-39
-0.093768559 0.13813958 0.95499992 1.7535246e-39
-0.091161057 0.13715975 0.954 1.7531645e-39
-0.10214043 0.14232594 0.95499998 1.568769e-39
-0.098269939 0.14175962 0.954 1.5698438e-39
-0.10537884 0.1446868 0.954 7.3900417e-40
0.054362096 0.18650381 0.954 1.8428532e-39
0.057445507 0.18606794 0.95520002 4.0555357e-39
0.05938014 0.18901283 0.954 3.1346542e-39
0.061954319 0.19004701 0.95499992 2.858789e-39
0.066140115 0.19088452 0.95499992 2.7683898e-39
0.070399836 0.19108528 0.95599997 3.3201189e-39
0.07375221 0.19108528 0.95599997 3.5952764e-39
0.077607445 0.19125289 0.95599997 3.7807621e-39
0.082133144 0.19192336 0.95599997 3.4137564e-39
0.087161697 0.19192336 0.95599997 2.6754879e-39
0.090514079 0.19192336 0.95599997 2.5832923e-39
0.093866453 0.19192336 0.95599997 2.858796e-39
0.098056912 0.19192336 0.95600003 3.1342983e-39
0.10224738 0.19192336 0.95599997 2.5832923e-39
0.10476166 0.19192336 0.95599997 2.4910967e-39
0.061889157 0.19319452 0.954 2.2159195e-39
0.066070855 0.19319454 0.954 2.675118e-39
0.070252553 0.19403087 0.954 3.3186881e-39
0.073675066 0.19423337 0.95499998 3.7785859e-39
0.077861145 0.19423339 0.95500004 3.5967114e-39
0.082047231 0.19423337 0.95499998 4.240999e-39
0.08623331 0.19423339 0.95500004 3.5956478e-39
0.090324715 0.19403087 0.954 2.7673276e-39
0.093768261 0.19423337 0.95499998 2.7669591e-39
0.097989127 0.19430147 0.95533323 2.7665962e-39
0.10219346 0.19433552 0.95550001 3.0417523e-39
0.10596901 0.19436014 0.95480007 2.7651668e-39
0.1097328 0.19391647 0.95550001 2.2145084e-39
0.11374223 0.19319452 0.954 1.8464518e-39
0.11649497 0.19359955 0.95599997 2.1019477e-44
0.077779621 0.19653991 0.954 3.5027123e-39
0.081961319 0.19653989 0.954 3.5956352e-39
0.086143017 0.19653991 0.954 3.4112565e-39
0.093670078 0.19653989 0.954 2.675132e-39
0.097851776 0.19653991 0.954 2.6754922e-39
0.10203347 0.19653989 0.954 2.5829392e-39
0.10621518 0.19653991 0.954 2.6729698e-39
0.11876027 0.19653989 0.954 6.362925e-39
-0.09332028 0.13199356 0.95899999 1.1049407e-39
-0.096683174 0.13451573 0.95899999 4.6386482e-40
-0.095001727 0.13451573 0.95899999 1.20179e-39
-0.10060656 0.13815887 0.95899999 1.8690939e-40
-0.097523898 0.1370379 0.95899999 1.3858253e-39
0.054647014 0.18579985 0.95899999 2.9473833e-39
0.059691351 0.18579985 0.95899999 3.6871217e-39
0.062213525 0.18748128 0.95899999 2.6758467e-39
0.065576419 0.18748128 0.95899999 2.6758383e-39
0.069780037 0.18748128 0.95899999 3.135743e-39
0.073142923 0.18748128 0.95899999 3.3186895e-39
0.077346541 0.18748128 0.95899999 3.871513e-39
0.065576419 0.18916273 0.95899999 3.0421027e-39
0.069780037 0.18916273 0.95899999 3.4108894e-39
0.073983647 0.18916273 0.95899999 3.686749e-39
0.078607626 0.18958309 0.95899999 4.0559113e-39
0.082390882 0.19000345 0.95899999 3.1364647e-39
0.086034022 0.1902837 0.95899999 2.7680339e-39
0.089537032 0.19042382 0.95899999 2.6754851e-39
0.09444125 0.1902837 0.95899999 2.8595135e-39
0.097523898 0.19000345 0.95899999 3.0431859e-39
0.10172753 0.19000345 0.95900005 2.5829322e-39
0.10593113 0.19000345 0.95899999 2.3070642e-39
0.11013474 0.19000345 0.95900005 2.3070544e-39
0.11433837 0.19000345 0.95899999 1.937197e-39
0.084913053 0.19252563 0.95899999 3.2286617e-39
0.10677186 0.19252563 0.95899999 2.4910967e-39
0.11013475 0.19252563 0.95899999 2.0315563e-39
0.11433837 0.19252563 0.95899999 1.3869127e-39
0.11770125 0.19420707 0.95899999 1.0159554e-39
-0.096985631 0.13071977 0.96200001 8.2974806e-40
-0.095298924 0.13071977 0.96200001 0
-0.10049814 0.13427787 0.96333331 6.7306173e-39
-0.098353222 0.13381001 0.96299994 1.8402972e-40
-0.095298924 0.13240646 0.96200001 4.6061241e-40
-0.10215183 0.13676438 0.963 3.1335514e-39
0.057348028 0.18469438 0.96200001 5.0700408e-39
0.06162791 0.18572971 0.963 2.9517161e-39
0.065781556 0.18638109 0.96200001 2.6758383e-39
0.070071094 0.18572973 0.963 2.8591393e-39
0.074331254 0.1858266 0.96349996 3.4108824e-39
0.077749811 0.18592346 0.96399999 3.7793104e-39
0.081975341 0.18676858 0.96399999 3.3201315e-39
0.086200878 0.18676856 0.96399999 3.136815e-39
0.089581303 0.18676856 0.96399999 3.1371681e-39
0.094229385 0.18634599 0.96399999 3.7796635e-39
0.097930685 0.18572971 0.963 3.6885609e-39
0.10218661 0.18579432 0.96333331 3.2275869e-39
0.10637297 0.18572971 0.963 2.491447e-39
0.10986386 0.18592346 0.96399999 2.5825594e-39
0.11408939 0.18592346 0.96399993 1.9354034e-39
0.075058445 0.18806778 0.96200001 3.4105349e-39
0.081863128 0.18819812 0.96266669 3.2279429e-39
0.085860156 0.1888907 0.96333331 2.9527839e-39
0.090238802 0.18891114 0.96200001 2.5839986e-39
0.093659997 0.1885872 0.96249998 3.2275715e-39
0.097828984 0.18806778 0.96200001 3.8736556e-39
0.10204576 0.18806778 0.96200007 2.7683968e-39
0.10626252 0.18806778 0.96200001 2.5836412e-39
0.10963593 0.18806778 0.96200001 2.1233918e-39
0.1138527 0.18806778 0.96200007 1.9357593e-39
0.11777052 0.19037342 0.96299994 1.8439084e-39
0.11891282 0.19397126 0.96200001 3.1360751e-39
-0.10257614 0.1339424 0.96700001 1.0416296e-38
0.075448565 0.17887244 0.96700001 3.3172448e-39
0.077991769 0.17887244 0.96700001 3.4101621e-39
0.062732518 0.18395886 0.96700001 3.133948e-39
0.066123456 0.18311112 0.96700001 2.3981766e-39
0.069514409 0.18311112 0.96700001 2.8584205e-39
0.07396502 0.18247531 0.96700001 3.2264911e-39
0.077991769 0.1822634 0.96700001 3.779309e-39
0.082230456 0.18226337 0.96700001 3.5038081e-39
0.086469144 0.18226337 0.96700001 2.8602267e-39
0.089860082 0.18311112 0.96700001 3.2297197e-39
0.09452264 0.18353498 0.96700001 2.8609386e-39
0.098054871 0.1833937 0.96700001 2.9524224e-39
0.10201098 0.1833937 0.96700001 3.319777e-39
0.10554321 0.18353498 0.96700001 2.8591575e-39
0.11048834 0.1833937 0.96700001 2.7655158e-39
0.11331414 0.1833937 0.96700001 1.8453671e-39
0.11613992 0.18395886 0.96700001 1.3825841e-39
0.055102881 0.18565431 0.96700001 3.3183e-39
0.063580252 0.18565431 0.96700001 2.7676836e-39
0.066123456 0.18565431 0.96700001 2.5839958e-39
0.082230456 0.18565433 0.96700001 3.5034395e-39
0.086469136 0.18565431 0.96700001 2.9527839e-39
0.089860082 0.18565431 0.96700001 3.1375199e-39
0.093251027 0.18565431 0.96700001 3.1371695e-39
0.11783539 0.18650205 0.96700001 3.3186938e-39
0.075682633 0.17432517 0.97000003 1.8654085e-40
0.077383369 0.17432517 0.97000003 4.6348227e-40
0.063777499 0.17942737 0.97000003 3.0435082e-39
0.0663286 0.17857701 0.97000003 3.4112341e-39
0.069730058 0.17857701 0.97000003 3.5023577e-39
0.073981903 0.17801011 0.97000015 3.2264897e-39
0.078233734 0.17687628 0.97000003 2.6729586e-39
0.081465118 0.17806679 0.97000009 2.0286668e-39
0.086099625 0.17793922 0.97000015 5.3430894e-39
0.089855418 0.17886047 0.97000003 5.0682653e-39
0.093540333 0.17857701 0.97000003 4.4251002e-39
0.097452022 0.17874709 0.97000009 5.6196609e-39
0.102044 0.17857701 0.97000003 6.1743046e-39
0.058675297 0.18282883 0.97000003 2.9524336e-39
0.062416911 0.18214855 0.97000009 3.0424614e-39
0.0663286 0.1811281 0.97000003 2.5836412e-39
0.069730058 0.1811281 0.97000003 2.5836426e-39
0.072281167 0.1811281 0.97000003 3.1346514e-39
0.090138867 0.1811281 0.97000003 1.754954e-39
0.093540333 0.18197846 0.97000003 2.2155748e-39
0.098217353 0.18155327 0.97000003 2.213414e-39
0.10176055 0.18169501 0.97000003 2.029757e-39
0.10629583 0.18197846 0.97000003 2.5829336e-39
0.1102642 0.18169501 0.97000003 2.857717e-39
0.11394913 0.18197846 0.97000003 1.9354048e-39
0.11650023 0.18282883 0.97000003 9.2125985e-40
0.055273835 0.18452956 0.97000003 2.8609414e-39
0.057824932 0.18452956 0.97000003 3.3205014e-39
0.060376033 0.18452956 0.97000003 3.1354095e-39
0.11820097 0.18452956 0.97000003 5.9923656e-39
0.073508501 0.16667624 0.97500002 2.1383981e-38
0.074110545 0.17022127 0.9745 5.5335329e-39
0.078013971 0.16997837 0.97433329 1.7240244e-38
0.082056001 0.17180474 0.97500002 1.8546464e-38
0.085474998 0.17180474 0.97500002 2.240786e-38
0.090176128 0.17137738 0.97500002 2.1120323e-38
0.093829632 0.17059931 0.97299999 7.2954373e-39
0.097023331 0.17099997 0.97366667 1.0944575e-38
0.10000575 0.17180474 0.97500002 1.6570741e-38
0.058977749 0.17522374 0.97500002 3.5016361e-39
0.060687248 0.17522374 0.97500002 3.5938317e-39
0.065815747 0.17522375 0.97500008 3.1360948e-39
0.070089497 0.17436899 0.97500002 3.1350298e-39
0.073959634 0.17405498 0.97419995 1.9350334e-39
0.07881438 0.17384563 0.97366667 1.5670595e-39
0.08201348 0.17427912 0.97450006 4.5263496e-39
0.085881591 0.17432427 0.9738 7.4629933e-40
0.089978777 0.17398308 0.9738 3.4369577e-39
0.093829632 0.17401132 0.97299999 4.8979305e-39
0.098094605 0.17401132 0.97299999 1.9358406e-39
0.10257 0.17436898 0.97500002 5.1644883e-39
0.055520765 0.17851943 0.97433329 3.595631e-39
0.058063097 0.17845838 0.97399998 2.8587862e-39
0.061817396 0.17838 0.97357148 2.7669437e-39
0.065724574 0.17669129 0.97366667 3.5034339e-39
0.069945723 0.1765703 0.97299999 3.6867686e-39
0.073357716 0.1765703 0.97299999 3.4108852e-39
0.082740672 0.1765703 0.97299999 8.2941034e-40
0.084446661 0.1765703 0.97299999 6.7299307e-39
0.090701982 0.17713897 0.97299999 8.4832003e-39
0.093829632 0.1765703 0.97299999 9.2240766e-39
0.098521098 0.1769968 0.97299999 1.0136675e-38
0.10235959 0.1765703 0.97299999 1.2535903e-38
0.10582638 0.17922091 0.97350001 6.4685058e-40
0.11014965 0.17931253 0.9740001 2.397099e-39
0.11368175 0.17864275 0.97500002 1.9357579e-39
0.054465365 0.18217815 0.9738 2.8602337e-39
0.057719439 0.18225694 0.97299999 2.7683884e-39
0.06056276 0.18168828 0.97299999 2.5832923e-39
