# .PCD v0.7 - Point Cloud Data file format
VERSION 0.7
FIELDS x y z rgb
SIZE 4 4 4 4
TYPE F F F F
COUNT 1 1 1 1
WIDTH 1034
HEIGHT 1
VIEWPOINT 0 0 0 1 0 0 0
POINTS 1034
DATA ascii
-0.10602012 0.1455797 0.90250003 0
-0.10347384 0.14612719 0.90100002 2.1650061e-42
-0.10603955 0.14956224 0.90266669 1.0789998e-42
-0.10347384 0.15007657 0.90100002 1.4405348e-42
-0.10596182 0.1541969 0.90200007 0
-0.10347384 0.15323608 0.90100002 1.4012985e-45
-0.1084533 0.158326 0.903 0
-0.10610676 0.15771204 0.90100002 3.5873241e-43
-0.1084533 0.16228417 0.90300006 0
-0.10663335 0.16192472 0.90100002 0
-0.10596181 0.16605821 0.90199995 1.4012985e-45
-0.10603955 0.17013821 0.90266669 7.0064923e-45
-0.10347384 0.17061335 0.90100002 0
-0.10528678 0.1741586 0.903 4.2038954e-45
-0.10370352 0.1741586 0.903 0
0.014217779 0.17456274 0.90100002 8.2906422e-40
-0.10528678 0.17653349 0.903 1.9618179e-44
-0.10247619 0.17817385 0.90214288 0
0.014217779 0.17772226 0.90100002 3.716734e-40
-0.10239238 0.18183626 0.90259999 0
-0.10234703 0.18596379 0.90266669 0
-0.10091631 0.18944679 0.90166664 0
-0.09873458 0.19036028 0.90100002 0
-0.100537 0.1931577 0.903 0
-0.098354116 0.1948605 0.90233338 0
-0.097898237 0.19764362 0.90300006 0
-0.095575079 0.19825904 0.90100002 0
-0.097370483 0.20028238 0.903 0
-0.094891272 0.20243284 0.90199995 0
0.02137401 0.20186564 0.90300006 8.2941175e-40
-0.094100818 0.20612274 0.90200007 0
0.019746918 0.2061578 0.90100002 2.8025969e-45
0.021901762 0.20608768 0.90300006 1.4012985e-45
0.024540529 0.20661542 0.903 4.0591258e-39
-0.093846284 0.20937239 0.90259999 0
0.019746916 0.21010718 0.90100002 8.4077908e-45
0.022149857 0.20962648 0.90233326 4.6205995e-40
0.024540529 0.20978194 0.90300006 5.5342517e-39
-0.092620708 0.21294846 0.903 0
-0.090309232 0.21405658 0.90100002 0
0.019351978 0.21445151 0.90100002 8.3193408e-40
0.022153804 0.21362218 0.90250003 2.7705408e-39
0.024540529 0.21374008 0.903 6.182114e-39
-0.089981936 0.21769825 0.90300006 0
-0.087676309 0.21800596 0.90100002 0
0.018957039 0.21800596 0.90100002 2.3989039e-39
0.021997845 0.21760111 0.90259999 3.505229e-39
-0.085169628 0.22122948 0.90233338 0
-0.082147166 0.22195533 0.90100002 0
-0.079777539 0.22353509 0.90100002 0
0.018167162 0.22195534 0.90100002 3.7792837e-39
0.022141969 0.22219992 0.90200001 5.7150501e-39
0.024540529 0.22086476 0.903 7.8366285e-39
-0.082065642 0.22455904 0.90300006 0
-0.079866081 0.22615632 0.90200001 0
0.017415859 0.22403127 0.903 3.3179455e-39
-0.077670038 0.23047619 0.90219992 7.0064923e-45
-0.075038284 0.23143387 0.90100002 0
-0.076788113 0.23353085 0.903 8.4077908e-45
-0.073621586 0.23458636 0.90300006 0
-0.045372758 0.099501662 0.90799999 3.0421027e-39
-0.041790698 0.099103659 0.90799999 4.1481097e-39
-0.038417872 0.098824881 0.9066667 4.1488328e-39
-0.033812594 0.099048868 0.90750003 2.4914484e-39
-0.030469423 0.098824881 0.9066667 2.491447e-39
-0.054128904 0.10268571 0.90799999 3.133578e-39
-0.049786951 0.10195843 0.90720004 3.0417411e-39
-0.046331834 0.10140052 0.90600002 3.0421027e-39
-0.0436843 0.10087102 0.90600002 2.7655158e-39
-0.065273091 0.1074618 0.90799999 2.9495581e-39
-0.061848134 0.10604686 0.90680009 2.8580645e-39
-0.058227543 0.10552415 0.90675008 2.8584331e-39
-0.054009676 0.10404806 0.90600002 2.950263e-39
-0.050832637 0.10404806 0.90600002 2.766599e-39
-0.077128254 0.11131825 0.90700001 2.4889331e-39
-0.074281715 0.11118376 0.90720004 2.4889303e-39
-0.069972023 0.10972798 0.90700001 2.3059782e-39
-0.06632071 0.10921074 0.90600002 2.3981724e-39
-0.06274654 0.10881361 0.90600002 2.7655158e-39
-0.080868989 0.11480652 0.90733337 2.7651598e-39
-0.078747459 0.11374515 0.90733337 2.5807742e-39
-0.085079618 0.11926961 0.90700001 2.3045362e-39
-0.082341045 0.11822876 0.90685725 2.4889289e-39
-0.093929574 0.12338207 0.90799999 1.8439126e-39
-0.090109408 0.12221084 0.90640002 2.0283039e-39
-0.086765453 0.12019801 0.90799999 2.3970864e-39
-0.096609533 0.12642585 0.90700001 1.2907388e-39
-0.094056986 0.12532008 0.9066667 1.7510107e-39
-0.091339901 0.12469882 0.90600002 2.3020139e-39
-0.10109369 0.13134219 0.90799999 1.1063476e-39
-0.098734058 0.12925959 0.90680009 1.0148736e-39
-0.10404806 0.13502419 0.90600002 8.3155853e-40
-0.10166527 0.13343567 0.90600002 4.6457528e-40
-0.10586977 0.13611828 0.90799999 5.5677091e-40
-0.10905382 0.14248638 0.90799999 1.8104776e-42
-0.10734345 0.14153343 0.90700001 2.1622035e-42
-0.10905382 0.14567043 0.90799999 9.8090893e-45
-0.10927167 0.15019798 0.90649998 3.685415e-43
-0.10991295 0.15381292 0.90720004 2.8025969e-45
-0.11018778 0.15792228 0.90750003 1.4012985e-45
-0.11064585 0.16159071 0.90799999 0
-0.10905382 0.16716281 0.90799999 0
-0.10905382 0.17034684 0.90799999 1.4012985e-45
-0.10905382 0.17432693 0.90799999 0
-0.1072251 0.17473719 0.90600002 5.6051939e-45
-0.10905382 0.17751096 0.90799999 0
-0.10669559 0.178179 0.90600002 1.821688e-44
-0.10650975 0.18201995 0.9066667 0
-0.10654919 0.18606198 0.90700001 5.6051939e-45
-0.10456091 0.18964052 0.90700001 0
-0.10245954 0.19141667 0.90600002 0
-0.10245954 0.19379944 0.90600002 0
-0.10132469 0.19748187 0.90649998 0
-0.099282496 0.19935925 0.90600002 0
0.021445019 0.19935925 0.90600002 6.4536941e-40
-0.10109369 0.20218737 0.90799999 0
-0.098752998 0.20200679 0.90600002 0
0.023084387 0.20218737 0.90799999 2.7912744e-40
0.02467641 0.20218737 0.90799999 7.314778e-43
-0.10109369 0.20537144 0.90799999 0
-0.098524772 0.20578961 0.90633339 0
0.023033539 0.20491907 0.90600002 1.8020698e-42
0.025586743 0.20548575 0.90640002 4.1491705e-39
-0.09776704 0.2095736 0.9066667 0
0.02621058 0.20968464 0.90600002 6.8217591e-39
-0.096317604 0.21333157 0.90799999 0
-0.094171971 0.21417186 0.90649998 0
0.02621058 0.21286169 0.90600002 7.5589711e-39
-0.093929574 0.21731164 0.90799999 0
-0.091541529 0.21890366 0.90799999 0
0.023033539 0.2184215 0.90600002 3.9651127e-39
0.024622058 0.21762723 0.90600002 6.4558325e-39
-0.088357478 0.22288373 0.90799999 0
-0.086574338 0.22318704 0.90600002 0
0.024622058 0.22001001 0.90600002 7.2838051e-39
-0.085874751 0.22581969 0.90700001 5.6051939e-45
-0.082603037 0.22715834 0.90600002 1.4012985e-45
0.01509094 0.22477558 0.90600002 2.9498692e-39
-0.085173421 0.22845583 0.90799999 5.6051939e-45
-0.081900239 0.23005925 0.90700006 1.1210388e-44
-0.080397345 0.23402791 0.90799999 5.5570172e-40
-0.077837482 0.23510095 0.90600002 2.1734139e-42
-0.075454697 0.23589522 0.90600002 0
-0.0780093 0.23721197 0.90799999 1.7542421e-39
-0.074660435 0.23748374 0.90600002 1.9378739e-39
-0.14567041 0.24198803 0.90799999 1.3815029e-38
-0.14943075 0.24560575 0.9066667 1.928914e-39
-0.14594094 0.24543008 0.90685725 4.5082448e-39
-0.040686097 0.094136462 0.91000003 2.5839902e-39
-0.039090566 0.094136462 0.91000003 2.4921547e-39
-0.049461532 0.099720828 0.91000003 2.7658689e-39
-0.047068235 0.099720828 0.91000003 3.0421027e-39
-0.041483864 0.09732753 0.91000003 3.5038137e-39
-0.038026877 0.097061604 0.91000003 2.9520762e-39
-0.035101734 0.098125294 0.91000003 2.6758425e-39
-0.061428029 0.1029119 0.91000003 3.0424558e-39
-0.058236968 0.10291191 0.91000003 3.1339452e-39
-0.051854834 0.10131636 0.91000003 2.8580701e-39
-0.069405705 0.1076985 0.91000003 2.4917987e-39
-0.06589552 0.10578386 0.91000003 2.6736831e-39
-0.06302356 0.10450743 0.91000003 2.6743795e-39
-0.078181133 0.11009181 0.91000003 2.7647969e-39
-0.0741923 0.10929404 0.91000003 2.6733201e-39
-0.082169965 0.11408063 0.91000003 2.6729656e-39
-0.088552095 0.11886723 0.91000003 2.2126951e-39
-0.086158797 0.11806946 0.91000003 2.2126951e-39
-0.096529759 0.12365383 0.91000003 1.3829344e-39
-0.093870543 0.12152646 0.91000003 1.8435595e-39
-0.090147629 0.12046277 0.91000003 1.8446245e-39
-0.098125294 0.12524937 0.91000003 1.1985432e-39
-0.10610297 0.13482256 0.91000003 4.6422496e-40
-0.1029119 0.13322704 0.91000003 9.219563e-40
-0.10929403 0.13881139 0.91000003 2.5265411e-42
-0.1076985 0.13801363 0.91000003 3.7094612e-40
-0.11009181 0.14200246 0.91000003 2.16921e-42
-0.11088958 0.1459913 0.91000003 1.1210388e-44
-0.1124851 0.14998013 0.91000003 7.0064923e-45
-0.11088957 0.14918236 0.91000003 3.7835059e-43
-0.1124851 0.15396897 0.91000003 7.0064923e-45
-0.1124851 0.15795779 0.91000003 1.2611686e-44
-0.1124851 0.1603511 0.91000003 0
-0.11088957 0.16354217 0.91000003 0
-0.11088957 0.16593547 0.91000003 0
-0.11088958 0.1699243 0.91000003 0
-0.11088957 0.17391312 0.91000003 0
-0.11035772 0.17790197 0.91000003 0
-0.10929403 0.18109304 0.91000003 0
-0.10690074 0.18986847 0.91000003 0
-0.10503928 0.1938573 0.91000003 0
-0.1029119 0.19864391 0.91000003 0
-0.10291191 0.20183496 0.91000003 0
0.023135234 0.20023943 0.91000003 9.5082305e-41
0.025528532 0.20183496 0.91000003 1.5666054e-39
-0.1029119 0.20502603 0.91000003 0
-0.10131636 0.20901486 0.91000003 0
-0.098923057 0.21140817 0.91000003 0
-0.098657131 0.21353555 0.91000003 0
-0.096529759 0.21619476 0.91000003 0
-0.093338698 0.21938582 0.91000003 0
-0.090945393 0.22177914 0.91000003 0
-0.089349858 0.22576797 0.91000003 1.1210388e-44
-0.086424723 0.23002273 0.91000003 2.7839176e-40
-0.15396896 0.23534116 0.91000003 2.0263603e-38
-0.1459913 0.23294787 0.91000003 2.3233299e-38
-0.085361034 0.23294786 0.91000003 8.3444521e-40
-0.082967728 0.23374563 0.91000003 2.8019383e-40
-0.16513771 0.23773447 0.91000003 4.6098235e-40
-0.16234551 0.23813334 0.91000003 1.102026e-39
-0.15795779 0.23853222 0.91000003 1.3530712e-38
-0.15428805 0.23757492 0.91000003 1.804991e-38
-0.1456722 0.23789401 0.91000003 2.350842e-38
-0.14280023 0.23773447 0.91000003 2.3509886e-38
-0.080574431 0.2369367 0.91000003 1.1092384e-39
-0.078978904 0.23853222 0.91000003 2.2152189e-39
-0.16513771 0.2417233 0.91000003 3.6952241e-40
-0.16194664 0.2417233 0.90999997 3.6914966e-40
-0.15795782 0.2417233 0.91000003 2.392406e-39
-0.15396896 0.2417233 0.90999997 8.7413208e-39
-0.14998013 0.24172333 0.91000003 1.7405911e-38
-0.14599131 0.24012777 0.91000003 1.9252773e-38
-0.14216201 0.24204241 0.91000003 9.2023102e-39
-0.13960916 0.24252108 0.91000003 4.1326842e-39
-0.0449204 0.094653696 0.91500002 3.0439061e-39
-0.042421021 0.094446801 0.91299999 2.676197e-39
-0.036837969 0.094498083 0.91350007 2.5832867e-39
-0.033616658 0.095247194 0.91299999 2.3989011e-39
-0.0497333 0.098664448 0.91500002 3.4097964e-39
-0.045362413 0.097936466 0.91420001 3.5938415e-39
-0.042421021 0.096847989 0.91299999 3.5034395e-39
-0.036017846 0.096847989 0.91299999 2.8602379e-39
-0.033616658 0.096847989 0.91299999 2.6758383e-39
-0.068717517 0.10294259 0.91500008 2.6765501e-39
-0.065704413 0.10256211 0.91400003 2.5836426e-39
-0.061698046 0.10149374 0.91400003 3.1342997e-39
-0.057691678 0.10095955 0.91400003 2.7666032e-39
-0.053994425 0.10077757 0.91379994 2.3988955e-39
-0.073530421 0.10615118 0.91500008 2.8573583e-39
-0.069711946 0.10576779 0.91400003 2.6733215e-39
-0.085027903 0.11149885 0.91500002 2.3970864e-39
-0.081775025 0.11063576 0.9145 2.6729656e-39
-0.07808207 0.10851292 0.91350007 2.9481134e-39
-0.073636487 0.10805354 0.91299999 2.7658745e-39
-0.071235299 0.10805354 0.91299999 2.7655158e-39
-0.089038648 0.1139053 0.91500002 2.7655158e-39
-0.085706145 0.11373931 0.91366673 2.6733159e-39
-0.082440853 0.11285593 0.91299999 2.6729698e-39
-0.097060151 0.11952035 0.91500002 1.7510079e-39
-0.093564257 0.11829979 0.91442859 2.0279409e-39
-0.089922689 0.11749139 0.91420001 2.0286612e-39
-0.086709641 0.11659111 0.91299999 2.3970892e-39
-0.10026874 0.12272895 0.91500002 1.5673257e-39
-0.097702302 0.12172647 0.91350007 1.3847323e-39
-0.095247194 0.12085988 0.91299999 1.751717e-39
-0.10050545 0.12613216 0.91350007 9.2447583e-40
-0.098448783 0.12406148 0.91299999 1.3829344e-39
-0.10588379 0.13075045 0.91500002 2.7909942e-40
-0.10250731 0.12973483 0.91350007 7.3972164e-40
-0.10874611 0.13492982 0.91433334 9.5082305e-41
-0.10576895 0.13301137 0.91400003 5.5497165e-40
-0.10325117 0.13206545 0.91299999 4.649228e-40
-0.11310314 0.13877194 0.91500002 5.5317378e-40
-0.11080277 0.13750136 0.91366667 2.8866748e-42
-0.11631175 0.14358485 0.91500002 5.521172e-40
-0.1138223 0.14187592 0.91433334 9.3271827e-41
-0.11125513 0.1408698 0.91299999 2.8866748e-42
-0.12112466 0.14679345 0.91500002 2.5825342e-39
-0.11791605 0.14599131 0.91500008 1.2611686e-44
-0.11365633 0.14567217 0.91299999 8.4077908e-45
-0.12112466 0.15000205 0.91500008 1.6595185e-39
-0.11791605 0.15000203 0.91500002 7.0064923e-45
-0.11405652 0.14927396 0.91299999 5.6051939e-45
-0.11698678 0.15384448 0.91400003 2.8025969e-45
-0.11445672 0.15367615 0.91299999 2.8025969e-45
-0.11664926 0.15753698 0.9145 4.2038954e-45
-0.11445673 0.15767813 0.91299999 1.4012985e-44
-0.11631175 0.16123214 0.91500002 0
-0.1140067 0.16206557 0.91366673 0
-0.11378169 0.16586357 0.91400003 0
-0.11378169 0.16986994 0.91400003 0
-0.11378169 0.17387632 0.91400003 8.4077908e-45
-0.11384349 0.17798042 0.9145 0
-0.11097679 0.18229012 0.91400003 0
-0.10965434 0.18569201 0.91299999 0
-0.10937425 0.19030285 0.91400003 0
-0.10897405 0.19390814 0.91400003 0
-0.10645276 0.19449638 0.91299999 0
-0.10869132 0.19772997 0.91500002 0
-0.10581243 0.19801812 0.91300005 0
0.022411104 0.19929875 0.91299999 3.7202372e-40
-0.10829025 0.20133965 0.91500002 0
-0.10571065 0.20181084 0.91349995 0
0.026442019 0.20192 0.91400003 1.013803e-39
-0.10576895 0.20592725 0.91400003 0
-0.10325117 0.20730272 0.91299999 0
-0.10508165 0.2101633 0.91500002 0
-0.10325117 0.20970392 0.91299999 0
-0.10508165 0.2133719 0.91500002 1.4012985e-45
-0.10220418 0.21413621 0.91385716 0
-0.10150836 0.21792935 0.91460001 5.6051939e-45
-0.097915187 0.21797469 0.91299999 0
-0.10026874 0.22059125 0.91500002 2.5223372e-44
-0.097826943 0.22211519 0.91466665 3.7274539e-43
-0.094214782 0.222325 0.91333336 8.4077908e-45
-0.097594917 0.22593892 0.91500008 1.0166855e-39
-0.093715958 0.22587667 0.91366673 3.685415e-43
-0.17246225 0.23182134 0.91500002 2.155197e-42
-0.17005581 0.23182134 0.91500002 2.1122164e-39
-0.16604505 0.23182134 0.91500008 1.4184803e-38
-0.15722141 0.23182134 0.91500002 2.0816817e-38
-0.15321064 0.23182134 0.91500002 2.349446e-38
-0.15080419 0.23182134 0.91500002 1.8236082e-38
-0.097060159 0.23021704 0.91500008 2.0286836e-39
-0.09382914 0.23016153 0.91477787 1.2014327e-39
-0.089804493 0.23003399 0.91300005 1.0170428e-39
-0.17307504 0.23397094 0.91399997 6.461163e-40
-0.16977745 0.23384336 0.91349995 9.1907803e-40
-0.16568211 0.23371582 0.91300005 6.9978239e-39
-0.1618572 0.23397094 0.91399997 1.4193831e-38
-0.15785083 0.23397093 0.91399997 1.8245423e-38
-0.1540128 0.23422779 0.91500002 2.2755796e-38
-0.15063938 0.23397093 0.91400003 2.3509168e-38
-0.14223865 0.23428547 0.91460001 1.5582199e-38
-0.13796979 0.23422779 0.91500002 7.7384368e-39
-0.13395905 0.23422781 0.91500008 8.925429e-39
-0.12994829 0.23422778 0.91500002 4.229626e-39
-0.12593754 0.23502994 0.91500008 1.3171422e-38
-0.11631175 0.23502994 0.91500002 1.8435623e-39
-0.1139053 0.23502994 0.91500002 1.7513666e-39
-0.10829025 0.23502994 0.91500002 1.4747798e-39
-0.10588379 0.23502994 0.91500002 1.4747798e-39
-0.10187305 0.23502994 0.91500002 1.1981929e-39
-0.097862303 0.23422779 0.91500002 1.4744252e-39
-0.093851551 0.23422781 0.91500008 1.2925479e-39
-0.089644417 0.2337158 0.91299999 1.5705767e-39
-0.087243229 0.2337158 0.91299999 1.7546121e-39
-0.17288569 0.23771781 0.91300005 3.9796876e-42
-0.1696841 0.23771779 0.91300005 1.8620594e-40
-0.16632241 0.23707747 0.91300005 1.0119883e-39
-0.16168012 0.23691741 0.91299999 1.0126706e-38
-0.15847853 0.23691741 0.91299999 1.7409204e-38
-0.15287575 0.23931859 0.91299999 1.8232101e-38
-0.14987427 0.23751771 0.91300005 2.2582522e-38
-0.14567217 0.23611701 0.91299999 2.3509886e-38
-0.14130099 0.23763692 0.91357148 2.3509886e-38
-0.13776875 0.23789023 0.91366673 2.3509886e-38
-0.13376383 0.23789021 0.91366661 2.3509886e-38
-0.12994829 0.23823856 0.91500008 2.3509886e-38
-0.12593754 0.23823854 0.91500008 2.3509886e-38
-0.12192681 0.23823854 0.91500008 0
-0.11791606 0.23823854 0.91500008 1.1999851e-39
-0.1139053 0.23823856 0.91500008 1.5669726e-39
-0.10989455 0.23823854 0.91500008 1.3825841e-39
-0.10584551 0.23815118 0.91466665 1.1989103e-39
-0.10182355 0.23812205 0.91455555 9.2340384e-40
-0.097826354 0.23815118 0.91466665 1.2903857e-39
-0.093783163 0.23806381 0.91433334 1.1996306e-39
-0.089644425 0.23771781 0.91300005 1.4769434e-39
-0.085642442 0.23771784 0.91299999 1.1092398e-39
-0.081907257 0.238785 0.91299999 1.752447e-39
-0.11365633 0.24171978 0.91299999 9.2343187e-40
-0.10565235 0.24171978 0.91299999 7.3866085e-40
-0.10168748 0.24180774 0.91333336 2.7948618e-40
-0.097701423 0.24185173 0.91349995 6.4681695e-40
-0.093646407 0.24171977 0.91300005 5.5606466e-40
-0.089644417 0.24171978 0.91299999 1.0163197e-39
-0.085642442 0.24171977 0.91300005 1.292185e-39
-0.079239264 0.24091938 0.91299999 2.3956739e-39
-0.049736224 0.095439777 0.92000002 3.6878252e-39
-0.047156338 0.093908966 0.91950005 3.2282974e-39
-0.068555333 0.099203601 0.92000002 3.226847e-39
-0.066135734 0.099203601 0.92000002 2.4918001e-39
-0.061968055 0.098987937 0.91799998 3.1342983e-39
-0.057944156 0.098987937 0.91799998 2.8587946e-39
-0.053546362 0.098638587 0.91850001 2.7673164e-39
-0.049951587 0.097484455 0.91900003 3.4112383e-39
-0.047482017 0.097378373 0.91799998 4.0541064e-39
-0.073314756 0.10312317 0.91900003 3.2264911e-39
-0.070399486 0.10197351 0.9188 2.9517021e-39
-0.065991953 0.10059749 0.91799998 2.5839944e-39
-0.063577615 0.10059749 0.91799998 3.1342983e-39
-0.081459865 0.10726893 0.92000002 2.8562723e-39
-0.07770291 0.10669076 0.91850001 2.8573583e-39
-0.074844539 0.10542617 0.91799998 2.8580701e-39
-0.089330569 0.11186441 0.91799998 2.5811245e-39
-0.085801996 0.11037409 0.91899997 2.5811245e-39
-0.082087554 0.1086453 0.91799998 2.6729698e-39
-0.016900379 0.11105964 0.91799998 1.4012985e-45
-0.015324133 0.11049506 0.92000002 1.4012985e-45
-0.093457043 0.11520889 0.91900003 2.1222974e-39
-0.091039196 0.11440237 0.91900003 2.0315409e-39
-0.016937198 0.1137212 0.92000002 3.657389e-43
-0.015324133 0.11291467 0.92000002 2.8025969e-45
-0.098183155 0.11910743 0.91799998 1.8435581e-39
-0.094964027 0.11669309 0.91799998 2.1204995e-39
-0.10162319 0.12259306 0.92000002 1.5673299e-39
-0.10473448 0.12729287 0.91900003 1.0155953e-39
-0.1028178 0.12644105 0.91866672 1.0163127e-39
-0.10934079 0.13083199 0.9193334 7.3936991e-40
-0.10657694 0.129126 0.91866672 7.3973005e-40
-0.11291467 0.13388452 0.92000002 9.2125004e-40
-0.10971834 0.13332522 0.91799998 6.4501768e-40
-0.11775386 0.13872375 0.92000002 1.3832862e-39
-0.11440324 0.13776641 0.91900003 7.3686159e-40
-0.11186441 0.13600782 0.91799998 2.7947356e-40
-0.12017346 0.14275639 0.92000002 7.3827129e-40
-0.11749788 0.14164126 0.91799998 1.8404654e-40
-0.11910743 0.1440556 0.91799998 3.6807206e-40
-0.12313133 0.15049386 0.91799998 2.2159223e-39
-0.11830265 0.15049386 0.91799998 4.2038954e-45
-0.12259481 0.15416954 0.9188 5.5281645e-40
-0.11991221 0.15451775 0.91799998 1.6815582e-44
-0.12205619 0.15817344 0.91960001 9.1846707e-41
-0.11910743 0.15773687 0.91799998 1.4012985e-44
-0.12057672 0.16170992 0.92000002 1.5414283e-44
-0.1179647 0.16225214 0.91850001 0
-0.11762675 0.16596527 0.91900003 0
-0.11762675 0.16999356 0.91900003 0
-0.11762674 0.17402184 0.91900003 2.8025969e-45
-0.11677784 0.17798671 0.91866672 1.4012985e-45
-0.11434144 0.18197978 0.91850001 0
-0.11431698 0.1862289 0.91960001 0
-0.11186441 0.18670896 0.91799998 0
-0.11425889 0.19007301 0.92000002 0
-0.11186441 0.18992807 0.91799998 0
-0.11318351 0.19437453 0.92000002 0
-0.11186441 0.19314718 0.91799998 0
-0.11210813 0.19760066 0.92000002 7.0064923e-45
-0.11105964 0.19878066 0.91799998 7.0064923e-45
0.022582933 0.19921373 0.92000002 4.6207256e-40
0.026615599 0.19921373 0.92000002 1.6815582e-44
0.029035199 0.19921373 0.92000002 8.2050635e-39
-0.11025485 0.20159738 0.91799998 0
0.025752958 0.2003902 0.91799998 4.2038954e-45
0.028988298 0.20130414 0.91850001 9.1273744e-39
-0.10926189 0.20536676 0.91866672 1.4012985e-45
-0.10703573 0.21085234 0.91799998 1.821688e-44
-0.16937201 0.21373133 0.92000002 1.6603103e-39
-0.1669524 0.21534438 0.92000002 7.6643067e-39
-0.10703573 0.21407147 0.91799998 1.5414283e-44
-0.16937199 0.21776401 0.92000002 6.0910787e-39
-0.1669524 0.21776399 0.92000002 1.1076579e-38
-0.10634755 0.2175273 0.91900003 3.7095033e-40
-0.10381661 0.21970493 0.91799998 2.183223e-42
-0.1766308 0.22340973 0.92000002 0
-0.17501773 0.22340973 0.92000002 1.0512457e-38
-0.16937201 0.22179668 0.92000002 8.4145647e-39
-0.16630717 0.22211926 0.92000002 2.1856845e-38
-0.16130665 0.22340973 0.92000002 9.0880763e-39
-0.15808053 0.22340973 0.92000002 5.8275799e-41
-0.15364459 0.22300646 0.92000002 1.3208052e-38
-0.15001521 0.2226032 0.92000002 1.090032e-38
-0.14705792 0.22287205 0.92000002 5.9393139e-39
-0.10501063 0.22211929 0.92000002 1.8457315e-39
-0.10167053 0.22238754 0.91799998 2.787617e-40
-0.1766308 0.22582933 0.92000002 0
-0.17448005 0.22609818 0.92000002 6.0984509e-42
-0.16910315 0.22556047 0.92000002 8.8769665e-39
-0.16614586 0.22582932 0.92000002 1.9647234e-38
-0.16179058 0.22599064 0.92000002 2.2683359e-38
-0.15808053 0.22582933 0.92000002 1.3214528e-38
-0.15393624 0.22647047 0.91933334 8.3303088e-39
-0.1499065 0.22647046 0.91933334 1.2462847e-38
-0.14630516 0.22599064 0.92000002 1.2839923e-38
-0.13630413 0.22663587 0.92000002 2.2040516e-38
-0.13388452 0.22663587 0.92000002 1.5682619e-38
-0.10484933 0.22582932 0.92000002 2.0311849e-39
-0.10133039 0.22601764 0.9188 1.6627583e-39
-0.098987937 0.22775273 0.91799998 1.3858211e-39
-0.1766308 0.22986202 0.92000002 7.3794619e-40
-0.1739587 0.2295277 0.91866672 5.6051939e-45
-0.16993187 0.22952768 0.91866672 9.4117469e-39
-0.16590506 0.2295277 0.91866672 1.4489848e-38
-0.16199572 0.22969426 0.91933334 1.973092e-38
-0.15796599 0.22969428 0.9193334 2.2214472e-38
-0.15371299 0.23016708 0.9180001 1.7054801e-38
-0.14968908 0.23016708 0.91799998 7.2961253e-39
-0.14577095 0.22952768 0.91866672 1.530084e-38
-0.14194986 0.229862 0.92000002 1.6410866e-38
-0.13778433 0.22963874 0.91911113 1.4856052e-38
-0.13369049 0.2295277 0.91866672 2.0192998e-38
-0.1297572 0.23050082 0.91933334 4.6173723e-39
-0.1256579 0.23018463 0.92000002 9.7799591e-39
-0.12178653 0.229862 0.91999996 9.2449825e-40
-0.11766853 0.22969425 0.91933334 1.846079e-39
-0.11414625 0.22979012 0.91971433 9.2484297e-40
-0.10993125 0.2298768 0.9191429 1.6613276e-39
-0.10561701 0.23058467 0.91966671 1.7542309e-39
-0.10174067 0.23008397 0.91960001 2.0304633e-39
-0.098987937 0.23016708 0.91799998 1.9382872e-39
-0.17463724 0.23258141 0.91799998 1.1049407e-39
-0.16176078 0.23258142 0.91799998 1.3554939e-38
-0.15532254 0.23258141 0.91799998 2.3491565e-38
-0.1488843 0.23258141 0.91799998 1.3077794e-38
-0.14566517 0.23258142 0.91799998 1.4629014e-38
-0.14157873 0.23345575 0.9193334 2.0706015e-38
-0.13761738 0.23258142 0.91799998 2.3126394e-38
-0.13359347 0.23258141 0.91799998 2.3487965e-38
-0.13037436 0.23258141 0.91799998 1.1140244e-38
-0.12635046 0.23338619 0.9180001 1.1063879e-38
-0.12237068 0.23427543 0.91833341 2.7557235e-40
-0.11850385 0.23398976 0.9180001 1.8446427e-39
-0.11427876 0.23338619 0.91799998 1.6606144e-39
-0.11045606 0.23398976 0.9180001 1.6602668e-39
-0.10623095 0.23338619 0.91799998 1.6598913e-39
-0.10220706 0.23373109 0.9180001 1.7517226e-39
-0.098987937 0.23258141 0.91799998 2.9466798e-39
-0.050168123 0.093862936 0.92299998 3.5956296e-39
-0.070397206 0.099527083 0.92299998 3.5034339e-39
-0.066351391 0.097908758 0.92299998 2.8602379e-39
-0.062305577 0.097908758 0.92299998 3.0435376e-39
-0.058259755 0.097908758 0.92299998 3.4108824e-39
-0.054213941 0.097099595 0.92299998 3.503078e-39
-0.073633865 0.10168485 0.92300004 3.3186881e-39
-0.084962144 0.10761871 0.92299998 2.7655158e-39
-0.081725493 0.10653983 0.92300004 2.9491952e-39
-0.078488842 0.10600039 0.92299998 2.8573625e-39
-0.075252183 0.10438206 0.92299998 3.1342983e-39
-0.089007959 0.11004621 0.92299998 2.6736761e-39
-0.08658047 0.10923705 0.92299998 2.7655158e-39
-0.096290432 0.11571035 0.92299998 2.3970864e-39
-0.093593225 0.11355257 0.92300004 1.7553141e-39
-0.091435447 0.1124737 0.92299998 2.0315409e-39
-0.09871792 0.11813784 0.92299998 1.9361082e-39
-0.10438206 0.12380198 0.92299998 1.4747798e-39
-0.10195458 0.12137449 0.92299998 1.5684145e-39
-0.10600039 0.12622947 0.92299998 1.1999907e-39
-0.11301314 0.13135418 0.92300004 1.4744084e-39
-0.11031593 0.12919641 0.92300004 1.6580948e-39
-0.11813784 0.13513026 0.92299998 2.6747284e-39
-0.11571035 0.13513026 0.92299998 1.2896822e-39
-0.11813784 0.1367486 0.92299998 2.3052411e-39
-0.11571035 0.1367486 0.92299998 1.1974866e-39
-0.12326254 0.16210239 0.92300004 4.2038954e-45
-0.12218367 0.16587847 0.92299998 1.4012985e-45
-0.12137449 0.16992429 0.92299998 4.2038954e-45
-0.12056533 0.17235178 0.92299998 5.6051939e-45
-0.11894701 0.17801592 0.92299998 0
-0.11732867 0.18287089 0.92299998 0
0.016992429 0.18287089 0.92299998 9.2125425e-40
-0.11732867 0.18691672 0.92299998 0
-0.11571035 0.18691672 0.92299998 0
0.017801594 0.18610756 0.92299998 1.0137974e-39
-0.11732867 0.1893442 0.92299998 0
-0.11571035 0.1917717 0.92299998 0
0.026702389 0.19096254 0.92299998 7.272739e-43
0.028320715 0.19096254 0.92299998 3.7861487e-39
-0.11571035 0.19419919 0.92299998 0
0.026702389 0.19419919 0.92299998 0
0.028320715 0.19419919 0.92299998 5.9959627e-39
-0.11409201 0.19824502 0.92300004 0
0.023465736 0.198245 0.92299998 7.3650846e-40
0.025893226 0.198245 0.92299998 5.6051939e-45
0.030170232 0.19778262 0.92299998 9.0340843e-39
-0.11355259 0.20256054 0.92300004 7.2026741e-43
-0.1124737 0.20552747 0.92299998 2.8025969e-45
-0.11085537 0.20714581 0.92299998 0
-0.10977649 0.21011274 0.92300004 3.6994279e-43
-0.17316094 0.21361911 0.92299998 9.4107407e-39
-0.11004621 0.21361911 0.92299998 9.3648776e-41
-0.18098286 0.2187438 0.92300004 1.4447387e-42
-0.17801592 0.21847408 0.92299998 1.5741402e-39
-0.17376783 0.2178672 0.92299992 1.0059754e-38
-0.16587847 0.21928325 0.92299998 5.1789077e-39
-0.15050437 0.21928325 0.92299998 2.351348e-39
-0.10923705 0.21766493 0.92300004 1.1092356e-39
-0.18125257 0.22171073 0.92299998 7.3901398e-40
-0.17801592 0.22171074 0.92299998 4.6635213e-42
-0.1739701 0.22171073 0.92299998 7.7567181e-39
-0.1647996 0.22144102 0.92300004 9.6160338e-39
-0.16183266 0.22171073 0.92299998 7.4094245e-39
-0.15778685 0.22171074 0.92299998 6.5750493e-39
-0.15401076 0.22144102 0.92300004 1.2095261e-38
-0.1496952 0.22090158 0.92300004 2.803334e-39
-0.1456494 0.22171074 0.92299998 1.2842891e-38
-0.14214301 0.22198045 0.92300004 1.974462e-38
-0.13998525 0.22171074 0.92299998 1.873444e-38
-0.11004621 0.22171074 0.92299998 1.8471552e-39
-0.10761871 0.22171074 0.92299998 2.031901e-39
-0.18125257 0.22575657 0.92299998 2.7804004e-40
-0.17882511 0.22575657 0.92300004 3.6916087e-40
-0.17299911 0.2254329 0.92299998 1.1542026e-38
-0.17073345 0.2273749 0.92299998 1.4868249e-38
-0.16426013 0.22494739 0.92299998 2.1948681e-38
-0.14484023 0.22494739 0.92299998 6.2259172e-39
-0.14241275 0.22575657 0.92299998 8.707656e-39
-0.13856922 0.22555427 0.92299992 1.8183012e-38
-0.13459083 0.2252171 0.92300004 1.016747e-38
-0.12987071 0.22697031 0.92299998 6.7385879e-39
-0.12622947 0.22656572 0.92299998 1.8496944e-39
-0.12195247 0.22621895 0.92299998 2.0315563e-39
-0.11813784 0.22575656 0.92299998 2.3045558e-39
-0.11409202 0.22575657 0.92299992 1.108151e-39
-0.11004621 0.22575657 0.92299998 1.9361166e-39
-0.10761871 0.22575657 0.92300004 2.6736733e-39
-0.13027529 0.22899321 0.92300004 2.8747554e-39
-0.12703863 0.22899319 0.92299998 1.0890921e-38
-0.1124737 0.22899319 0.92299998 1.2014397e-39
-0.10600039 0.22899321 0.92300004 1.8460776e-39
-0.050276831 0.091633581 0.92500001 3.4112383e-39
-0.046492558 0.090011746 0.92500007 3.4108796e-39
-0.057715129 0.094294481 0.92724997 3.8722165e-39
-0.054076482 0.094349496 0.92620003 3.7800208e-39
-0.051087748 0.093255416 0.92500001 3.7800208e-39
-0.07279022 0.099308215 0.926 3.5942086e-39
-0.069853231 0.098280028 0.92649996 3.4105349e-39
-0.065083727 0.096812047 0.92799997 3.319421e-39
-0.061728287 0.097466484 0.92649996 3.1364479e-39
-0.058385998 0.096499085 0.92500001 3.59634e-39
-0.055953249 0.096499085 0.92500001 3.504143e-39
-0.085422389 0.10250688 0.92799997 4.3313995e-39
-0.082168214 0.10332042 0.92799997 3.7785887e-39
-0.077746019 0.10266672 0.92699999 3.4112425e-39
-0.07553754 0.1007154 0.92649996 3.4108852e-39
-0.093255416 0.10785192 0.92500001 2.8580701e-39
-0.09015771 0.10721326 0.92650002 3.1342983e-39
-0.086096548 0.10640103 0.92649996 3.2261338e-39
-0.082375765 0.10509852 0.92574996 3.5020046e-39
-0.077847995 0.10460825 0.92500001 3.1342983e-39
-0.096812047 0.10982879 0.92799997 2.6733201e-39
-0.094143257 0.11037342 0.92575002 2.6736761e-39
-0.091633581 0.11028466 0.92500001 2.6736733e-39
-0.013785583 0.11109558 0.92500001 1.4012985e-45
-0.0970397 0.11433925 0.92500007 2.1212226e-39
-0.094877243 0.11271741 0.92500001 2.3963773e-39
-0.013785583 0.11271741 0.92500001 5.6051939e-45
-0.10158374 0.11837776 0.92699999 2.0283039e-39
-0.099742748 0.11758291 0.92500001 1.9361082e-39
-0.1082017 0.12203199 0.92799997 2.0294025e-39
-0.1055053 0.12173546 0.92574996 1.6602584e-39
-0.10298641 0.12082657 0.92500001 1.3858211e-39
-0.11308298 0.12772682 0.92799997 2.3938592e-39
-0.11040477 0.12582707 0.92600006 1.750645e-39
-0.10731131 0.12461086 0.92500007 1.6588151e-39
-0.11352833 0.12974666 0.92500001 1.6591668e-39
-0.11796426 0.13423519 0.92799997 2.2159223e-39
-0.11596109 0.13299033 0.92500001 2.1208484e-39
-0.1258959 0.15919608 0.92649996 3.5948869e-39
-0.12569208 0.16218333 0.92500001 2.6739998e-39
-0.12528662 0.16664337 0.92500001 1.1992466e-39
-0.12407025 0.1702925 0.92500001 2.8025969e-45
0.013806622 0.17056733 0.92649996 2.7697505e-40
-0.12173677 0.17448843 0.92574996 4.2038954e-45
0.014866806 0.17326586 0.92500007 3.7024267e-40
0.017084477 0.17409897 0.92799997 7.3686159e-40
-0.12203199 0.17735316 0.92799997 4.2038954e-45
0.017869536 0.17787698 0.92650002 4.6209078e-40
0.021733319 0.1786316 0.92800003 4.6242989e-40
0.030426642 0.17914295 0.92799997 6.08492e-39
-0.11920475 0.18164533 0.92500001 2.8025969e-45
0.018110473 0.18137503 0.92500007 3.6988955e-40
0.02193201 0.18193945 0.92650002 4.6278582e-40
0.026033491 0.18223444 0.92799997 2.7623797e-40
0.029287677 0.18223444 0.92799997 2.9506287e-39
-0.11889594 0.18585047 0.92575002 0
0.018651083 0.18407808 0.92500001 6.4501908e-40
0.021903224 0.18576625 0.92533344 2.7947216e-40
0.025949335 0.18569991 0.92500007 1.0874076e-42
0.028811868 0.1854437 0.92574996 2.4014178e-39
-0.11920475 0.18975449 0.92500001 0
0.017840166 0.18894358 0.92500001 1.8727793e-40
0.021894751 0.18975449 0.92500007 3.7094192e-40
0.025679028 0.18948421 0.92500007 5.6051939e-45
0.028382082 0.18894358 0.92500001 2.5858119e-39
-0.11830896 0.19361041 0.92560005 2.8025969e-45
0.021909362 0.19394816 0.92566669 2.7803723e-40
0.025138419 0.19380908 0.92500007 4.2038954e-45
0.030814832 0.19462 0.92500001 1.0140079e-38
-0.11850663 0.19769184 0.92799997 9.8090893e-45
-0.11596109 0.19786367 0.92500001 2.8025969e-45
0.021583533 0.19783035 0.92559999 7.3721612e-40
0.025138417 0.19705275 0.92500001 1.2611686e-44
-0.11796426 0.20175955 0.92799997 7.3848429e-43
-0.1159611 0.20191824 0.92500007 7.2307001e-43
0.020338666 0.200946 0.92799997 4.6026909e-40
-0.11633717 0.20664084 0.92799997 3.6987133e-40
-0.11433925 0.20597282 0.92500001 9.2924305e-41
-0.17381756 0.2111789 0.92649996 1.0323022e-38
-0.17013575 0.21108484 0.92679995 2.8519437e-39
-0.11633717 0.20989501 0.92799997 1.1056455e-39
-0.11352833 0.21002744 0.92500007 4.6134949e-40
-0.11109558 0.21164924 0.92500001 1.098618e-42
-0.18597677 0.21493903 0.92799997 9.2377098e-40
-0.1820381 0.21373045 0.92699999 2.7695823e-40
-0.17846629 0.21353121 0.92714286 5.9970572e-39
-0.17596892 0.214082 0.92500001 1.9834313e-38
-0.16840415 0.21396276 0.92799997 1.1100176e-39
-0.16612621 0.21428819 0.92799997 3.8758514e-39
-0.16222119 0.21493903 0.92799997 1.5302985e-38
-0.15213321 0.21558985 0.92799997 2.3509886e-38
-0.14969257 0.21558985 0.92799997 2.3509886e-38
-0.14725195 0.21558985 0.92799997 2.3509886e-38
-0.12176081 0.21504748 0.92799997 2.0301185e-39
-0.11823544 0.21396278 0.92799997 2.3963843e-39
-0.11433925 0.21408199 0.92500007 1.5702124e-39
-0.18564908 0.21811005 0.92575002 1.5687704e-39
-0.18191564 0.21705537 0.92500007 2.7696104e-40
-0.17840166 0.21651475 0.92500001 3.7868564e-39
-0.17596892 0.21651475 0.92500001 1.983609e-38
-0.16537158 0.21795264 0.92559999 8.2224452e-39
-0.16205271 0.21827736 0.92757148 1.2089233e-38
-0.15738766 0.21914884 0.92699999 7.7509966e-39
-0.15378207 0.21848856 0.92650002 1.1172586e-38
-0.14964028 0.21810034 0.92600006 2.0014387e-38
-0.1461228 0.21837065 0.926 1.8916313e-38
-0.14214054 0.21930122 0.92650002 1.6981649e-38
-0.13911647 0.21884404 0.92799997 9.3417254e-39
-0.12935391 0.21884404 0.92799997 1.3829344e-39
-0.12569295 0.21843727 0.92799997 2.0304703e-39
-0.12183517 0.21848856 0.92650002 2.3059754e-39
-0.11839383 0.21813658 0.92500007 2.8569995e-39
-0.11433925 0.21813656 0.92500007 2.4892918e-39
-0.11109558 0.21813658 0.92500007 1.9375712e-39
-0.18619199 0.22215134 0.92628574 3.7803908e-39
-0.16108224 0.22047113 0.92799997 8.1319592e-39
-0.15864159 0.22047113 0.92799997 1.0245319e-38
-0.14353225 0.22138025 0.92500001 2.3050708e-38
-0.13800487 0.22161782 0.92600006 1.3493334e-38
-0.13455883 0.22227985 0.92650002 8.7017173e-39
-0.12976068 0.222505 0.92799997 7.4628112e-40
-0.12600972 0.22193751 0.9273333 1.5706019e-39
-0.12163749 0.22219115 0.92500001 2.5829182e-39
-0.11839383 0.22219115 0.92500001 2.3967332e-39
-0.11433925 0.22219115 0.92500007 1.9368397e-39
-0.18564907 0.22622581 0.92575002 4.6097927e-39
-0.13286293 0.22540736 0.926 2.7709276e-41
-0.13001697 0.22516453 0.92500007 5.8263089e-39
-0.12569208 0.22462392 0.92500007 1.3858491e-39
-0.12244841 0.22462392 0.92500001 2.8580701e-39
-0.061147496 0.095390096 0.93000001 3.6878252e-39
-0.059516896 0.093759499 0.93000001 3.7796677e-39
-0.053809799 0.092128903 0.93000001 4.1484502e-39
-0.074192293 0.098651297 0.93000001 3.869362e-39
-0.067669898 0.097020693 0.93000001 3.1354095e-39
-0.0627781 0.097020693 0.93000001 3.5034339e-39
-0.082345299 0.1019125 0.93000001 4.0548225e-39
-0.079084098 0.1019125 0.93000001 3.5034395e-39
-0.088867702 0.1051737 0.93000001 3.8700641e-39
-0.087237097 0.1051737 0.93000001 3.8700641e-39
-0.097835995 0.1116961 0.93000001 2.4885758e-39
-0.098651297 0.114142 0.93000001 2.3967361e-39
-0.1051737 0.1198491 0.93000001 1.6627667e-39
-0.1019125 0.1182185 0.93000001 1.4780168e-39
-0.11060904 0.12256677 0.93000001 1.5691334e-39
-0.1133267 0.12637149 0.93000001 2.9484623e-39
-0.1182185 0.13289389 0.93000001 3.5063108e-39
-0.1247409 0.17365889 0.93000001 1.4012985e-45
0.018344248 0.17325124 0.93000001 4.6171663e-40
0.020382499 0.1752895 0.93000001 9.219563e-40
0.0228284 0.17692009 0.93000001 7.3756924e-40
0.026089599 0.17855069 0.93000001 2.766009e-40
0.028535498 0.17855069 0.93000001 1.5414283e-44
-0.1214797 0.1809966 0.93000001 0
0.026089599 0.18018129 0.93000001 2.766009e-40
-0.1214797 0.18996489 0.93000001 4.2038954e-45
-0.1214797 0.1940414 0.93000001 1.821688e-44
-0.1198491 0.1989332 0.93000001 9.2931312e-41
-0.1198491 0.20219439 0.93000001 9.4015917e-41
-0.18507309 0.20790149 0.93000001 1.7506576e-39
-0.1818119 0.20790151 0.93000001 1.1974838e-39
-0.17773539 0.20790149 0.93000001 7.3558767e-39
-0.17447421 0.20627092 0.93000001 8.2875356e-39
-0.1695824 0.20790149 0.93000001 6.3367011e-39
-0.11862615 0.20586324 0.93000001 5.5391507e-40
-0.18588839 0.21034738 0.93000001 1.0152519e-39
-0.1818119 0.21034738 0.93000001 7.3792377e-40
-0.17773539 0.21034738 0.93000001 1.3162015e-38
-0.17365889 0.20953208 0.93000001 1.0589229e-38
-0.1695824 0.20953208 0.93000001 5.2346233e-39
-0.16632119 0.21034738 0.93000001 9.8350469e-39
-0.1638753 0.21034738 0.93000001 1.9698187e-38
-0.146754 0.21116269 0.93000001 1.3523985e-38
-0.11903381 0.21034738 0.93000001 2.3038342e-39
-0.18887782 0.21388036 0.93000001 3.5038011e-39
-0.18588839 0.21279329 0.93000001 7.3685598e-40
-0.1655059 0.21279329 0.93000001 4.6046892e-39
-0.16183704 0.21320094 0.93000001 2.1658278e-38
-0.1581682 0.21442389 0.93000001 2.3139143e-38
-0.15368405 0.21401624 0.93000001 2.3509886e-38
-0.15001521 0.21360859 0.93000001 2.3509886e-38
-0.14626482 0.21377166 0.93000001 2.2578486e-38
-0.1255562 0.21442389 0.93000001 2.3963829e-39
-0.12256677 0.21333683 0.93000001 2.4889317e-39
-0.1198491 0.21279329 0.93000001 2.5804239e-39
-0.18996489 0.21768509 0.93000001 7.5582382e-39
-0.1581682 0.21686979 0.93000001 9.2379522e-39
-0.15517877 0.21659802 0.93000001 2.0010056e-38
-0.14485162 0.21659802 0.93000001 2.0658308e-38
-0.1418622 0.21686979 0.93000001 1.5686548e-38
-0.13745956 0.21833733 0.93000001 1.6430976e-38
-0.13343742 0.21877216 0.93000001 3.1415024e-39
-0.1296327 0.21741334 0.93000001 1.3847337e-39
-0.12582797 0.21659802 0.93000001 1.7546106e-39
-0.13343742 0.22148983 0.93000001 1.2561664e-38
-0.13126329 0.22176158 0.93000001 1.1535489e-41
-0.056558147 0.090984851 0.935 4.4253902e-39
-0.053748723 0.090308651 0.93366671 3.7789488e-39
-0.050285079 0.089923382 0.93419999 3.5023549e-39
-0.069673076 0.095902942 0.935 3.136113e-39
-0.065981261 0.095124118 0.93380004 3.2279359e-39
-0.062524162 0.094741665 0.93433332 3.6874679e-39
-0.058073029 0.092426084 0.93300003 4.149525e-39
-0.0769687 0.099075608 0.93400002 3.5949261e-39
-0.06952405 0.09733367 0.93300003 3.136113e-39
-0.092426084 0.10387711 0.93300003 3.3179861e-39
-0.089972302 0.10305918 0.93300003 3.8704214e-39
-0.087518506 0.10305918 0.93300003 4.0548127e-39
-0.081148647 0.10082104 0.935 3.7793174e-39
-0.078606315 0.10071322 0.93400002 3.7793132e-39
-0.094061948 0.1063309 0.93300003 2.9495609e-39
-0.090790227 0.10551297 0.93300003 3.5938373e-39
-0.095697805 0.10878469 0.93300003 2.8570122e-39
-0.10129562 0.11494648 0.93433332 2.213421e-39
-0.013934617 0.11557535 0.935 4.2038954e-45
-0.10491946 0.11885408 0.935 1.3883266e-39
-0.10246041 0.11721471 0.935 1.6627667e-39
-0.11299619 0.12282187 0.93400002 1.108144e-39
-0.11463206 0.12609535 0.93400002 3.0438851e-39
-0.11737295 0.13045982 0.93300003 3.8732927e-39
-0.11532813 0.12923294 0.93300003 1.7531463e-39
0.026229866 0.15983824 0.935 1.8692481e-40
0.026229866 0.16229729 0.935 4.6279563e-40
0.028688913 0.16311698 0.935 8.4077908e-45
0.010655883 0.16639572 0.935 9.5082305e-41
0.013934616 0.16639572 0.935 1.858346e-40
0.018033031 0.16557604 0.935 5.5282345e-40
0.021721609 0.16598588 0.935 8.2905441e-40
0.026229866 0.16557604 0.935 6.4536941e-40
0.030328281 0.16557604 0.93500006 4.0558832e-39
0.033607014 0.16557604 0.935 1.1707049e-38
0.010655883 0.16803508 0.935 1.8328984e-42
0.014151279 0.16899817 0.9338572 1.8230893e-42
0.018007318 0.16943133 0.93366671 1.8619893e-40
0.02213145 0.16967443 0.935 7.3793218e-40
0.026229864 0.16967444 0.93500006 7.3900698e-40
0.030328283 0.16967443 0.935 4.1484362e-39
0.034426697 0.16967444 0.93500006 1.1431538e-38
-0.12514329 0.17585494 0.93300003 5.6051939e-45
0.022300866 0.1741071 0.93350005 9.2232064e-40
0.026211163 0.17446689 0.93433332 5.5497585e-40
0.030306654 0.17446688 0.93433338 4.2417108e-39
0.034248382 0.17418927 0.93460006 1.1523731e-38
-0.12350743 0.17912666 0.93300003 1.4012985e-45
0.026173759 0.1774908 0.93300003 2.7730996e-40
0.030263409 0.1774908 0.93300003 4.7019771e-39
0.03353513 0.1774908 0.93300003 1.1062406e-38
-0.12363981 0.18177596 0.93400002 9.219563e-41
-0.12541156 0.18770748 0.935 2.1804204e-42
-0.12277775 0.18580221 0.93366671 2.8025969e-45
-0.12541156 0.19016652 0.935 2.765953e-40
-0.12350743 0.18975976 0.93300003 7.0064923e-45
-0.12541156 0.19426495 0.93500006 9.2199834e-41
-0.12350743 0.19384941 0.93300003 3.7554799e-43
-0.12541156 0.19836336 0.935 7.3830072e-40
-0.12282187 0.19815122 0.93400002 9.4736184e-41
-0.18442874 0.20246178 0.935 1.7510079e-39
-0.18157257 0.2025284 0.93380004 2.1194303e-39
-0.17843615 0.20217189 0.93366671 2.3960172e-39
-0.1742602 0.20207644 0.93322223 1.3829443e-39
-0.17008428 0.20205194 0.935 7.3792798e-40
-0.12541156 0.2016421 0.935 1.7524541e-39
-0.12263181 0.20187406 0.93380004 1.0141701e-39
-0.18934684 0.20737988 0.935 3.7835059e-43
-0.18556468 0.20561406 0.93350005 1.384382e-39
-0.18158045 0.20611836 0.93300003 1.8435623e-39
-0.17830873 0.20611836 0.93300003 4.635117e-40
-0.17258322 0.20611836 0.93300003 1.1880997e-38
-0.16993445 0.20525387 0.9338572 7.5499565e-39
-0.16615784 0.20626506 0.93366671 1.5281078e-38
-0.16229729 0.20737988 0.935 1.2607796e-38
-0.15819888 0.20737988 0.93500006 1.0497334e-38
-0.15410046 0.20737988 0.935 8.4762568e-39
-0.15000205 0.20656018 0.93500006 1.8731577e-40
-0.14617686 0.20683342 0.93500006 8.3264734e-40
-0.14180522 0.20737988 0.93500006 2.0279535e-39
-0.13743357 0.20683342 0.93500006 2.0286626e-39
-0.13442805 0.20656019 0.935 2.213421e-39
-0.13065754 0.20672412 0.93500006 2.3052621e-39
-0.12623122 0.2057405 0.93500006 2.4885772e-39
-0.12254922 0.20606577 0.93400002 1.9350432e-39
-0.19221355 0.21184386 0.93300003 8.6642256e-39
-0.18982784 0.21028253 0.9333334 1.5666195e-39
-0.18730597 0.20857215 0.93300003 1.0166925e-39
-0.17258322 0.20857215 0.93300003 8.8339663e-39
-0.16603979 0.20857215 0.93300003 1.0377411e-38
-0.16200772 0.2102825 0.93333334 1.8125379e-38
-0.1580105 0.21040709 0.93388885 1.3807375e-38
-0.15393595 0.21043214 0.93400002 1.6204442e-38
-0.14988567 0.2100035 0.93300003 1.2150742e-38
-0.14555208 0.21006036 0.93380004 2.5725037e-39
-0.14214312 0.21023029 0.93414289 1.2886439e-39
-0.13806272 0.21046837 0.93325007 1.0166715e-39
-0.13414052 0.21020798 0.93300003 1.9375544e-39
-0.13005085 0.21020801 0.93300003 2.397092e-39
-0.12596121 0.21020798 0.93300003 2.7655172e-39
-0.12237678 0.21003816 0.93328583 2.7655144e-39
-0.19221355 0.21429765 0.93300003 8.5723887e-39
-0.19057769 0.21347973 0.93300003 4.6998135e-39
-0.1578605 0.21347973 0.93300003 2.3509886e-38
-0.15458877 0.21347973 0.93300003 2.3509886e-38
-0.1447736 0.21347973 0.93300003 2.3467942e-38
-0.14231983 0.21429767 0.93300003 1.667412e-38
-0.13823016 0.21429765 0.93300003 2.3081067e-39
-0.13414052 0.21429767 0.93300003 1.1113866e-39
-0.13005087 0.21429765 0.93300003 2.305981e-39
-0.12596121 0.21347973 0.93300003 2.5811245e-39
-0.19221355 0.21756938 0.93300003 8.8482595e-39
-0.13823017 0.21675146 0.93300003 1.0793385e-38
-0.13441317 0.21729675 0.93300003 6.1180691e-42
-0.13168672 0.21675146 0.93300003 7.4621946e-40
-0.068397529 0.090647325 0.94 3.3179679e-39
-0.066200018 0.09092202 0.94 4.0558902e-39
-0.061360966 0.091010705 0.93950003 3.9662156e-39
-0.057917859 0.090307772 0.93933338 4.1488033e-39
-0.054388396 0.088999197 0.94 3.3179707e-39
-0.051916201 0.088175133 0.94 2.8594939e-39
-0.069147959 0.093842782 0.93900001 3.0442621e-39
-0.065785065 0.092921406 0.93800002 3.5967114e-39
-0.062495813 0.092921406 0.93800002 3.5059549e-39
-0.081409015 0.099499911 0.93800002 3.8718633e-39
-0.078655839 0.09842293 0.93950003 3.6871175e-39
-0.073839299 0.097445011 0.93933338 2.9510183e-39
-0.071617529 0.097135544 0.93900001 2.8598848e-39
-0.0123347 0.11512387 0.93800002 5.6051939e-45
-0.10465646 0.11784153 0.94 1.3858211e-39
-0.013979327 0.11759081 0.93800008 1.4012985e-45
-0.11594618 0.12499163 0.93800002 2.6747467e-39
0.0074165999 0.15574859 0.94 1.1056385e-39
0.010163489 0.15519921 0.94 8.2940754e-40
0.014210985 0.15426505 0.93975002 5.5354232e-40
0.01809703 0.15382665 0.93833339 9.4723572e-41
0.022027345 0.15418352 0.93925005 2.7911904e-40
0.026370132 0.15492453 0.94 7.258726e-43
0.0065925331 0.1582208 0.94 9.2267797e-40
0.0098725818 0.15796788 0.93850005 1.1063434e-39
0.013979326 0.15788417 0.93800008 1.2893025e-39
0.018090893 0.15788415 0.93800002 7.3901398e-40
0.02220246 0.15788415 0.93800008 3.7131747e-40
0.026314026 0.15788415 0.93800002 1.4419361e-42
0.0069966768 0.16175552 0.93900001 4.6279003e-40
0.0098677604 0.16199574 0.93800008 2.776743e-40
0.013979328 0.16199572 0.93800002 8.2940754e-40
0.018090894 0.16199572 0.93800008 7.3829371e-40
0.02220246 0.16199571 0.93800002 5.5462833e-40
0.02960328 0.16281804 0.93800002 6.4501768e-40
0.00740082 0.1661073 0.93800002 2.7803023e-40
0.0095936554 0.16583319 0.93800008 1.8655486e-40
0.013979326 0.16569613 0.93800002 3.6950419e-40
0.023024773 0.16528498 0.93800002 8.2940614e-40
-0.12608218 0.18294279 0.94 3.657389e-43
-0.12594807 0.18604006 0.93900001 7.3988559e-43
-0.12773032 0.18953532 0.94 7.3865945e-40
-0.12773034 0.19365565 0.94 1.2907444e-39
-0.18623906 0.19860005 0.94 1.751717e-39
-0.18211871 0.19860005 0.94 2.0279535e-39
-0.17759804 0.19900742 0.93933338 2.4889303e-39
-0.17405902 0.19908889 0.93920004 2.6736775e-39
-0.17039943 0.19921109 0.93900001 2.7655214e-39
-0.16646145 0.19777599 0.94 2.8580701e-39
-0.16398926 0.19860005 0.94 2.8580701e-39
-0.12937847 0.19777599 0.94 2.3045404e-39
-0.12754916 0.1983172 0.9386667 2.1208694e-39
-0.18871126 0.20354445 0.94 1.5673257e-39
-0.18624538 0.20139419 0.93920004 1.6587997e-39
-0.18243301 0.20055285 0.93949997 2.4867667e-39
-0.17882246 0.2002482 0.94 2.9473833e-39
-0.16924225 0.20106058 0.9386667 2.1201506e-39
-0.16622534 0.20160881 0.93866676 1.4747854e-39
-0.16234112 0.20189635 0.94 1.7520869e-39
-0.15805598 0.20222595 0.94 1.5680586e-39
-0.15410046 0.20210233 0.94 2.1215967e-39
-0.14998013 0.20189634 0.94 2.1226631e-39
-0.14651905 0.20255558 0.94 2.2126979e-39
-0.14173946 0.20354445 0.94 2.3963801e-39
-0.13816851 0.20299509 0.94 2.3041845e-39
-0.13432288 0.20272039 0.94 1.8457203e-39
-0.1297905 0.20230836 0.94 1.9361278e-39
-0.12745856 0.20228907 0.93800002 2.0293997e-39
-0.18954116 0.20544976 0.9386667 7.3757345e-40
-0.1661073 0.20475602 0.93800002 6.7262326e-44
-0.16205329 0.20565109 0.93833339 5.2512469e-39
-0.15788415 0.20557833 0.93800002 4.9757264e-39
-0.15410152 0.20541386 0.93800002 2.0265522e-39
-0.14966103 0.20475602 0.93800002 2.5807742e-39
-0.14570375 0.20538548 0.93900001 1.8457287e-39
-0.14193128 0.20574279 0.93800002 2.3041817e-39
-0.13842276 0.20530424 0.93800008 2.212342e-39
-0.13403708 0.20475602 0.93800008 2.3041817e-39
-0.12965141 0.20530424 0.93800008 1.9379145e-39
-0.19365565 0.21178512 0.94 8.4798273e-39
-0.191599 0.20804527 0.93800002 1.3811226e-39
-0.073576003 0.091763332 0.94300002 3.3183392e-39
-0.070820346 0.091212198 0.94300002 3.2268527e-39
-0.065309033 0.090109937 0.94300002 4.7923749e-39
-0.062002249 0.08955881 0.94300002 4.0562616e-39
-0.057868764 0.088456541 0.94300002 3.3172448e-39
-0.055388674 0.088456541 0.94300002 2.6733201e-39
-0.074127138 0.094518982 0.94300002 2.8595107e-39
-0.071922608 0.094243415 0.94300002 2.9524294e-39
-0.081842966 0.0983769 0.94300002 3.7796677e-39
-0.076882794 0.096723504 0.94300002 2.8598848e-39
-0.075229399 0.096723504 0.94300002 2.6751348e-39
-0.085976452 0.10168369 0.94300002 4.4228875e-39
-0.083496362 0.10085699 0.94300002 4.0548281e-39
-0.10912397 0.11821763 0.94300002 3.4133809e-39
-0.10609274 0.11711536 0.94300002 6.4823506e-40
-0.01488054 0.11987101 0.94300002 5.6051939e-45
-0.11491083 0.1231778 0.94300002 1.4747798e-39
0.01488054 0.15128548 0.94300002 1.8062737e-42
0.018187325 0.15128548 0.94300002 0
0.021494113 0.15128548 0.94300002 9.5082305e-41
0.0068891384 0.15404114 0.94300002 1.0138002e-39
0.0096447943 0.15349001 0.94300002 6.4609528e-40
0.01240045 0.15293887 0.94300002 9.5082305e-41
0.023974203 0.15293887 0.94300002 4.6422496e-40
0.026454292 0.15293887 0.94300002 3.61535e-43
0.0049601803 0.15624566 0.94300002 1.1985432e-39
-0.12648459 0.17939317 0.94300002 5.6051939e-45
-0.12813799 0.18269995 0.94300002 3.657389e-43
-0.12648459 0.18104656 0.94300002 1.6815582e-44
-0.12879936 0.18633743 0.94300002 3.70593e-40
-0.12979138 0.19014023 0.94300002 1.7506492e-39
-0.18633743 0.19526576 0.94300002 1.9357579e-39
-0.18187326 0.1959271 0.94300002 2.0297528e-39
-0.17740911 0.19526576 0.94300002 2.3970948e-39
-0.17344098 0.1946044 0.94300002 2.857717e-39
-0.17046484 0.1946044 0.94300002 3.2250814e-39
-0.16649671 0.19526576 0.94300002 2.5822035e-39
-0.16285923 0.1959271 0.94300002 2.5811245e-39
-0.13045274 0.1946044 0.94300002 1.5687761e-39
-0.19014023 0.19840719 0.94300002 1.105993e-39
-0.18600675 0.1975805 0.94300002 1.9357579e-39
-0.18187326 0.19758049 0.94300002 1.9357621e-39
-0.17773978 0.1975805 0.94300002 2.58077e-39
-0.17360631 0.19758049 0.94300002 3.3172448e-39
