# .PCD v0.7 - Point Cloud Data file format
VERSION 0.7
FIELDS x y z rgb
SIZE 4 4 4 4
TYPE F F F F
COUNT 1 1 1 1
WIDTH 973
HEIGHT 1
VIEWPOINT 0 0 0 1 0 0 0
POINTS 973
DATA ascii
-0.024978688 0.025607083 0.89600003 2.3483845e-38
-0.021993814 0.025921281 0.89600003 2.3477347e-38
-0.019287542 0.026372762 0.898 2.3473739e-38
-0.097510755 0.02988206 0.89699996 2.3470134e-38
-0.095044687 0.029848747 0.89600003 2.3465806e-38
-0.024350293 0.029063253 0.89600003 2.3475195e-38
-0.021993812 0.029063253 0.89600003 2.3471594e-38
-0.018421574 0.030072823 0.89799994 2.3468343e-38
-0.014957686 0.030702619 0.898 2.3465773e-38
-0.10234207 0.034638852 0.898 2.1530802e-38
-0.098285235 0.03380933 0.89688885 2.3373639e-38
-0.095044687 0.032990716 0.89600003 2.3465815e-38
-0.018083101 0.03380933 0.89688885 2.3466877e-38
-0.014564062 0.03424523 0.898 2.3468301e-38
-0.10228552 0.03776636 0.89749998 2.0974394e-38
-0.098223776 0.037717417 0.8963334 2.2820811e-38
-0.018066347 0.037703682 0.89600003 2.3464697e-38
-0.014170439 0.03778784 0.898 2.3466123e-38
-0.0118087 0.038575083 0.898 2.346363e-38
-0.10222899 0.041677609 0.89700001 2.0512372e-38
-0.098186664 0.041631151 0.89600003 2.2175068e-38
-0.095044687 0.043202132 0.89600003 2.1620443e-38
-0.018066347 0.041631151 0.89600003 2.3463274e-38
-0.014170441 0.041724071 0.89799994 2.3369991e-38
-0.0118087 0.041724078 0.898 2.2453081e-38
-0.10228552 0.04563532 0.89749998 1.9225905e-38
-0.098186664 0.046344109 0.89600003 1.996527e-38
-0.095044695 0.046344109 0.89600009 1.9595417e-38
-0.018066347 0.046344105 0.89600003 2.3368193e-38
-0.014170439 0.045660302 0.898 2.2725352e-38
-0.011283869 0.045922719 0.898 1.9593971e-38
-0.10234206 0.049596541 0.89799994 1.7846947e-38
-0.098186664 0.050271571 0.89600003 1.7656096e-38
-0.095044687 0.050271571 0.89600003 1.9773689e-38
-0.018072484 0.050290566 0.8963334 2.1431753e-38
-0.01417044 0.049596541 0.89799994 2.0511243e-38
-0.011415076 0.049202915 0.898 2.0517004e-38
-0.10194844 0.053926393 0.898 1.9960233e-38
-0.098236144 0.054226309 0.89644444 2.0977252e-38
-0.095044695 0.05419904 0.89600009 2.0424438e-38
-0.018070439 0.054212868 0.89622223 2.2821536e-38
-0.014170441 0.054320019 0.89799994 2.3377958e-38
-0.0118087 0.054320019 0.898 2.3008836e-38
-0.098004669 0.058046907 0.89720005 1.9041875e-38
-0.094259188 0.058126509 0.89600003 1.9593247e-38
-0.018092062 0.058213007 0.89733332 2.2362762e-38
-0.014957686 0.058256254 0.898 2.0238606e-38
-0.097510755 0.062123232 0.89700001 1.9132993e-38
-0.094259195 0.062053971 0.89600003 1.9409217e-38
-0.01809206 0.062146321 0.89733326 1.9321692e-38
-0.01432789 0.06187759 0.89799994 1.8029906e-38
-0.097510755 0.066055074 0.89700001 1.8581621e-38
-0.094259188 0.06598144 0.89600003 1.8857128e-38
-0.091117226 0.066766933 0.89600003 1.9317023e-38
-0.018092062 0.066079631 0.89733332 1.8766014e-38
-0.014432855 0.066391133 0.898 1.6833164e-38
-0.097171038 0.069633186 0.89749998 1.8950405e-38
-0.094294548 0.069935501 0.89633334 1.8856769e-38
-0.090331733 0.069908902 0.89600003 1.8856052e-38
-0.085815139 0.070105284 0.89599997 1.8946455e-38
-0.082476795 0.071479894 0.89600003 1.9039005e-38
-0.02120832 0.071479894 0.89600003 1.8946811e-38
-0.018096933 0.070030667 0.89755547 1.8673457e-38
-0.01432789 0.069750048 0.89799994 1.5633214e-38
-0.096831337 0.074001178 0.898 1.8581621e-38
-0.09441743 0.073960416 0.89749998 1.8581621e-38
-0.090331733 0.073836379 0.89600003 1.8672739e-38
-0.085618779 0.073836379 0.89600003 1.8670946e-38
-0.081953138 0.0740982 0.89600009 1.8855693e-38
-0.079334825 0.074621864 0.89600003 1.8579469e-38
-0.024350293 0.074621864 0.89600003 1.9683647e-38
-0.021731984 0.0740982 0.89600009 1.9223393e-38
-0.018500295 0.073607557 0.898 1.8948963e-38
-0.093157522 0.07741259 0.89799994 1.8305039e-38
-0.089713097 0.077909075 0.89766663 1.8304324e-38
-0.085725345 0.077861443 0.89711106 1.8487275e-38
-0.081752084 0.077822879 0.89666665 1.8671663e-38
-0.077988267 0.078212701 0.89600003 1.8671663e-38
-0.073836371 0.079334825 0.89600003 1.8488351e-38
-0.036918186 0.078549333 0.89600003 1.9041157e-38
-0.033551782 0.078212693 0.89600003 1.9592529e-38
-0.029848747 0.077763848 0.89600003 2.0051707e-38
-0.025933748 0.077803202 0.89644444 1.9684006e-38
-0.022180719 0.077554494 0.89720005 1.9407782e-38
-0.019681167 0.076362923 0.898 1.9685441e-38
-0.092107855 0.081086405 0.898 1.8305039e-38
-0.089746118 0.081086405 0.898 1.8120685e-38
-0.085416257 0.081480026 0.898 1.8670587e-38
-0.081873655 0.081873648 0.898 1.8670228e-38
-0.077937417 0.081873655 0.89799994 1.8670587e-38
-0.073878013 0.081737325 0.89649999 1.8580545e-38
-0.069908909 0.081691295 0.89600003 1.8305406e-38
-0.066766933 0.082476795 0.89600003 1.8029173e-38
-0.040060163 0.081691302 0.89600003 1.950177e-38
-0.037703678 0.081691302 0.89600003 1.8950039e-38
-0.033776212 0.08169131 0.89600003 1.8672022e-38
-0.029881183 0.081782475 0.89699996 1.9408499e-38
-0.025979139 0.081873655 0.89799994 1.9316664e-38
-0.074001178 0.085022628 0.898 1.8212127e-38
-0.069809623 0.085542731 0.89724994 1.8213203e-38
-0.06598144 0.085618779 0.89600003 1.8120291e-38
-0.062053971 0.085618772 0.89600003 1.8488351e-38
-0.058283608 0.08593297 0.89600003 1.8580545e-38
-0.05419904 0.086404264 0.89600003 1.8580904e-38
-0.050271571 0.086404264 0.89600003 1.8122444e-38
-0.046147734 0.085815139 0.89599997 1.6833159e-38
-0.041641083 0.085640401 0.89622223 1.8948606e-38
-0.037928108 0.085457467 0.8976 1.8672381e-38
-0.033616409 0.085333236 0.89771426 1.8487633e-38
-0.030059148 0.085457467 0.8976 1.8947174e-38
-0.066128716 0.089746118 0.898 1.7937338e-38
-0.062100735 0.089613453 0.89666671 1.8029176e-38
-0.058126509 0.089546233 0.89600003 1.8119933e-38
-0.05419904 0.089546248 0.89600003 1.793662e-38
-0.050271571 0.089546233 0.89600003 1.7570713e-38
-0.046344109 0.089546233 0.89600003 1.6373265e-38
-0.041691929 0.089679495 0.89733332 1.7844067e-38
-0.061405241 0.092895105 0.898 1.7477443e-38
-0.058256254 0.092895105 0.898 1.7292337e-38
-0.054320019 0.092895113 0.89799994 1.747816e-38
-0.049596541 0.092895105 0.89799994 1.6465459e-38
-0.045660302 0.093682349 0.89799994 1.5356617e-38
-0.0421177 0.092501484 0.898 1.6370753e-38
-0.073225766 -0.0059372247 0.903 2.34748e-38
-0.069663435 -0.0063330396 0.903 2.3475879e-38
-0.065705284 -0.0063330396 0.903 2.3475149e-38
-0.061747137 -0.0063330396 0.903 2.3472995e-38
-0.058184799 -0.0059372247 0.903 2.3471159e-38
-0.05383084 -0.0063330396 0.903 2.3481612e-38
-0.049872689 -0.0063330396 0.903 2.3489546e-38
-0.045914538 -0.0055414098 0.903 2.3487777e-38
-0.043539651 -0.0055414098 0.903 2.3488879e-38
-0.085232161 -0.0013193833 0.90300006 2.3190656e-38
-0.082329519 -0.00237489 0.903 2.3466856e-38
-0.078371383 -0.00237489 0.903 2.3470822e-38
-0.073819488 -0.0025727972 0.90299994 2.3470487e-38
-0.069935828 -0.0021479588 0.90214288 2.3375791e-38
-0.066073492 -0.0025990666 0.90185714 2.3469057e-38
-0.062400259 -0.0023696302 0.90100008 2.3470484e-38
-0.057490174 -0.0028247451 0.90185714 2.347874e-38
-0.053751361 -0.0023725522 0.90166664 2.3480189e-38
-0.049823206 -0.0023737208 0.90211105 2.3478389e-38
-0.045880642 -0.0023743059 0.90233338 2.3479466e-38
-0.042119451 -0.0021763251 0.90224999 2.3479107e-38
-0.038262114 -0.0013193833 0.90300006 2.3477312e-38
-0.034831718 -0.00079162995 0.903 2.347765e-38
-0.089981936 0.0034303968 0.90300006 2.3468992e-38
-0.08628767 0.0023748898 0.903 2.3476606e-38
-0.082238644 0.0023710912 0.90200007 2.3475548e-38
-0.078216687 0.002369825 0.90122223 2.3193548e-38
-0.074303344 0.0023702146 0.90166664 2.3459306e-38
-0.070930921 0.0017377287 0.90100002 2.3461472e-38
-0.067139514 0.00078987668 0.90100002 2.3461458e-38
-0.054501489 0.00078987668 0.90100002 2.3476225e-38
-0.04028371 0.00078987668 0.90100002 2.3478058e-38
-0.03793468 0.0015801915 0.90149999 2.3476982e-38
-0.033781596 0.0019197748 0.90214282 2.3476253e-38
-0.030081939 0.0023748898 0.903 2.3478407e-38
-0.026123788 0.0023748898 0.903 2.3476955e-38
-0.022165639 0.0031665198 0.903 2.3474438e-38
-0.093148462 0.0065969164 0.90300006 2.347192e-38
-0.090245813 0.0063330396 0.903 2.3471152e-38
-0.086160854 0.0063231043 0.90166664 2.3471535e-38
-0.082147166 0.0055291364 0.90100002 2.3471873e-38
-0.078987665 0.0055291364 0.90100002 2.3471196e-38
-0.071878776 0.0055291364 0.90100002 2.3478792e-38
-0.029752022 0.0060557211 0.90100002 2.3477347e-38
-0.026074989 0.0063210586 0.90133333 2.3476256e-38
-0.022165637 0.0063330396 0.903 2.3474443e-38
-0.10106476 0.011346697 0.90300006 2.3471951e-38
-0.098162115 0.01029119 0.903 2.3470511e-38
-0.094135195 0.010282813 0.90233338 2.3473741e-38
-0.090112567 0.010274826 0.90166664 2.3473027e-38
-0.086096555 0.0086886436 0.90100002 2.3470843e-38
-0.029225437 0.0086886436 0.90100002 2.3482042e-38
-0.025840251 0.0098170396 0.90100008 2.3480586e-38
-0.022124438 0.010271612 0.90133333 2.3476259e-38
-0.01979075 0.011874449 0.903 2.3474445e-38
-0.10212027 0.01424934 0.903 2.3481735e-38
-0.09805429 0.014233558 0.90200001 2.3474145e-38
-0.094785199 0.014217779 0.90100002 2.3480608e-38
-0.021853253 0.013954487 0.90100002 2.3482782e-38
-0.019262996 0.014513216 0.90300006 2.3474838e-38
-0.10212027 0.018207489 0.903 2.3485324e-38
-0.098146521 0.017858576 0.90140003 2.3484217e-38
-0.095575079 0.01658741 0.90100002 2.3485633e-38
-0.01820262 0.01820262 0.90277779 2.3473728e-38
-0.10528678 0.022165639 0.903 2.2926011e-38
-0.10212027 0.022165639 0.903 2.3481337e-38
-0.09873458 0.022116546 0.90100002 2.3484222e-38
-0.018179435 0.022132911 0.90166664 2.3473383e-38
-0.014249339 0.022165639 0.903 2.3471538e-38
-0.1084533 0.026123788 0.90300006 2.3475925e-38
-0.10607842 0.02612379 0.903 2.2736917e-38
-0.10194474 0.02607801 0.90144444 2.3380872e-38
-0.017219311 0.02574998 0.90100002 2.3470497e-38
-0.014243787 0.02611356 0.90266669 2.3466846e-38
-0.01187445 0.026123788 0.90300006 2.3467557e-38
-0.10924493 0.030081937 0.903 2.3373244e-38
-0.10602012 0.030064844 0.90250003 2.052132e-38
-0.10189408 0.030015312 0.90100002 2.2638945e-38
-0.01658741 0.029225437 0.90100002 2.3466183e-38
-0.013954487 0.029752022 0.90100002 2.3465048e-38
-0.010291189 0.030081939 0.903 2.2911163e-38
-0.11320309 0.03404009 0.90300006 2.1897026e-38
-0.11003656 0.034040086 0.903 2.2450559e-38
-0.10588293 0.033976682 0.90133333 1.9414609e-38
-0.10268396 0.032384943 0.90100002 2.1347472e-38
-0.013427903 0.03317482 0.90100002 2.3467932e-38
-0.010279891 0.034006193 0.90211105 2.3003007e-38
-0.0071246694 0.035623346 0.903 2.3465411e-38
-0.11003657 0.037998237 0.903 2.2267293e-38
-0.10584347 0.037914079 0.90100002 1.9505e-38
-0.0099563031 0.037772585 0.90140003 2.2817178e-38
-0.0071246694 0.037998237 0.903 2.3462893e-38
-0.11003656 0.041956387 0.903 2.0332235e-38
-0.10584348 0.041863464 0.90100002 1.9870189e-38
-0.0094849495 0.041895024 0.90166664 2.1066919e-38
-0.0071246694 0.040373128 0.903 2.3462534e-38
-0.11003657 0.045914542 0.903 1.8765296e-38
-0.10584347 0.045812845 0.90100002 1.8950039e-38
-0.0092280861 0.045617353 0.90233338 1.9314153e-38
-0.11320309 0.049081057 0.903 1.7293451e-38
-0.11003657 0.049872689 0.903 1.6464045e-38
-0.10584348 0.049762234 0.90100002 1.821392e-38
-0.0093321167 0.05014446 0.90220004 2.2824398e-38
-0.0071246694 0.051455949 0.903 2.0609575e-38
-0.10924493 0.05383084 0.903 1.7110879e-38
-0.10584347 0.053711616 0.90100002 1.6273537e-38
-0.10347384 0.054501489 0.90100002 1.9863731e-38
-0.0094881635 0.053771228 0.90199995 2.2451678e-38
-0.0071246694 0.05383084 0.903 2.1714073e-38
-0.10924494 0.056997359 0.903 2.0336979e-38
-0.10607842 0.057788983 0.903 1.8948993e-38
-0.10249723 0.058230832 0.90166664 1.9316664e-38
-0.013427903 0.058450874 0.90100002 2.0238606e-38
-0.010083858 0.057938896 0.90224999 2.1160198e-38
-0.0071246694 0.05778899 0.90300006 2.1529325e-38
-0.10607842 0.061747137 0.903 1.8211051e-38
-0.10175403 0.062236972 0.90149999 1.885641e-38
-0.013427903 0.063980013 0.90100002 1.8028815e-38
-0.010506098 0.062027048 0.90214288 2.02404e-38
-0.10607842 0.065705284 0.903 1.7199425e-38
-0.1022182 0.066073492 0.90185714 1.8305397e-38
-0.013427903 0.065559767 0.90100002 1.6095606e-38
-0.010086708 0.065866373 0.90249997 1.9131928e-38
-0.10528678 0.069663435 0.903 1.7477454e-38
-0.10176633 0.069914035 0.90185714 1.7845145e-38
-0.09873458 0.071088895 0.90100002 1.8766371e-38
-0.013427903 0.071878776 0.90100002 1.4529021e-38
-0.010286806 0.069638014 0.90266669 1.8580196e-38
-0.10528678 0.072038323 0.903 1.7475649e-38
-0.10212027 0.073621593 0.903 1.7753667e-38
-0.09873458 0.074248403 0.90100002 1.830468e-38
-0.017377287 0.075038284 0.90100002 1.8489796e-38
-0.014217779 0.074248403 0.90100002 1.5360571e-38
-0.01108282 0.073621586 0.903 1.7935553e-38
-0.10117032 0.078054719 0.903 1.7477084e-38
-0.097981237 0.078227304 0.90133333 1.8121726e-38
-0.095048487 0.079250962 0.90100002 1.8121009e-38
-0.021326669 0.079777539 0.90100002 1.9408141e-38
-0.018194634 0.078050807 0.90233326 1.8397233e-38
-0.014249339 0.077579744 0.903 1.4808475e-38
-0.098162115 0.082329519 0.903 1.7660396e-38
-0.094395436 0.08237879 0.90179998 1.7936979e-38
-0.090045944 0.082937047 0.90100002 1.8395806e-38
-0.086886436 0.082937047 0.90100002 1.8670587e-38
-0.022116546 0.082147174 0.90100002 1.9316664e-38
-0.01979075 0.081537887 0.903 1.922447e-38
-0.093642026 0.085728645 0.90266669 1.7752949e-38
-0.09017919 0.086225137 0.90233326 1.8119574e-38
-0.086182274 0.086182281 0.90188885 1.8486916e-38
-0.082147174 0.086096555 0.90100002 1.8210692e-38
-0.078197792 0.086096548 0.90100002 1.8211768e-38
-0.074248403 0.087676309 0.90100002 1.8121009e-38
-0.071878776 0.087676309 0.90100002 1.8213562e-38
-0.037124202 0.087676309 0.90100002 1.7935903e-38
-0.034754574 0.087676309 0.90100002 1.8303604e-38
-0.029225437 0.087676309 0.90100002 1.8394381e-38
-0.026065927 0.086096555 0.90100002 1.8947528e-38
-0.022148691 0.086224549 0.90233338 1.885641e-38
-0.089454189 0.089454189 0.903 1.8028097e-38
-0.085891858 0.089849994 0.903 1.7935185e-38
-0.082329519 0.090245813 0.903 1.7567126e-38
-0.078371368 0.090245813 0.903 1.7475649e-38
-0.073938243 0.090404145 0.903 1.7752232e-38
-0.069983073 0.089887969 0.90100002 1.8028815e-38
-0.037914079 0.090045944 0.90100002 1.6831366e-38
-0.033964701 0.090045944 0.90100002 1.7844067e-38
-0.030015312 0.090045944 0.90100002 1.8212127e-38
-0.026123788 0.090245828 0.903 1.8578751e-38
-0.022165639 0.090245813 0.903 1.8487275e-38
-0.084704407 0.092620708 0.903 1.7200143e-38
-0.082065642 0.093148462 0.90300006 1.7108307e-38
-0.078371376 0.094203964 0.903 1.6832801e-38
-0.073621579 0.094203964 0.903 1.7291619e-38
-0.069663435 0.094203971 0.903 1.7382738e-38
-0.066374481 0.094030678 0.90133333 1.747529e-38
-0.063032165 0.094627224 0.90100002 1.756892e-38
-0.057660997 0.095575079 0.90100002 1.6648054e-38
-0.053711612 0.095575079 0.90100002 1.6923919e-38
-0.04976223 0.095575079 0.90100002 1.6003411e-38
-0.041547514 0.094943181 0.90100002 1.5541364e-38
-0.037927814 0.094030693 0.90133333 1.5912654e-38
-0.034014568 0.094135195 0.90233326 1.5727546e-38
-0.030070541 0.094169781 0.90266669 1.6371471e-38
-0.026321696 0.094006062 0.90299994 1.6922843e-38
-0.022429517 0.093148462 0.90300006 1.765932e-38
-0.072038323 0.097370483 0.903 1.7200143e-38
-0.069663435 0.097370483 0.903 1.7107231e-38
-0.065388635 0.09800379 0.903 1.7200143e-38
-0.06167876 0.09805429 0.90199995 1.7017189e-38
-0.057724994 0.09805429 0.90200007 1.61878e-38
-0.053771228 0.09805429 0.90200001 1.5728264e-38
-0.049817458 0.09805429 0.90199995 1.4071279e-38
-0.045863692 0.09805429 0.90199995 1.287096e-38
-0.041909929 0.09805429 0.90200007 1.3882946e-38
-0.037998237 0.098162115 0.903 1.277769e-38
-0.034040086 0.098162115 0.903 1.3148262e-38
-0.030081939 0.098162115 0.903 1.4807398e-38
-0.027707048 0.097370483 0.903 1.5267293e-38
-0.064122029 0.100537 0.903 1.6372547e-38
-0.061747134 0.100537 0.903 1.5544951e-38
-0.05778899 0.100537 0.90300006 1.5268369e-38
-0.05383084 0.100537 0.903 1.4162401e-38
-0.049872693 0.100537 0.90300006 1.3513808e-38
-0.045650661 0.10106476 0.90300006 1.9226289e-38
-0.041956391 0.10132863 0.903 2.033485e-38
-0.037998237 0.10132864 0.903 1.8123916e-38
-0.034356739 0.10117032 0.903 1.498784e-38
-0.073233224 -0.013532226 0.90799999 2.3493908e-38
-0.070049167 -0.013532226 0.90799999 2.3497511e-38
-0.066069111 -0.013532227 0.90799999 2.350183e-38
-0.062885053 -0.013532226 0.90799999 2.3502565e-38
-0.085173421 -0.0087561458 0.90799999 2.3481647e-38
-0.081736647 -0.0098905526 0.90771437 2.3485261e-38
-0.07809978 -0.010022053 0.90720004 2.3485632e-38
-0.07393904 -0.010336679 0.90688896 2.3489578e-38
-0.069946311 -0.010334147 0.9066667 2.3492819e-38
-0.065972082 -0.010334146 0.90666664 2.3494261e-38
-0.061997872 -0.010334147 0.90666676 2.3491379e-38
-0.058051694 -0.010339212 0.90711117 2.3483833e-38
-0.054049417 -0.010334147 0.90666676 2.3482012e-38
-0.050050259 -0.010328301 0.90622222 2.3478026e-38
-0.046067081 -0.0095311198 0.90600002 2.3480149e-38
-0.042141076 -0.0095419316 0.90700001 2.3484179e-38
-0.038208641 -0.0087561458 0.90799999 2.3488873e-38
-0.034228571 -0.0087561458 0.90799999 2.3485268e-38
-0.030248504 -0.0087561458 0.90799999 2.3483082e-38
-0.088357478 -0.0055720932 0.90799999 2.3471182e-38
-0.085874759 -0.0063619697 0.90700001 2.3474398e-38
-0.081808776 -0.00635408 0.90600008 2.3475129e-38
-0.077837482 -0.00635408 0.90600002 2.3473717e-38
-0.074660435 -0.0071483399 0.90600002 2.3475865e-38
-0.057186719 -0.0071483399 0.90600002 2.3471545e-38
-0.046067081 -0.0071483399 0.90600002 2.3491006e-38
-0.041778076 -0.006512932 0.90600008 2.3486355e-38
-0.038124479 -0.0063540796 0.90600002 2.3487064e-38
-0.034177728 -0.0063593402 0.90666676 2.3484191e-38
-0.030248504 -0.0063681067 0.90799999 2.3480932e-38
-0.027329791 -0.0061027687 0.90799999 2.3479147e-38
-0.097113624 -0.00079601328 0.90799999 2.3481195e-38
-0.093687609 -0.0020689331 0.90720004 2.3472247e-38
-0.089795791 -0.0023847281 0.90644443 2.3470837e-38
-0.086044833 -0.0034417934 0.90600002 2.3465082e-38
-0.040507261 -0.0039713001 0.90600002 2.3475893e-38
-0.037859727 -0.0034417934 0.90600002 2.3475512e-38
-0.033926249 -0.002836643 0.90600014 2.3477656e-38
-0.030181881 -0.00238278 0.90600008 2.3479819e-38
-0.026223047 -0.0023847283 0.90644443 2.3479835e-38
-0.022417769 -0.0020678812 0.90680009 2.3480558e-38
-0.097363852 0.002613218 0.90714294 2.3469741e-38
-0.093722686 0.00238278 0.90600008 2.347155e-38
-0.090810403 0.0013237665 0.90600002 2.3478747e-38
-0.022239279 0.00079426001 0.90600002 2.3480548e-38
-0.019263521 0.0027064453 0.90799999 2.3474073e-38
-0.1018897 0.0071641197 0.90799999 2.3373992e-38
-0.09773051 0.0063561257 0.90633339 2.3472643e-38
-0.09451694 0.0055598198 0.90600002 2.3472268e-38
-0.018286973 0.0063608009 0.90700006 2.3472608e-38
-0.014328239 0.0071641197 0.90799999 2.3471901e-38
-0.10905382 0.011940199 0.90799999 2.3466885e-38
-0.10555549 0.010535341 0.90700006 2.2821551e-38
-0.10193002 0.0092663672 0.90600002 2.3465121e-38
-0.018069414 0.010126815 0.90600008 2.3473001e-38
-0.014307201 0.010331809 0.9066667 2.3471192e-38
-0.010666578 0.011303389 0.90799999 2.3004457e-38
-0.10950442 0.014582473 0.90733337 2.346545e-38
-0.10643084 0.01429668 0.90600002 2.3473401e-38
-0.017208967 0.014031927 0.90600002 2.3471924e-38
-0.01429668 0.01429668 0.90600002 2.3470125e-38
-0.01033999 0.014317136 0.90733337 2.3464353e-38
-0.0066334447 0.014593577 0.90799999 2.3475159e-38
-0.10968911 0.018280838 0.9066667 2.346797e-38
-0.10643084 0.01826798 0.90600008 2.3478093e-38
-0.014296681 0.01826798 0.90600008 2.3469755e-38
-0.010331809 0.018281423 0.90666664 2.3463622e-38
-0.0063681062 0.018308306 0.90799999 2.3478071e-38
-0.0039800666 0.019900333 0.90799999 2.2457861e-38
-0.11303389 0.022288373 0.90799999 2.3469364e-38
-0.10960788 0.022239279 0.90600002 2.3473397e-38
-0.1072251 0.022239279 0.90600002 2.3479185e-38
-0.01032538 0.022239279 0.90600008 2.3279228e-38
-0.0063610934 0.022262948 0.90700006 2.3475893e-38
-0.0034493911 0.022553712 0.90799999 2.2822978e-38
-0.1142279 0.026666444 0.90799999 2.3188463e-38
-0.1111964 0.02621058 0.90600008 2.3470837e-38
-0.0095311198 0.02621058 0.90600008 2.3000846e-38
-0.00635408 0.02621058 0.90600008 2.3471944e-38
-0.0025859475 0.02645977 0.90775001 2.3188145e-38
-0.11450055 0.030215193 0.90700001 2.2266173e-38
-0.11199066 0.030181877 0.90600002 2.3005151e-38
-0.0063540796 0.030181877 0.90600002 2.3470848e-38
-0.0023851178 0.030226296 0.90733337 2.2637482e-38
-0.11754768 0.034516122 0.90720004 2.0794297e-38
-0.11525244 0.034177139 0.9066667 2.1531122e-38
-0.0061952281 0.033835474 0.90600008 2.346831e-38
-0.0023833646 0.034178309 0.90666664 2.2729679e-38
0.00079601328 0.0358206 0.90799999 2.2818968e-38
-0.11780997 0.038208641 0.90799999 1.9227002e-38
-0.11437343 0.038124479 0.90600002 2.0792851e-38
-0.0055598198 0.038124479 0.90600002 2.346472e-38
-0.00238278 0.038124479 0.90600008 2.2820073e-38
0.00079601328 0.038208641 0.90799999 2.2818968e-38
-0.11772405 0.042158317 0.90733337 1.6557315e-38
-0.11437344 0.04209578 0.90600008 1.8857856e-38
-0.0061952281 0.042413484 0.90600008 2.3465811e-38
-0.0023833641 0.042126756 0.90666664 2.2819352e-38
0.00079601328 0.042188704 0.90799999 2.2635656e-38
-0.11701395 0.046168771 0.90799999 1.923135e-38
-0.11437344 0.046067078 0.90600002 1.6923937e-38
-0.0063540796 0.046067078 0.90600002 2.3467964e-38
-0.0023833644 0.046100982 0.90666676 2.2083596e-38
0.00079601328 0.046168771 0.90799999 2.2082491e-38
-0.11701395 0.050148841 0.90799999 1.987381e-38
-0.11477056 0.05043551 0.90600002 2.0520619e-38
-0.0061952281 0.049720678 0.90600008 2.2354418e-38
-0.0023833644 0.050075196 0.90666664 2.1434979e-38
0.00079601328 0.050148841 0.90799999 2.0793206e-38
-0.11437344 0.054009676 0.90600002 1.9226625e-38
-0.11199066 0.054009676 0.90600002 2.2084674e-38
-0.0055598198 0.054009676 0.90600002 2.143571e-38
-0.0023833644 0.054049417 0.9066667 2.0424075e-38
0.00079601328 0.054128904 0.90799999 1.8768525e-38
-0.11454235 0.05806689 0.90733337 1.8028097e-38
-0.11103754 0.058616389 0.90600008 2.0331173e-38
-0.0055598198 0.057980981 0.90600002 2.125346e-38
-0.0023833646 0.058023646 0.90666664 2.143821e-38
0.00079601328 0.058108971 0.90799999 2.005924e-38
-0.1138299 0.062089041 0.90799999 1.8121368e-38
-0.11040213 0.061952285 0.90600008 1.8490505e-38
-0.0063540796 0.061952282 0.90600002 2.0332594e-38
-0.0023851178 0.062043454 0.90733337 1.9781222e-38
-0.11263588 0.065671094 0.90799999 1.8857495e-38
-0.10960788 0.065923579 0.90600008 1.7109756e-38
-0.00635408 0.065923579 0.90600008 1.9593605e-38
-0.0031825923 0.066045433 0.90766668 1.9318816e-38
-0.11223788 0.070049167 0.90799999 1.9133004e-38
-0.10960788 0.06989488 0.90600002 1.7109026e-38
-0.1072251 0.06989488 0.90600002 1.66477e-38
-0.0063540796 0.06989488 0.90600002 1.913371e-38
-0.0031840531 0.070049167 0.90799999 1.8950398e-38
-0.11223788 0.073233224 0.90799999 1.8397593e-38
-0.10968912 0.073921122 0.9066667 1.637327e-38
-0.10616609 0.074395686 0.90600008 1.637183e-38
-0.00873686 0.073866181 0.90600002 1.9315946e-38
-0.00635408 0.073866181 0.90600008 1.9224111e-38
-0.0035820599 0.073631227 0.90799999 1.9040799e-38
-0.10978978 0.077966779 0.90750003 1.6097402e-38
-0.10563658 0.077837482 0.90600008 1.6555501e-38
-0.01032538 0.077837482 0.90600008 1.793556e-38
-0.0063641616 0.077966779 0.90750003 1.8487636e-38
-0.0039800666 0.077213287 0.90799999 1.8672022e-38
-0.10905382 0.080397345 0.90799999 1.5637504e-38
-0.10554341 0.081458114 0.90714294 1.6373265e-38
-0.10182413 0.082126483 0.90600008 1.7015754e-38
-0.017814118 0.082035713 0.90600014 1.867525e-38
-0.01429668 0.081808776 0.90600008 1.7850575e-38
-0.010342328 0.081949621 0.90755558 1.8215001e-38
-0.0071641197 0.080397345 0.90799999 1.8396515e-38
-0.10162436 0.085704103 0.90799999 1.6924277e-38
-0.098055519 0.085977159 0.90640002 1.7569278e-38
-0.01826798 0.085780077 0.90600008 1.9227718e-38
-0.014319911 0.085922539 0.90750003 1.877295e-38
-0.011144186 0.085969433 0.90799999 1.8125316e-38
-0.10109369 0.088357478 0.90799999 1.6924636e-38
-0.09742447 0.089694269 0.90771437 1.720086e-38
-0.093964987 0.090149038 0.90679997 1.7385249e-38
-0.090148509 0.09094277 0.90600002 1.7567485e-38
-0.086574338 0.091339901 0.90600002 1.7658961e-38
-0.018293692 0.089883454 0.90733337 1.9320286e-38
-0.014487443 0.089631103 0.90799999 1.8128293e-38
-0.011940199 0.089153484 0.90799999 1.8676705e-38
-0.093664229 0.093664229 0.90799999 1.6555142e-38
-0.089818589 0.093791649 0.9066667 1.6923919e-38
-0.086044833 0.093987435 0.90600002 1.7015754e-38
-0.083397299 0.09451694 0.90600002 1.6832442e-38
-0.021445019 0.09451694 0.90600002 1.7291261e-38
-0.01862671 0.093770362 0.90799999 1.7477443e-38
-0.089592174 0.096911982 0.90760005 1.6555859e-38
-0.085696973 0.097463243 0.90680009 1.6189235e-38
-0.082030356 0.097919941 0.90625006 1.6097758e-38
-0.077837482 0.098488241 0.90600002 1.6647695e-38
-0.074183881 0.098647088 0.90600008 1.6923919e-38
-0.06989488 0.099282496 0.90600002 1.7015396e-38
-0.067512102 0.099282496 0.90600002 1.7199784e-38
-0.025690131 0.098260015 0.90633339 1.5360204e-38
-0.022255644 0.09776704 0.9066667 1.5636787e-38
-0.019900333 0.096317604 0.90799999 1.6649488e-38
-0.085173421 0.10109369 0.90799999 1.5452757e-38
-0.081670962 0.1017305 0.90799999 1.5730057e-38
-0.077923387 0.10177837 0.90700006 1.5913371e-38
-0.073947713 0.10177836 0.90700001 1.6463306e-38
-0.069972023 0.10177837 0.90700006 1.6556218e-38
-0.066241287 0.10182413 0.90600008 1.6466176e-38
-0.061952278 0.10245954 0.90600002 1.5179403e-38
-0.057980981 0.10245954 0.90600002 1.4443301e-38
-0.054009676 0.10245954 0.90600002 1.3059295e-38
-0.050038379 0.10245954 0.90600002 1.4432163e-38
-0.046861339 0.10245954 0.90600002 1.9496407e-38
-0.032564659 0.10245954 0.90600002 1.5816153e-38
-0.030181877 0.10166527 0.90600002 1.3696762e-38
-0.026651103 0.10143603 0.90750003 1.2408554e-38
-0.023084387 0.10109369 0.90799999 1.3237226e-38
-0.0780093 0.10427774 0.90799999 1.5636787e-38
-0.074029237 0.10507375 0.90799999 1.5637863e-38
-0.069783837 0.10480841 0.90799999 1.5914446e-38
-0.06583415 0.10561335 0.90750003 1.4162755e-38
-0.062043454 0.10579321 0.90733337 1.3335524e-38
-0.058281552 0.10531648 0.90714294 1.2597254e-38
-0.054069292 0.10495891 0.90700001 1.6005219e-38
-0.049908411 0.10558464 0.90725005 1.7483589e-38
-0.046118215 0.10575435 0.90700006 1.5912298e-38
-0.042126756 0.10571548 0.90666664 1.6370395e-38
-0.038316995 0.10541286 0.90679997 1.7013961e-38
-0.034190878 0.10495892 0.90700006 1.8307552e-38
-0.030469425 0.1046553 0.9066667 1.8587407e-38
-0.027860465 0.10427774 0.90799999 1.7759083e-38
-0.082169965 -0.013562034 0.91000003 2.3489577e-38
-0.078181133 -0.013562033 0.91000003 2.3492801e-38
-0.075787835 -0.013562033 0.91000003 2.3493898e-38
-0.061428029 -0.013562033 0.91000003 2.3502925e-38
-0.058236968 -0.013562034 0.91000003 2.3502928e-38
-0.054248132 -0.013562033 0.91000003 2.3500399e-38
-0.050259303 -0.013562034 0.91000003 2.3492123e-38
-0.046270467 -0.013562033 0.91000003 2.3479945e-38
-0.043877166 -0.013562033 0.91000003 2.3475159e-38
-0.088552095 -0.0095731998 0.91000003 2.3478393e-38
-0.086158797 -0.010370966 0.91000003 2.3483809e-38
-0.082967728 -0.0119665 0.91000003 2.3490315e-38
-0.077383369 -0.0119665 0.91000003 2.3494638e-38
-0.046270467 -0.0119665 0.91000003 2.3476259e-38
-0.042281635 -0.0119665 0.91000003 2.3470785e-38
-0.038292799 -0.010370966 0.91000003 2.3487064e-38
-0.034303971 -0.010370966 0.91000003 2.3486326e-38
-0.093338698 -0.0055843666 0.91000003 2.3463252e-38
-0.090147637 -0.0061162114 0.91000003 2.3470086e-38
-0.025262609 -0.0066480557 0.91000003 2.3479505e-38
-0.022337466 -0.0063821338 0.91000003 2.3479505e-38
-0.097726405 -0.0023932999 0.91000003 2.3480907e-38
-0.094934233 -0.0039888332 0.91000003 2.3464069e-38
-0.021539701 -0.0039888332 0.91000003 2.3482032e-38
-0.01941232 -0.0013296111 0.91000003 2.3477692e-38
-0.10184821 0.0034569888 0.91000003 2.3003737e-38
-0.099720828 0.0015955333 0.91000003 2.3471554e-38
-0.017151983 0.0019944166 0.91000003 2.3475868e-38
-0.015157566 0.0031910664 0.91000003 2.3476217e-38
-0.10503928 0.0066480557 0.91000003 2.1714462e-38
-0.10211413 0.0055843666 0.91000003 2.3006302e-38
-0.0143598 0.0055843666 0.91000003 2.3471566e-38
-0.10929403 0.010370966 0.91000003 2.3467608e-38
-0.1076985 0.0087754335 0.91000003 2.3469405e-38
-0.0099720834 0.0091743171 0.91000003 2.3277462e-38
-0.0063821333 0.0119665 0.91000003 2.3473368e-38
-0.11301695 0.014625723 0.91000003 2.346542e-38
-0.11088957 0.013562033 0.91000003 2.3466885e-38
-0.0055843666 0.013562033 0.91000003 2.3474887e-38
-0.0039888332 0.015157566 0.91000003 2.2732986e-38
-0.11328287 0.018348632 0.91000003 2.3466522e-38
-0.0031910664 0.018348632 0.91000003 2.2822986e-38
-0.11567616 0.022337466 0.91000003 2.3466541e-38
-0.0013296111 0.022071546 0.91000003 2.3462176e-38
-0.11727171 0.026326299 0.91000003 2.3187745e-38
-0.11567616 0.025528532 0.91000003 2.3467561e-38
-0.00079776667 0.024730766 0.91000003 2.3462176e-38
0.00079776667 0.026326299 0.91000003 2.3462176e-38
-0.11780354 0.030581057 0.91000003 2.1160202e-38
0.00079776667 0.030315135 0.91000003 2.3002302e-38
-0.12046277 0.035101734 0.91000003 1.8674907e-38
-0.11886723 0.032708433 0.91000003 2.0241117e-38
0.00079776667 0.0335062 0.91000003 2.3002662e-38
-0.12046277 0.038292799 0.91000003 1.8765697e-38
0.0023932999 0.038292799 0.91000003 2.2911165e-38
-0.12046277 0.042281635 0.91000003 1.9880308e-38
0.0023933002 0.042281635 0.91000003 2.272785e-38
-0.12046277 0.0454727 0.91000003 2.0430576e-38
-0.11886723 0.046270467 0.91000003 2.1534024e-38
0.0029251443 0.046536393 0.91000003 2.2359432e-38
-0.11886723 0.048663765 0.91000003 2.2449502e-38
0.0031910667 0.0502593 0.91000003 2.0977954e-38
-0.1172717 0.054248132 0.91000003 1.7290185e-38
0.0031910667 0.054248132 0.91000003 1.9045465e-38
-0.1172717 0.059832498 0.91000003 1.7754384e-38
0.0030315132 0.057917859 0.91000003 1.8215714e-38
-0.1172717 0.062225796 0.91000003 1.7661115e-38
-0.11567616 0.062225796 0.91000003 1.756892e-38
0.0013296111 0.061959874 0.91000003 2.0059957e-38
-0.11461248 0.066214636 0.91000003 1.7567485e-38
-0.00079776667 0.066214636 0.91000003 1.9411728e-38
0.00079776667 0.066214636 0.91000003 1.8951833e-38
-0.11408063 0.070203468 0.91000003 1.7565691e-38
-0.00079776667 0.070203468 0.91000003 1.9318458e-38
-0.11354879 0.0741923 0.91000003 1.747529e-38
-0.0018614556 0.074192308 0.91000003 1.8949681e-38
-0.1124851 0.078181133 0.91000003 1.7477447e-38
-0.0031910664 0.078181133 0.91000003 1.8488715e-38
-0.10982588 0.082169965 0.91000003 1.6191028e-38
-0.10690074 0.083765499 0.91000003 1.5914087e-38
-0.0066480557 0.082169965 0.91000003 1.8395439e-38
-0.0039888332 0.080574431 0.91000003 1.8395439e-38
-0.10503928 0.085892878 0.91000003 1.6740606e-38
-0.1029119 0.086956568 0.91000003 1.6649847e-38
-0.0087754335 0.086158797 0.91000003 1.8304322e-38
-0.0071799001 0.085361034 0.91000003 1.8119574e-38
-0.10211413 0.089349866 0.91000003 1.6741324e-38
-0.099720828 0.090945393 0.91000003 1.6648412e-38
-0.013562033 0.091743164 0.91000003 1.5078241e-38
-0.010370966 0.08974874 0.91000003 1.7384903e-38
-0.097327523 0.094136469 0.91000003 1.6004488e-38
-0.094934233 0.094934233 0.91000003 1.6186724e-38
-0.0167531 0.094934233 0.91000003 1.5912293e-38
-0.014625723 0.093870543 0.91000003 1.4711975e-38
-0.093870543 0.097061604 0.91000003 1.5634634e-38
-0.090546519 0.099321947 0.91000003 1.6186724e-38
-0.086956568 0.099720828 0.91000003 1.6279994e-38
-0.018348632 0.097327523 0.91000003 1.5728981e-38
-0.08908394 0.10184821 0.91000003 1.5449887e-38
-0.086424723 0.10238006 0.91000003 1.5358052e-38
-0.083765499 0.1029119 0.91000003 1.5821534e-38
-0.025528532 0.1029119 0.91000003 1.1027434e-38
-0.022337466 0.10211413 0.91000003 1.1858976e-38
-0.081850857 0.10514565 0.91000003 1.5084698e-38
-0.078181133 0.10690074 0.91000003 1.4716638e-38
-0.0741923 0.1076985 0.91000003 1.4440414e-38
-0.070469394 0.10716666 0.91000003 1.4256027e-38
-0.067810163 0.1076985 0.91000003 1.2872036e-38
-0.057439197 0.1076985 0.91000003 1.6933263e-38
-0.054248132 0.1076985 0.91000003 1.6378337e-38
-0.051854834 0.1076985 0.91000003 1.4901083e-38
-0.037495032 0.1076985 0.91000003 1.4988557e-38
-0.034303963 0.1076985 0.91000003 1.5264423e-38
-0.029517367 0.10610297 0.91000003 1.8769277e-38
-0.026326299 0.10450743 0.91000003 1.7759083e-38
-0.069405705 0.10929403 0.91000003 1.1494145e-38
-0.066214636 0.10929404 0.91000003 1.1490199e-38
-0.061428029 0.10929403 0.91000003 1.6556249e-38
-0.059832498 0.10929403 0.91000003 1.8308682e-38
-0.050259303 0.10929404 0.91000003 1.3520983e-38
-0.046270467 0.10929403 0.91000003 1.4348938e-38
-0.04260074 0.10993224 0.91000003 1.3610666e-38
-0.039090566 0.10929403 0.91000003 1.4068768e-38
-0.068182752 -0.02005375 0.91500002 2.3489188e-38
-0.065776303 -0.02005375 0.91500002 2.3488841e-38
-0.061364472 -0.020454826 0.91500002 2.3488866e-38
-0.0577548 -0.0208559 0.91500002 2.3489229e-38
-0.053423192 -0.02069547 0.91500008 2.3489933e-38
-0.0497333 -0.02005375 0.91500002 2.3491729e-38
-0.045722552 -0.02005375 0.91500008 2.349102e-38
-0.0417118 -0.02005375 0.91500002 2.3486696e-38
-0.092247248 -0.01684515 0.91500002 2.34784e-38
-0.0898408 -0.01684515 0.91500002 2.3480563e-38
-0.085830048 -0.01684515 0.91500008 2.3482382e-38
-0.081819296 -0.01684515 0.91500002 2.3485984e-38
-0.077808551 -0.01684515 0.91500008 2.3485258e-38
-0.073757917 -0.017638095 0.9145 2.3488122e-38
-0.069710776 -0.01762889 0.91400003 2.3487402e-38
-0.065704413 -0.01762889 0.91400003 2.3490265e-38
-0.061698046 -0.017628891 0.91400003 2.3491715e-38
-0.057691678 -0.01762889 0.91400003 2.3494236e-38
-0.053685315 -0.01762889 0.91399997 2.3495332e-38
-0.049678948 -0.01762889 0.91400003 2.3495724e-38
-0.045672577 -0.01762889 0.91399997 2.3493184e-38
-0.0417118 -0.0176473 0.91500002 2.3485598e-38
-0.037701052 -0.0176473 0.91500008 2.3489209e-38
-0.033690296 -0.01684515 0.91500002 2.3499676e-38
-0.031283852 -0.01684515 0.91500002 2.3497851e-38
-0.097862303 -0.01203225 0.91500002 2.3479133e-38
-0.093393169 -0.013407365 0.91500008 2.3478746e-38
-0.089677446 -0.013612295 0.91333336 2.3480544e-38
-0.086176038 -0.01414034 0.91300005 2.3484165e-38
-0.081640452 -0.015207537 0.91299999 2.3485607e-38
-0.077638477 -0.015207537 0.91299999 2.3485237e-38
-0.073636487 -0.015207537 0.91299999 2.3487756e-38
-0.069634512 -0.015207537 0.91299999 2.3488842e-38
-0.065632522 -0.015207537 0.91299999 2.3494614e-38
-0.061630543 -0.015207537 0.91299999 2.3496063e-38
-0.057628557 -0.015207537 0.91299999 2.3500032e-38
-0.053626575 -0.015207537 0.91299999 2.3501129e-38
-0.049624592 -0.015207537 0.91299999 2.3499334e-38
-0.04562261 -0.015207537 0.91299999 2.3495022e-38
-0.041620623 -0.014407139 0.91299999 2.3475136e-38
-0.037646107 -0.013617847 0.91366661 2.3484865e-38
-0.033641204 -0.013617847 0.91366673 2.3490995e-38
-0.029650325 -0.013624472 0.91411114 2.3496795e-38
-0.025817657 -0.013310432 0.91460001 2.3488884e-38
-0.0224602 -0.0128344 0.91500002 2.3485619e-38
-0.10026874 -0.00882365 0.91500002 2.3478393e-38
-0.097862303 -0.0096258 0.91500002 2.3478432e-38
-0.09371537 -0.0096123572 0.91366673 2.3476588e-38
-0.090444818 -0.0096047595 0.91299999 2.3477646e-38
-0.029214475 -0.010004958 0.91299999 2.3485598e-38
-0.025612693 -0.0096047595 0.91299999 2.3485251e-38
-0.021939633 -0.0094485376 0.91339999 2.348309e-38
-0.01844945 -0.00882365 0.91500002 2.3485247e-38
-0.10508165 -0.0048129 0.91500002 2.3465797e-38
-0.10182434 -0.0056127128 0.91455555 2.3376844e-38
-0.097808465 -0.0059229354 0.91300005 2.3466493e-38
-0.0940466 -0.0068033715 0.91299999 2.3468303e-38
-0.090444818 -0.0072035696 0.91299999 2.3470118e-38
-0.020039139 -0.0056121284 0.91433334 2.3481669e-38
-0.017799666 -0.005292437 0.91460001 2.3386213e-38
-0.014706083 -0.0045455168 0.91500008 2.3468343e-38
-0.10588379 -0.0016043 0.91500002 2.3471562e-38
-0.10201577 -0.0017619245 0.91339999 2.3480231e-38
-0.017341927 -0.0018675921 0.91299999 2.3478775e-38
-0.013950747 -0.0014435193 0.91460001 2.3476992e-38
-0.10829025 0.0016043 0.91500002 2.3468664e-38
-0.10576895 0.0016025465 0.91399997 2.3284648e-38
-0.10271757 0.0013339943 0.91299999 2.3007697e-38
-0.013303066 0.0014424672 0.91420001 2.3478024e-38
-0.0096258 0.0016043 0.91500002 2.3476554e-38
-0.0072193504 0.0016043 0.91500002 2.3475121e-38
-0.11310314 0.0072193504 0.91500002 2.3464342e-38
-0.10924085 0.006142511 0.91400003 2.3469755e-38
-0.10591915 0.004535581 0.91299999 2.0977595e-38
-0.012412723 0.0052047698 0.91349995 2.3470473e-38
-0.0096149873 0.0056077442 0.91400003 2.3467234e-38
-0.0058155879 0.005815587 0.91500002 2.3462558e-38
-0.00240645 0.0064172 0.91500002 2.3470121e-38
-0.11310314 0.0096258 0.91500002 2.3466536e-38
-0.11072154 0.0093379607 0.91299999 2.3468325e-38
-0.0056077442 0.0096149873 0.91399997 2.347626e-38
-0.0018716834 0.0098931836 0.91500008 2.3100629e-38
-0.11787368 0.014433147 0.91466665 2.2637129e-38
-0.1140067 0.012548315 0.91366673 2.3466503e-38
-0.11125513 0.012005949 0.91299999 2.3466885e-38
-0.0040019834 0.012806347 0.91299999 2.2729741e-38
-0.0016034234 0.013630997 0.91466665 2.3465048e-38
0.00080215 0.0144387 0.91500002 2.3463972e-38
-0.12112466 0.0176473 0.91500002 2.1624031e-38
-0.11774539 0.017621584 0.91366667 2.2912962e-38
-0.0013339943 0.017341927 0.91299999 2.3463969e-38
0.0016043 0.0176473 0.91500002 2.3463252e-38
-0.12192681 0.021658052 0.91500008 2.1624042e-38
-0.11815301 0.021388287 0.91328579 2.3004816e-38
-0.00080039661 0.020009914 0.91299999 2.3371058e-38
0.0016034232 0.021634381 0.91400003 2.3462539e-38
-0.12179442 0.025640747 0.91400003 2.134889e-38
-0.1192591 0.025612693 0.91299999 2.2177196e-38
0.00240645 0.0256688 0.91500002 2.3461817e-38
0.00401075 0.0256688 0.91500002 2.3461817e-38
-0.12433324 0.031283852 0.91500002 1.7938773e-38
-0.12183854 0.029657342 0.91433334 2.0149648e-38
-0.1192591 0.028814279 0.91299999 2.1899896e-38
0.0024046968 0.029656757 0.91433334 2.3186685e-38
0.00401075 0.029679552 0.91500008 2.3278863e-38
-0.12433324 0.033690296 0.91500002 1.8491961e-38
-0.12192708 0.03334986 0.91299999 1.7845508e-38
0.0024011896 0.033616658 0.91299999 2.2172541e-38
0.00401075 0.033690296 0.91500002 2.2723187e-38
-0.12433325 0.037701052 0.91500008 2.0890873e-38
-0.12246069 0.037618645 0.91299999 1.9139156e-38
0.0024011896 0.036017846 0.91299999 2.2911165e-38
0.0048099784 0.037672997 0.91433334 2.2357997e-38
-0.12433324 0.0417118 0.91500002 1.932348e-38
-0.12246068 0.041620627 0.91299999 2.1904943e-38
0.0052906838 0.041835763 0.91420001 2.208285e-38
-0.12433325 0.045722552 0.91500008 1.7938055e-38
-0.12206048 0.046022806 0.91299999 1.9781238e-38
0.0058103278 0.045472041 0.91400003 2.171479e-38
0.00882365 0.0465247 0.91500002 2.1530043e-38
-0.12513539 0.0497333 0.91500002 1.7110101e-38
-0.12179442 0.049678944 0.91400003 1.7844785e-38
-0.1192591 0.050424989 0.91299999 1.8213562e-38
0.006411063 0.049678948 0.91400003 2.1254536e-38
0.00882365 0.0497333 0.91500002 2.1439284e-38
-0.12513539 0.053744048 0.91500008 1.6281788e-38
-0.12179442 0.053685308 0.91400003 1.711046e-38
-0.1192591 0.053626575 0.91299999 1.6648771e-38
0.0064110635 0.053685308 0.91400003 1.9874493e-38
0.00882365 0.053744048 0.91500008 2.0611688e-38
-0.12433324 0.0577548 0.91500002 1.6098475e-38
-0.1219268 0.0577548 0.91500002 1.6649847e-38
-0.1184587 0.057628557 0.91299999 1.7293054e-38
0.006411063 0.057691678 0.91400003 1.8861791e-38
0.00882365 0.0577548 0.91500002 1.9414239e-38
-0.12176638 0.061444689 0.91500008 1.6373265e-38
-0.1192591 0.061630543 0.91299999 1.7293413e-38
0.0024011896 0.063231334 0.91299999 2.0704241e-38
0.0056121275 0.061720543 0.91433334 1.8768521e-38
0.00882365 0.061765548 0.91500002 1.8861432e-38
-0.12112466 0.064974152 0.91500002 1.6464024e-38
-0.11808296 0.065850116 0.91380006 1.6924277e-38
0.0024011896 0.065632522 0.91299999 1.9228416e-38
0.00561505 0.065776303 0.91500008 1.9046897e-38
0.00882365 0.065776303 0.91500002 1.692643e-38
-0.11774538 0.069685355 0.91366673 1.6648054e-38
0.0017608724 0.069954664 0.91300005 1.9043669e-38
0.0056150504 0.069787055 0.91500008 1.8033122e-38
0.00882365 0.068182752 0.91500002 1.619067e-38
-0.11783131 0.073744029 0.91433334 1.6096685e-38
-0.00080039661 0.074436881 0.91299999 1.931774e-38
0.0016021084 0.073677257 0.91350007 1.8674534e-38
0.0052941903 0.073637374 0.91500008 1.7479954e-38
-0.11671283 0.077407472 0.91500002 1.5913728e-38
-0.11445673 0.077638477 0.91299999 1.6462589e-38
-0.0012005949 0.078038663 0.91299999 1.8673457e-38
0.0016037155 0.077752441 0.91433334 1.8306832e-38
0.0046524699 0.077487692 0.91500008 1.6559088e-38
-0.11631175 0.081819296 0.91500002 1.5453475e-38
-0.113719 0.081685603 0.91349995 1.6648054e-38
-0.11125513 0.082440853 0.91299999 1.6467252e-38
-0.0048023798 0.082440853 0.91299999 1.8396515e-38
-0.001602985 0.081775025 0.9145 1.8212844e-38
0.0013369167 0.081551909 0.91500008 1.7754026e-38
-0.11374487 0.085509188 0.91500008 1.5084699e-38
-0.10991784 0.086127117 0.91328579 1.5451681e-38
-0.10645276 0.087243229 0.91299999 1.7013602e-38
-0.0051496648 0.085952535 0.91385722 1.8028456e-38
-0.0018716834 0.084760517 0.91500008 1.7844785e-38
-0.1095737 0.089680366 0.91500008 1.5172231e-38
-0.10571066 0.089693956 0.91350007 1.6370755e-38
-0.10325117 0.090444818 0.91299999 1.6648054e-38
-0.0088043632 0.090444818 0.91299999 1.7661114e-38
-0.0059327539 0.089641452 0.91460001 1.7753667e-38
-0.1090924 0.092247248 0.91500002 1.7477844e-38
-0.10567743 0.093490355 0.91460001 1.4623015e-38
-0.10185046 0.093846507 0.91300005 1.5359487e-38
-0.012539549 0.094713598 0.91299999 1.5450605e-38
-0.0096149882 0.093750142 0.91399997 1.7016837e-38
-0.0072193509 0.093851551 0.91500008 1.7200501e-38
-0.10508165 0.097060151 0.91500002 1.5363074e-38
-0.1017994 0.097791582 0.91433334 1.4256748e-38
-0.097648382 0.097648382 0.91299999 1.4806323e-38
-0.095247194 0.098448783 0.91299999 1.4989634e-38
-0.016808329 0.098448783 0.91299999 1.4347861e-38
-0.013620477 0.097755633 0.91400003 1.5175816e-38
-0.0098931836 0.097594917 0.91500008 1.5915522e-38
-0.10155219 0.10091048 0.91500008 1.5453511e-38
-0.097826943 0.10183652 0.91466665 1.4255674e-38
-0.093872592 0.10187874 0.91325003 1.3702509e-38
-0.090444818 0.10325117 0.91299999 1.4255667e-38
-0.020421071 0.10210712 0.91350007 1.2689085e-38
-0.017627722 0.10176288 0.91400003 1.2229919e-38
-0.014171316 0.10133828 0.91500008 1.2784864e-38
-0.097060151 0.10508165 0.91500002 1.5087209e-38
-0.093449332 0.10563149 0.91420001 1.45312e-38
-0.089693956 0.10571066 0.91349995 1.3424125e-38
-0.085962608 0.10581243 0.91300005 1.3978726e-38
-0.028013881 0.10645276 0.91299999 1.9777683e-38
-0.025364012 0.10599689 0.91366673 1.9320285e-38
-0.021959273 0.10563149 0.91420001 1.8124981e-38
-0.092247248 0.10829025 0.91500002 1.3425919e-38
-0.089573413 0.10882502 0.91500008 1.4073791e-38
-0.085606501 0.10966443 0.91474998 1.2045158e-38
-0.081759684 0.10981565 0.91433334 1.1950811e-38
-0.077638477 0.11045474 0.91300005 1.1581676e-38
-0.073636487 0.11045474 0.91299999 1.2042653e-38
-0.070034705 0.11085494 0.91299999 1.3241184e-38
-0.065632522 0.11125513 0.91299999 1.6380441e-38
-0.06203074 0.11085493 0.91299999 1.5363101e-38
-0.057628557 0.11045474 0.91299999 1.6282913e-38
-0.05394673 0.11061481 0.91300005 1.3611759e-38
-0.049624592 0.11125513 0.91299999 1.2690518e-38
-0.046423003 0.11125513 0.91299999 1.2599758e-38
-0.04082023 0.11125513 0.91299999 1.2877058e-38
-0.037298482 0.11061481 0.91300005 1.2691594e-38
-0.033616658 0.11045474 0.91299999 1.269016e-38
-0.029650327 0.10978895 0.91411114 1.3699273e-38
-0.02582923 0.10957368 0.91500008 1.3791109e-38
-0.023262348 0.10829025 0.91500002 1.6181701e-38
-0.081017144 0.11310314 0.91500002 9.9286368e-39
-0.077808551 0.1139053 0.91500008 9.5605774e-39
-0.0737978 0.1139053 0.91500002 1.0296698e-38
-0.069787048 0.1139053 0.91500008 1.3332298e-38
-0.065704413 0.11378168 0.91399997 1.4531558e-38
-0.061765552 0.1139053 0.91500008 1.2416106e-38
-0.0577548 0.1139053 0.91500002 1.1218291e-38
-0.053725056 0.11386409 0.91466665 1.1678546e-38
-0.049678944 0.11378169 0.91400003 1.1220455e-38
-0.045672581 0.11378169 0.91400003 1.1221873e-38
-0.04166621 0.11378169 0.91400003 1.0851655e-38
-0.037701052 0.1139053 0.91500008 1.1219356e-38
-0.033690296 0.1139053 0.91500002 1.0852732e-38
-0.031283852 0.11310314 0.91500002 1.1039631e-38
-0.0737978 0.11631175 0.91500002 1.0578304e-38
-0.069787055 0.11631175 0.91500008 9.0092057e-39
-0.065776303 0.11631175 0.91500002 9.0059771e-39
-0.061765548 0.11631175 0.91500008 9.6527716e-39
-0.0577548 0.11631175 0.91500002 9.9297186e-39
-0.053744048 0.11631175 0.91500008 1.0206299e-38
-0.0497333 0.11631175 0.91500002 1.0482528e-38
-0.045722552 0.11631175 0.91500008 1.0483241e-38
-0.068555333 -0.025002534 0.92000002 2.3489919e-38
-0.066135734 -0.025002534 0.92000002 2.3488834e-38
-0.062103063 -0.025002535 0.92000002 2.3488842e-38
-0.058070399 -0.025809066 0.92000002 2.3486694e-38
-0.054037731 -0.025809068 0.92000002 2.3487407e-38
-0.05027391 -0.025540223 0.92000002 2.3487763e-38
-0.046295013 -0.025647759 0.92000002 2.3487054e-38
-0.042746268 -0.025002534 0.92000002 2.3488125e-38
-0.084685996 -0.020163333 0.92000002 2.3485628e-38
-0.082266398 -0.020163333 0.92000002 2.3487046e-38
-0.078178212 -0.020148722 0.91933334 2.3488489e-38
-0.074120417 -0.020947948 0.91900003 2.3488482e-38
-0.070058942 -0.021743588 0.91857153 2.3489197e-38
-0.066063844 -0.022559261 0.91900003 2.3489197e-38
-0.062317669 -0.022704965 0.91839999 2.3489574e-38
-0.057944156 -0.02333862 0.91799998 2.3489218e-38
-0.054322645 -0.022936229 0.91799998 2.3488856e-38
-0.049896356 -0.022533838 0.91799998 2.3489553e-38
-0.045872461 -0.022533838 0.9180001 2.3489207e-38
-0.041894145 -0.022559263 0.91900003 2.3486683e-38
-0.037842192 -0.021739967 0.91844451 2.348668e-38
-0.033837579 -0.020947948 0.91900003 2.3490315e-38
-0.030150671 -0.020799793 0.91960001 2.3484525e-38
-0.025809066 -0.020163333 0.92000002 2.3485967e-38
-0.098397061 -0.016937198 0.92000002 2.3475506e-38
-0.094296023 -0.017462615 0.9193334 2.347805e-38
-0.090135351 -0.018509939 0.91799998 2.3482368e-38
-0.086173996 -0.018523382 0.91866672 2.3483105e-38
-0.082087554 -0.018509939 0.91799998 2.3485974e-38
-0.078063652 -0.018509939 0.91799998 2.3487056e-38
-0.033800758 -0.018509939 0.91799998 2.349897e-38
-0.029454947 -0.017866114 0.91800004 2.3489212e-38
-0.025781013 -0.017725322 0.91899997 2.3485244e-38
-0.023364043 -0.017725322 0.91900003 2.3484176e-38
-0.1040428 -0.012097999 0.92000002 2.3469729e-38
-0.1015684 -0.012897957 0.91950005 2.3474838e-38
-0.098290116 -0.014502695 0.91900003 2.3475841e-38
-0.095768809 -0.014486039 0.91799998 2.3478386e-38
-0.02494818 -0.015290819 0.91799998 2.3484547e-38
-0.021121003 -0.014349631 0.91960001 2.3484538e-38
-0.017743733 -0.012904532 0.92000002 2.348058e-38
-0.015324133 -0.012097999 0.92000002 2.3475835e-38
-0.10559844 -0.0096735777 0.91949999 2.1805931e-38
-0.10220706 -0.0096573597 0.91799998 2.3472289e-38
-0.020119498 -0.01046214 0.91799998 2.3483439e-38
-0.017436899 -0.0099256206 0.91799998 2.3480191e-38
-0.01450927 -0.0096735787 0.91950005 2.3469761e-38
-0.108882 -0.0040326663 0.92000002 2.3471239e-38
-0.10669164 -0.0060397945 0.91850001 2.1623738e-38
-0.016900379 -0.0072430195 0.91799998 2.3478408e-38
-0.013149123 -0.0061726095 0.91833341 2.3468347e-38
-0.0098267319 -0.0053171585 0.9188 2.3476986e-38
-0.0067158509 -0.0045674331 0.9193334 2.3475876e-38
-0.10934079 -0.0013436377 0.9193334 2.346686e-38
-0.012071699 -0.0024143399 0.91799998 2.3473359e-38
-0.0096573597 -0.0016095599 0.91799998 2.3476599e-38
-0.0056349207 -0.0016104367 0.91833341 2.3473329e-38
-0.0024195998 -0.00080653332 0.92000002 2.347045e-38
-0.11291467 0.0016130665 0.92000002 2.3466507e-38
-0.11037496 0.0016104366 0.91900003 2.3468669e-38
-0.0048286794 0.0016095599 0.91799998 2.3285361e-38
-0.0016104366 0.0016113132 0.91900003 2.3183799e-38
-0.11694734 0.0072587994 0.92000002 2.3279969e-38
-0.11440324 0.0056387195 0.91900003 2.3464706e-38
-0.1113279 0.0045604198 0.91799998 2.3469402e-38
-0.0040238998 0.0040238998 0.91799998 2.2631351e-38
-0.00120717 0.0052310699 0.91799998 2.3187424e-38
0.0012093616 0.0060450546 0.91949999 2.337829e-38
-0.11740027 0.0099396463 0.91933334 2.3186673e-38
-0.11508354 0.0096573597 0.91799998 2.3464016e-38
