# .PCD v0.7 - Point Cloud Data file format
VERSION 0.7
FIELDS x y z rgb
SIZE 4 4 4 4
TYPE F F F F
COUNT 1 1 1 1
WIDTH 979
HEIGHT 1
VIEWPOINT 0 0 0 1 0 0 0
POINTS 979
DATA ascii
-0.04969658 0.089752257 0.84611118 2.254531e-38
-0.046779808 0.089846931 0.847 2.226693e-38
-0.097272299 0.094302163 0.847 1.9596475e-38
-0.094154872 0.094153695 0.84566677 2.070173e-38
-0.089634791 0.094079472 0.84500015 2.1345296e-38
-0.085930869 0.094079487 0.84500015 2.1897035e-38
-0.083708517 0.09407948 0.84500003 2.2174342e-38
-0.052595615 0.09407948 0.84500003 2.1805916e-38
-0.049670476 0.09415371 0.84566677 2.1252027e-38
-0.046779808 0.094302163 0.847 2.1343533e-38
-0.041582055 0.095044687 0.847 2.1249878e-38
-0.03935444 0.095787227 0.847 2.1620085e-38
-0.097272299 0.098014832 0.847 1.8674896e-38
-0.094191983 0.097899422 0.84600008 1.9872712e-38
-0.089634776 0.097783409 0.84500015 2.0056018e-38
-0.086177796 0.097536474 0.84500003 2.014607e-38
-0.083708517 0.09704262 0.84500003 2.0697083e-38
-0.052595615 0.097783402 0.84500003 2.0511243e-38
-0.049670473 0.097860545 0.84566677 2.0881102e-38
-0.046779808 0.098014832 0.847 2.0514113e-38
-0.040839516 0.098014832 0.847 2.0698142e-38
-0.038611904 0.098014839 0.847 2.0514113e-38
-0.097272299 0.10024244 0.847 1.8214641e-38
-0.094229095 0.10164746 0.84633338 1.7294886e-38
-0.089634791 0.10148732 0.84500015 1.7568565e-38
-0.08667165 0.10000575 0.84500003 1.8858954e-38
-0.057040315 0.1022281 0.84500003 2.0328652e-38
-0.053954668 0.10179305 0.84600008 1.9684365e-38
-0.049935587 0.10154189 0.84700006 1.959217e-38
-0.046779808 0.10024244 0.847 1.9960947e-38
-0.093367271 0.10583629 0.8466 1.9600453e-38
-0.089706279 0.10601637 0.84566677 1.8678542e-38
-0.085930869 0.1066728 0.84500003 1.7296308e-38
-0.083708517 0.10741358 0.84500003 1.471341e-38
-0.057632942 0.10622833 0.84500009 1.9315229e-38
-0.05439081 0.1059971 0.84700006 1.9407423e-38
-0.051235028 0.1054402 0.847 1.9224111e-38
-0.089475662 0.10952416 0.847 1.8489786e-38
-0.086032555 0.10976656 0.84600002 2.0335137e-38
-0.082292408 0.10972302 0.84566677 2.0610704e-38
-0.077782243 0.10963593 0.84500015 1.8675262e-38
-0.074226491 0.11067303 0.84500009 1.9224481e-38
-0.070744812 0.11148789 0.84500003 1.8580186e-38
-0.060497306 0.11136442 0.84500003 1.8671304e-38
-0.05795626 0.11013265 0.84540004 1.8763857e-38
-0.054947712 0.10989542 0.847 1.9039722e-38
-0.081679031 0.11212303 0.847 1.9311668e-38
-0.077966347 0.11212303 0.847 2.0332602e-38
-0.073139854 0.11397937 0.847 1.7659326e-38
-0.069716044 0.11421651 0.84600008 1.7844785e-38
-0.065929711 0.11408064 0.84500015 1.7936262e-38
-0.061557781 0.11421652 0.84600008 1.8210333e-38
-0.057883233 0.11354104 0.84650004 1.8486557e-38
-0.054947712 0.11286557 0.847 1.8394722e-38
-0.072026052 0.11657826 0.847 1.7841198e-38
-0.069798447 0.11657826 0.847 1.7385607e-38
-0.066085763 0.11657827 0.847 1.7569278e-38
-0.061630547 0.11657827 0.847 1.7843709e-38
-0.081318721 0.047000729 0.85100001 2.3479908e-38
-0.077961519 0.046627708 0.85100001 2.3485667e-38
-0.073858291 0.046254691 0.85100001 2.3486072e-38
-0.070128068 0.046254683 0.85100001 2.2922772e-38
-0.066397861 0.046254687 0.85100001 2.3376444e-38
-0.0895252 0.051476989 0.85100001 2.3457512e-38
-0.085368678 0.05019806 0.85100001 2.3465404e-38
-0.082032911 0.049964741 0.8506667 2.3467217e-38
-0.078273185 0.049944576 0.85033333 2.3473341e-38
-0.07380043 0.049944572 0.85033327 2.3474088e-38
-0.070073135 0.049944576 0.85033339 2.3470487e-38
-0.066397853 0.049984902 0.85099995 2.3474426e-38
-0.06241896 0.050482266 0.85100001 2.3476228e-38
-0.058191381 0.051476989 0.85100001 2.3479171e-38
-0.055953249 0.051476989 0.85100001 2.3477373e-38
-0.093255416 0.055207208 0.85100001 2.3474791e-38
-0.090084732 0.054647669 0.85099995 2.3474412e-38
-0.085705757 0.054403108 0.85011113 2.3474782e-38
-0.081871897 0.054333165 0.84899998 2.3479095e-38
-0.078150436 0.054333165 0.84899998 2.3488516e-38
-0.073684707 0.054333165 0.84899998 2.3491784e-38
-0.069963261 0.054333162 0.84899998 2.3487126e-38
-0.066276088 0.054360826 0.84944445 2.3289353e-38
-0.061905034 0.054446552 0.85077775 2.3478412e-38
-0.058191381 0.054461163 0.85100001 2.3495417e-38
-0.05467432 0.054887474 0.85100001 2.3489656e-38
-0.049984902 0.055207208 0.85100001 2.3482766e-38
-0.046503365 0.05545589 0.85100001 2.3476999e-38
-0.10071585 0.058937423 0.85100001 2.3473396e-38
-0.097433262 0.05834059 0.85100001 2.2360597e-38
-0.094001457 0.058191378 0.85100001 2.327822e-38
-0.09016633 0.058122709 0.85000002 2.3466145e-38
-0.085593343 0.058054619 0.84899998 2.3467226e-38
-0.081871897 0.058054619 0.84899998 2.347368e-38
-0.078150444 0.058054619 0.84899998 2.348058e-38
-0.073684707 0.058054619 0.84899998 2.34914e-38
-0.070211351 0.057806522 0.84899998 2.3497923e-38
-0.065944098 0.05790576 0.84899998 2.3021104e-38
-0.061776064 0.058054619 0.84899998 2.3379002e-38
-0.058122996 0.058122121 0.85000002 2.3490298e-38
-0.054439247 0.058168299 0.8506667 2.3495391e-38
-0.049984902 0.058191381 0.85100001 2.349469e-38
-0.04580706 0.05834059 0.85100001 2.3488196e-38
-0.10108887 0.062294617 0.85100001 2.3469785e-38
-0.097681016 0.061888475 0.85055548 2.0796507e-38
-0.093973935 0.061506756 0.84939998 2.207855e-38
-0.090356797 0.060882922 0.84899998 2.3464704e-38
-0.085593343 0.060287487 0.84899998 2.3467594e-38
-0.081871897 0.060287487 0.84899998 2.3467962e-38
-0.07765425 0.061279874 0.84899998 2.3469382e-38
-0.073897362 0.061350763 0.84900004 2.3470829e-38
-0.070707545 0.060287487 0.84899998 2.3484183e-38
-0.061031774 0.060287487 0.84899998 2.3466576e-38
-0.058054619 0.061776064 0.84899998 2.3464331e-38
-0.054333165 0.061776061 0.84899998 2.3475904e-38
-0.049880095 0.061791852 0.84922218 2.3484211e-38
-0.045472212 0.061872303 0.85033333 2.3491447e-38
-0.041927632 0.062220015 0.85100001 2.3488939e-38
-0.038794249 0.06341368 0.85100001 2.3480272e-38
-0.10196224 0.066544913 0.85049999 2.3466873e-38
-0.097927295 0.066029154 0.84900004 2.300737e-38
-0.094524823 0.064753227 0.84899998 2.1074094e-38
-0.057310328 0.064753227 0.84899998 2.3462893e-38
-0.05396102 0.065125376 0.84899998 2.3464709e-38
-0.049271997 0.06564638 0.84899998 2.3468678e-38
-0.045841772 0.066050947 0.84928572 2.3470138e-38
-0.042312093 0.066544913 0.85049993 2.347624e-38
-0.038048208 0.066397853 0.85099995 2.3473753e-38
-0.10208901 0.070045374 0.85000002 2.3281765e-38
-0.098990567 0.069963261 0.84899998 2.346724e-38
-0.048378848 0.069963261 0.84899998 2.3465855e-38
-0.046145976 0.069963254 0.84899998 2.3465471e-38
-0.042456672 0.070018195 0.84966671 2.3467248e-38
-0.038048208 0.070128076 0.85100001 2.3466185e-38
-0.034566678 0.070376754 0.85100001 2.3466899e-38
-0.10519211 0.075350374 0.85100001 2.3467582e-38
-0.10249748 0.073546447 0.84985715 2.3372533e-38
-0.098990567 0.072196126 0.84899998 2.3464004e-38
-0.046145976 0.073684707 0.84899998 2.3466578e-38
-0.042424526 0.073684707 0.84899998 2.3464381e-38
-0.038027558 0.073819332 0.85055548 2.3464708e-38
-0.034317996 0.073858291 0.85100001 2.3465411e-38
-0.10817628 0.079826631 0.85100001 1.9872751e-38
-0.10593816 0.07833454 0.85100001 2.1716295e-38
-0.10218425 0.077986948 0.84924996 2.3097401e-38
-0.098990567 0.078150444 0.84899998 2.3465453e-38
-0.045773834 0.077778295 0.84899998 2.3469099e-38
-0.042424526 0.078150444 0.84899998 2.346548e-38
-0.0380073 0.078252338 0.85011107 2.3462911e-38
-0.034467202 0.078036122 0.85100001 2.3370709e-38
-0.10817628 0.082064763 0.85100001 1.9229175e-38
-0.10581455 0.081968322 0.85000002 2.1624796e-38
-0.10226544 0.082020752 0.84899998 2.3192887e-38
-0.046145976 0.081871897 0.84899998 2.3181673e-38
-0.04242453 0.081871897 0.84899998 2.2721428e-38
-0.038002331 0.081968628 0.85000002 2.3088748e-38
-0.035064038 0.082064763 0.85100001 2.318129e-38
-0.10892233 0.085794978 0.85100001 1.9227347e-38
-0.10581454 0.085694164 0.85000002 2.1072691e-38
-0.10196772 0.085593343 0.84899998 2.2731848e-38
-0.04599712 0.085295632 0.84899998 2.3467629e-38
-0.042424526 0.085593343 0.84899998 2.282444e-38
-0.038017232 0.085727774 0.85033327 2.2727557e-38
-0.035064038 0.085794985 0.85100001 2.2909763e-38
-0.10892233 0.090271249 0.85100001 1.7293056e-38
-0.10581455 0.090165168 0.85000002 1.960079e-38
-0.10196772 0.090059079 0.84899998 2.0885401e-38
-0.098990567 0.091547661 0.84899998 2.1805549e-38
-0.045401685 0.090059087 0.84899998 2.2359125e-38
-0.042424526 0.090059087 0.84899998 2.2172542e-38
-0.037968334 0.090082265 0.84922218 2.2168945e-38
-0.033562798 0.090247273 0.85077775 2.2355853e-38
-0.030587774 0.091763332 0.85100001 2.1803756e-38
-0.10892233 0.094001457 0.85100001 1.8033534e-38
-0.10587634 0.093945786 0.85050005 1.6834236e-38
-0.10196772 0.09378054 0.84899998 1.9136234e-38
-0.098990567 0.093780532 0.84899998 1.9873417e-38
-0.045401685 0.093780532 0.84899998 2.1528294e-38
-0.042796675 0.093408398 0.84899998 2.1619747e-38
-0.037958786 0.09378054 0.84899998 2.1341708e-38
-0.033531331 0.093890712 0.85000002 2.0975801e-38
-0.030587774 0.094001457 0.85100001 2.0975084e-38
-0.10892233 0.097731672 0.85100001 2.0799365e-38
-0.10589695 0.097693972 0.8506667 1.8493414e-38
-0.10196772 0.097501986 0.84899998 1.7383814e-38
-0.098990574 0.097501986 0.84899998 1.7937697e-38
-0.045401685 0.097501986 0.84899998 2.042156e-38
-0.043317676 0.097799711 0.84899998 2.0420484e-38
-0.036842354 0.097129837 0.84899998 2.0606671e-38
-0.033493049 0.097501986 0.84899998 2.0145336e-38
-0.029841732 0.097731672 0.85100001 2.0144977e-38
-0.027603602 0.097731672 0.85100001 2.0421918e-38
-0.10892233 0.10071585 0.85100001 1.8856769e-38
-0.10578895 0.10190952 0.85100001 1.8950412e-38
-0.10207488 0.10207564 0.84988886 2.1069115e-38
-0.098395132 0.10226544 0.84899998 2.0244756e-38
-0.048378848 0.1034563 0.84899998 1.9593247e-38
-0.045997113 0.10226544 0.84899998 1.9408499e-38
-0.042424526 0.10196772 0.84899998 1.959217e-38
-0.03795879 0.10196772 0.84899998 1.9225187e-38
-0.033526946 0.10207486 0.84988886 1.858234e-38
-0.030214753 0.10183491 0.85100001 1.8488712e-38
-0.10519211 0.10519211 0.85100001 1.7568561e-38
-0.10220794 0.10593816 0.85100001 1.8029173e-38
-0.097345054 0.10627872 0.84924996 1.9319197e-38
-0.094524823 0.10792204 0.84899998 1.9225546e-38
-0.052844588 0.10792204 0.84899998 1.9315229e-38
-0.049442124 0.10664611 0.84900004 1.9224111e-38
-0.046145976 0.10643347 0.84899998 1.8947887e-38
-0.042424522 0.10643347 0.84899998 1.8947887e-38
-0.038183715 0.10604398 0.84928572 1.8672381e-38
-0.03355822 0.10589695 0.8506667 1.8397591e-38
-0.030587774 0.10519211 0.85100001 1.8489786e-38
-0.10202143 0.10948186 0.85099995 1.7202295e-38
-0.097847387 0.10998372 0.85014284 1.7385966e-38
-0.093780532 0.11015491 0.84899998 1.7660755e-38
-0.09080337 0.1108992 0.84899998 1.7292696e-38
-0.052844588 0.11015491 0.84899998 1.9039722e-38
-0.049867433 0.11015492 0.84899998 1.8856053e-38
-0.046145976 0.11015491 0.84899998 1.8303962e-38
-0.04242453 0.11015492 0.84899998 1.8120291e-38
-0.037850082 0.10982267 0.85074997 1.8395439e-38
-0.034467202 0.10936996 0.85100001 1.8486916e-38
-0.10071585 0.11265255 0.85100001 1.6834594e-38
-0.097196609 0.11360314 0.8506667 1.6834236e-38
-0.093927816 0.11405637 0.85033333 1.7016113e-38
-0.0901298 0.11396696 0.8496666 1.719979e-38
-0.085593343 0.11387637 0.84899998 1.6735584e-38
-0.081871897 0.11462066 0.84899998 1.7385249e-38
-0.078150444 0.11462066 0.84899998 1.9042602e-38
-0.07442899 0.11536495 0.84899998 1.7198708e-38
-0.057310328 0.11536495 0.84899998 1.8394363e-38
-0.053737737 0.11447179 0.84899998 1.8119574e-38
-0.049880091 0.11390655 0.84922218 1.7751514e-38
-0.045640796 0.11419787 0.85000002 1.7752232e-38
-0.042055327 0.113818 0.85014284 1.7845148e-38
-0.038234718 0.11395812 0.85099995 1.7752236e-38
-0.035064038 0.11265255 0.85100001 1.8118856e-38
-0.089972824 0.11772563 0.85100001 1.6465817e-38
-0.085794985 0.11787485 0.85100001 1.7109742e-38
-0.08201699 0.11780603 0.85050005 1.7569637e-38
-0.077937797 0.1179168 0.84900004 1.7845144e-38
-0.073870778 0.11852817 0.84899998 1.6922125e-38
-0.069963261 0.11908638 0.84899998 1.6741324e-38
-0.066241808 0.1190864 0.84899998 1.7477802e-38
-0.061776064 0.1190864 0.84899998 1.7935185e-38
-0.058054619 0.11834212 0.84899998 1.8302886e-38
-0.0545348 0.11819088 0.84924996 1.7843709e-38
-0.049945161 0.11778309 0.85033333 1.7567485e-38
-0.045508645 0.11787485 0.85100001 1.7475649e-38
-0.041778423 0.1171288 0.85100001 1.7936985e-38
-0.085496567 0.1207098 0.85100001 1.6833178e-38
-0.082064763 0.12085901 0.85100001 1.7385607e-38
-0.078521058 0.12179157 0.85099995 1.7476367e-38
-0.073858291 0.1223511 0.85100001 1.7014322e-38
-0.070045665 0.12220821 0.85000002 1.5914087e-38
-0.066319823 0.1222082 0.85000002 1.7016472e-38
-0.06184883 0.1222082 0.85000002 1.7567126e-38
-0.058156751 0.12227965 0.85050005 1.765932e-38
-0.054248009 0.12203137 0.85100001 1.7476008e-38
-0.049984902 0.12085901 0.85100001 1.7476008e-38
-0.076842457 0.12458923 0.85100001 1.7383096e-38
-0.073360935 0.12508661 0.85100001 1.5357693e-38
-0.070128068 0.12533528 0.85100001 1.5540313e-38
-0.066397861 0.12533528 0.85100001 1.6373265e-38
-0.061708443 0.12565501 0.85100001 1.7016113e-38
-0.058340587 0.12578289 0.85100001 1.7107948e-38
-0.055207208 0.12458923 0.85100001 1.7199784e-38
-0.072791383 0.039772611 0.85600001 2.3476976e-38
-0.069789678 0.039772611 0.85600007 2.3477357e-38
-0.066787966 0.039772611 0.85600001 2.3476291e-38
-0.084798217 0.04277432 0.85600001 2.3474417e-38
-0.081796512 0.04277432 0.85600007 2.347516e-38
-0.077999219 0.041998908 0.85549998 2.3474806e-38
-0.074205451 0.04197393 0.85500002 2.3479168e-38
-0.069708154 0.041973919 0.85500002 2.3490361e-38
-0.065998532 0.041998908 0.85549998 2.2365264e-38
-0.062285416 0.04277432 0.85600007 2.3473722e-38
-0.093803331 0.047276881 0.85600007 2.3469043e-38
-0.089999035 0.046498839 0.85549998 2.3468664e-38
-0.086209841 0.04572732 0.85511112 2.3472248e-38
-0.081874408 0.045270815 0.85457152 2.3476987e-38
-0.078111582 0.044670843 0.85399997 2.3485614e-38
-0.074118659 0.044171728 0.85399997 2.3501158e-38
-0.069626614 0.044171728 0.85399997 2.3489996e-38
-0.065883249 0.044171724 0.85399997 2.1900255e-38
-0.062188394 0.045703549 0.85466665 2.347801e-38
-0.058191881 0.045974653 0.85571426 2.3478763e-38
-0.054030716 0.047276881 0.85600001 2.3476627e-38
-0.04990337 0.046901666 0.85600001 2.3475545e-38
-0.046151236 0.046901669 0.85600001 2.3474438e-38
-0.09805917 0.050690126 0.85571426 2.3278537e-38
-0.093681969 0.050212149 0.85488892 2.3367484e-38
-0.089893833 0.049440928 0.85450006 2.346075e-38
-0.087594777 0.049412437 0.85399997 2.3461458e-38
-0.061141651 0.049162876 0.85399997 2.3477691e-38
-0.057669759 0.049431436 0.85433334 2.347736e-38
-0.053946562 0.050199103 0.85466671 2.3475212e-38
-0.050187606 0.050186437 0.85444444 2.3475568e-38
-0.04570394 0.05019949 0.85466671 2.3474103e-38
-0.04277432 0.050278585 0.85600007 2.3474084e-38
-0.10205802 0.054030716 0.85600001 2.3092346e-38
-0.098115072 0.053925224 0.85433334 2.3469038e-38
-0.093958497 0.053530142 0.85399997 2.347764e-38
-0.053904474 0.053155802 0.85399997 2.348097e-38
-0.050161108 0.053155802 0.85399997 2.3479176e-38
-0.045369603 0.053754743 0.85400003 2.3474129e-38
-0.041998908 0.05399872 0.85549998 2.3473396e-38
-0.039772611 0.054781143 0.85600001 2.347303e-38
-0.10581016 0.059283704 0.85600007 2.3465787e-38
-0.10211273 0.05742798 0.85519999 2.3476637e-38
-0.098450527 0.056524832 0.85399997 2.3473031e-38
-0.095081508 0.056150492 0.85399997 2.3470801e-38
-0.044171724 0.056899168 0.85399997 2.3477008e-38
-0.041957851 0.05769226 0.85466665 2.3476641e-38
-0.038436573 0.057935826 0.85549998 2.3473394e-38
-0.03527005 0.058533281 0.85600001 2.3471172e-38
-0.10881186 0.063035846 0.85600001 2.327678e-38
-0.105756 0.062252682 0.85555553 2.327961e-38
-0.10256824 0.061391205 0.85399997 2.347193e-38
-0.041177031 0.060642533 0.85399997 2.3480629e-38
-0.037968434 0.061712064 0.85400003 2.3476306e-38
-0.033926342 0.062417567 0.85525 2.3469778e-38
-0.030767493 0.063786268 0.85600001 2.3467974e-38
-0.10956229 0.066037543 0.85600001 2.2912679e-38
-0.10596269 0.065795235 0.85480005 2.3278526e-38
-0.033690304 0.065883249 0.85400003 2.3467631e-38
-0.030767493 0.066037543 0.85600001 2.3467248e-38
-0.10956229 0.069789678 0.85600007 2.2176524e-38
-0.10643697 0.069708146 0.85500002 2.2816139e-38
-0.033191185 0.0691275 0.85400003 2.3467258e-38
-0.029993102 0.069734745 0.85533333 2.3465443e-38
-0.027265502 0.070790246 0.85600007 2.3465425e-38
-0.11391477 0.074592412 0.85600007 2.2173644e-38
-0.11028447 0.074272566 0.8557778 2.1807395e-38
-0.10646134 0.073819183 0.85400003 2.1804483e-38
-0.032192953 0.074118659 0.85399997 2.3466145e-38
-0.029946931 0.074118659 0.85400003 2.3465057e-38
-0.026250517 0.074254058 0.85555553 2.3463612e-38
-0.11406485 0.078044362 0.85600001 2.1619743e-38
-0.11018502 0.077952906 0.85500002 2.1805954e-38
-0.032192953 0.077862024 0.85399997 2.3369997e-38
-0.029946931 0.077862017 0.85399997 2.337071e-38
-0.02624331 0.077983588 0.85533333 2.2909732e-38
-0.11631613 0.081796505 0.85600007 2.033333e-38
-0.11406486 0.081796505 0.85600007 2.042374e-38
-0.11080365 0.08160539 0.85400003 2.1715216e-38
-0.032941632 0.08160539 0.85400003 2.2997976e-38
-0.030005086 0.081765234 0.85566664 2.3091605e-38
-0.026264932 0.081796512 0.85600001 2.2908652e-38
-0.022512797 0.083297357 0.85600001 2.2543462e-38
-0.11631613 0.086299062 0.85600007 1.9688686e-38
-0.11393248 0.086198255 0.85500002 2.0149318e-38
-0.11155232 0.086097434 0.85399997 1.9503966e-38
-0.032941628 0.086097434 0.85400003 2.2906166e-38
-0.029993102 0.086231276 0.85533333 2.2628504e-38
-0.026264932 0.086299062 0.85600001 2.0969347e-38
-0.022512799 0.086299062 0.85600007 2.059985e-38
-0.11631613 0.089300767 0.85600001 1.9872713e-38
-0.11393247 0.089945994 0.85500002 2.0795422e-38
-0.11155232 0.0898408 0.85399997 1.8399448e-38
-0.029946933 0.089840792 0.85399997 2.3189945e-38
-0.02624331 0.089981064 0.85533333 2.3374702e-38
-0.11393248 0.093693756 0.85500002 1.9778361e-38
-0.11155232 0.093584165 0.85399997 2.0702458e-38
-0.029198259 0.093584165 0.85399997 2.143462e-38
-0.026236491 0.093705535 0.85511112 2.1342067e-38
-0.11349107 0.097758412 0.85450006 2.0609212e-38
-0.11155232 0.098076195 0.85399997 2.05199e-38
-0.025483822 0.098191045 0.85500002 1.977907e-38
-0.11331442 0.10205802 0.85600001 1.8766729e-38
-0.11042931 0.1021939 0.85399997 1.858198e-38
-0.029198259 0.10256824 0.85399997 1.8306832e-38
-0.026233081 0.10193908 0.85500002 1.8950039e-38
-0.11331442 0.10505973 0.85600001 1.8580904e-38
-0.11017069 0.1056732 0.85488886 1.8398309e-38
-0.10668594 0.10593726 0.85399997 1.7661833e-38
-0.029572595 0.10593727 0.85399997 1.8489427e-38
-0.026243309 0.10572775 0.85533333 1.858198e-38
-0.10981126 0.11002517 0.85542858 1.6833877e-38
-0.10602657 0.11030621 0.85428584 1.711046e-38
-0.032567289 0.11042931 0.85399997 1.8578758e-38
-0.030138398 0.10991015 0.85519999 1.8303249e-38
-0.027765786 0.10956229 0.85600001 1.830468e-38
-0.10541179 0.11380887 0.85519999 1.646797e-38
-0.1022281 0.11422674 0.85533333 1.6099552e-38
-0.099573545 0.11454701 0.85399997 1.6375058e-38
-0.033420991 0.11405468 0.85479993 1.7935185e-38
-0.030767493 0.11331442 0.85600001 1.8210333e-38
-0.10430931 0.11631613 0.85600001 1.5915522e-38
-0.10205802 0.11631613 0.85600001 1.5730775e-38
-0.098464772 0.11797062 0.85575002 1.5638222e-38
-0.093883634 0.11844011 0.85400003 1.5914087e-38
-0.041925706 0.11903905 0.85399997 1.7752591e-38
-0.03799348 0.11804917 0.85457146 1.7659322e-38
-0.034242012 0.11722552 0.85533333 1.7382379e-38
-0.09793067 0.1211939 0.85600001 1.545491e-38
-0.09377937 0.12228817 0.8557778 1.5730057e-38
-0.089910924 0.12213018 0.85466671 1.6097758e-38
-0.086471766 0.12315674 0.85399997 1.6374351e-38
-0.082354061 0.12353108 0.85399997 1.6924636e-38
-0.050161108 0.12353109 0.85399997 1.7199067e-38
-0.045704726 0.12213019 0.85466671 1.7199784e-38
-0.04209543 0.12179214 0.85439998 1.7567843e-38
-0.038571931 0.12141903 0.85600007 1.7291978e-38
-0.03527005 0.12081868 0.85600001 1.7293054e-38
-0.092802763 0.12582153 0.85600007 1.5360922e-38
-0.090051197 0.12607166 0.85600001 1.5452759e-38
-0.086097434 0.12577711 0.85400003 1.5728981e-38
-0.08160539 0.1257771 0.85400003 1.6556936e-38
-0.078111582 0.12602666 0.85399997 1.6740606e-38
-0.074617766 0.12602666 0.85399997 1.6833525e-38
-0.056150492 0.12652577 0.85399997 1.6924995e-38
-0.05365492 0.12602666 0.85399997 1.7108307e-38
-0.0501801 0.12582649 0.8543334 1.7291622e-38
-0.0467766 0.12582153 0.85600007 1.7383814e-38
-0.090051197 0.12907338 0.85600001 1.4992503e-38
-0.086299062 0.1298238 0.85600001 1.5084339e-38
-0.081984118 0.1296362 0.85600001 1.600413e-38
-0.077999219 0.12899843 0.85549998 1.6006281e-38
-0.074028239 0.12930934 0.85542858 1.6465459e-38
-0.069681749 0.12962238 0.85466671 1.5356995e-38
-0.06590867 0.12957162 0.8543334 1.5913728e-38
-0.062381621 0.12982272 0.85475004 1.6279994e-38
-0.05752774 0.12986062 0.85500002 1.6738813e-38
-0.053988636 0.12972388 0.85533333 1.6924277e-38
-0.050707404 0.12960941 0.85600007 1.710759e-38
-0.072791383 0.13282552 0.85600001 1.7385972e-38
-0.069414467 0.13320073 0.85600001 1.4529751e-38
-0.066037543 0.13357595 0.85600001 1.5636069e-38
-0.062660627 0.13320073 0.85600001 1.5728622e-38
-0.057782855 0.13282552 0.85600007 1.6371471e-38
-0.054781143 0.13282552 0.85600001 1.6647695e-38
-0.085194461 0.035434868 0.86000001 2.3478742e-38
-0.08187715 0.034831721 0.86000007 2.3480912e-38
-0.077655129 0.034680936 0.86000007 2.3481626e-38
-0.073885463 0.034680936 0.86000001 2.3479116e-38
-0.070115805 0.034680936 0.86000007 2.3480209e-38
-0.065376788 0.03435782 0.86000013 2.3475173e-38
-0.061973322 0.034228574 0.86000007 2.3467618e-38
-0.058354437 0.034831725 0.86000007 2.3472287e-38
-0.09801133 0.039958466 0.86000001 2.3471901e-38
-0.094241664 0.03995847 0.86000001 2.3472985e-38
-0.08921545 0.038953222 0.86000007 2.347515e-38
-0.085915379 0.038435113 0.85966671 2.3476233e-38
-0.082030475 0.038380273 0.85844439 2.3475526e-38
-0.078226715 0.038361177 0.85799998 2.3476964e-38
-0.074653856 0.038173132 0.85799992 2.3476972e-38
-0.070034266 0.037651956 0.85899997 2.3476252e-38
-0.065766655 0.037902683 0.85900009 2.3472296e-38
-0.06227883 0.038570702 0.85849994 2.3283198e-38
-0.057992473 0.038409691 0.85911113 2.3476264e-38
-0.053686187 0.038615853 0.85950005 2.3475173e-38
-0.049759597 0.03920453 0.86000001 2.3475901e-38
-0.046366896 0.0395815 0.86000001 2.3474444e-38
-0.10932034 0.0429742 0.86000001 2.3467935e-38
-0.1063046 0.0429742 0.86000001 2.3466507e-38
-0.10147943 0.042371053 0.86000007 2.3469733e-38
-0.09801133 0.042220265 0.86000001 2.3472248e-38
-0.094096147 0.042154223 0.85866666 2.3471894e-38
-0.08950942 0.042122077 0.85799998 2.3471546e-38
-0.085999243 0.04187135 0.85799998 2.3472995e-38
-0.081987619 0.041369896 0.85799998 2.3474443e-38
-0.062430941 0.041369896 0.85799998 2.3466595e-38
-0.057917859 0.042122077 0.85799998 2.3476957e-38
-0.054156959 0.042122077 0.85799998 2.3475904e-38
-0.05041505 0.042138152 0.85833329 2.3475896e-38
-0.045953698 0.042186953 0.8593334 2.3476224e-38
-0.04247158 0.04247158 0.86000001 2.3473701e-38
-0.038450599 0.0429742 0.86000001 2.3472259e-38
-0.11233606 0.046743862 0.86000001 1.9502564e-38
-0.11007427 0.045989931 0.86000007 2.273256e-38
-0.10630459 0.045989931 0.86000007 2.3469813e-38
-0.10162397 0.045917846 0.8586666 2.3468327e-38
-0.097783402 0.045882978 0.85799998 2.3470436e-38
-0.094022505 0.045130797 0.85799998 2.3470079e-38
-0.090261593 0.044378616 0.85799998 2.3471529e-38
-0.056413498 0.045130797 0.85799998 2.3478414e-38
-0.054156959 0.045130797 0.85799998 2.3477345e-38
-0.050696928 0.044980358 0.85799998 2.3476267e-38
-0.045582104 0.044980358 0.85799998 2.3475136e-38
-0.042138152 0.045900218 0.85833329 2.3473708e-38
-0.03842001 0.045953501 0.8593334 2.3470481e-38
-0.034228574 0.046894651 0.86000007 2.3469783e-38
-0.11354236 0.049910385 0.86000007 2.3200445e-38
-0.10982179 0.050164264 0.8592 2.1525808e-38
-0.10608523 0.050408721 0.85822213 2.2085057e-38
-0.10197411 0.050181154 0.85799998 2.328467e-38
-0.098535575 0.048891697 0.85799998 2.3471584e-38
-0.041369896 0.050396055 0.85799998 2.3469769e-38
-0.038380273 0.050421771 0.85844439 2.3469419e-38
-0.033927001 0.049759604 0.86000007 2.3469413e-38
-0.030911267 0.050513532 0.86000001 2.3467247e-38
-0.11685967 0.05352927 0.86000001 2.3469455e-38
-0.11384393 0.05352927 0.86000007 2.3476669e-38
-0.11012336 0.053780343 0.8592 2.3471626e-38
-0.10605737 0.054156959 0.85799998 2.0974414e-38
-0.038060304 0.054006524 0.85799998 2.347194e-38
-0.03389154 0.053472769 0.85911113 2.3468327e-38
-0.030308122 0.05383084 0.86000007 2.3466876e-38
-0.027895533 0.055037133 0.86000001 2.3467932e-38
-0.11761361 0.058052864 0.86000007 2.2358371e-38
-0.11378588 0.058022473 0.8595556 2.3376848e-38
-0.10981827 0.057917859 0.85799998 2.3468336e-38
-0.10605737 0.057165679 0.85799998 2.3376172e-38
-0.036856819 0.056413498 0.85799998 2.3471224e-38
-0.033418287 0.057702951 0.85799998 2.347047e-38
-0.03013337 0.058007278 0.8593334 2.3468686e-38
-0.02657615 0.058241349 0.86000007 2.3466152e-38
-0.023371933 0.058806799 0.86000001 2.3466849e-38
-0.1176136 0.061822534 0.86000001 2.208215e-38
-0.11352438 0.062314779 0.85899997 2.2728964e-38
-0.11019436 0.062054846 0.85799998 2.3461862e-38
-0.032343738 0.060926579 0.85799998 2.3467974e-38
-0.029936761 0.062130064 0.85799998 2.3466518e-38
-0.026339157 0.062462885 0.85844439 2.3465818e-38
-0.022357631 0.062300321 0.85966676 2.3464003e-38
-0.11761361 0.0655922 0.86000007 2.162225e-38
-0.1138324 0.065890767 0.85828567 2.2636788e-38
-0.029335016 0.066191837 0.85799998 2.3466155e-38
-0.026326299 0.066191837 0.85799998 2.3465086e-38
-0.021661993 0.065742105 0.85949999 2.3464709e-38
-0.11827656 0.070060663 0.85933334 2.1344591e-38
-0.11357917 0.069952734 0.85799992 2.2729713e-38
-0.025824845 0.06945128 0.85799998 2.3464716e-38
-0.021845946 0.070061445 0.85933334 2.3463979e-38
-0.11797389 0.074320726 0.85849988 2.1068011e-38
-0.11508354 0.072961457 0.85799998 2.1897046e-38
-0.022025812 0.074363679 0.85900003 2.3463259e-38
-0.11838682 0.077955455 0.85857141 2.0792852e-38
-0.021611836 0.077955455 0.85857141 2.3000497e-38
-0.12138327 0.082178727 0.86000001 2.0239682e-38
-0.11893736 0.082051903 0.85866666 2.033367e-38
-0.021598311 0.081557803 0.85799998 2.2726424e-38
-0.018848334 0.082178734 0.86000001 2.235872e-38
-0.1218859 0.086199701 0.86000001 1.9320262e-38
-0.11884443 0.085748516 0.85799998 1.978194e-38
-0.02030886 0.085748516 0.85799998 2.0328302e-38
-0.018848332 0.085948393 0.86000001 2.0328305e-38
-0.12439901 0.088964134 0.86000001 1.9137324e-38
-0.1221372 0.089718066 0.86000007 1.9137344e-38
-0.11856189 0.089754649 0.85828567 1.9688679e-38
-0.021605076 0.089969546 0.85828573 2.272859e-38
-0.018848332 0.088964134 0.86000001 2.0607387e-38
-0.1221372 0.094241671 0.86000007 1.8862524e-38
-0.11818518 0.094095558 0.85866666 1.8951139e-38
-0.021829 0.09409555 0.85866672 2.1526816e-38
-0.1221372 0.09801133 0.86000001 1.7660429e-38
-0.11823106 0.097897664 0.85899997 1.9224121e-38
-0.11508354 0.098535575 0.85799998 2.0886118e-38
-0.021829 0.097859375 0.85866666 2.0976877e-38
-0.12138326 0.10102706 0.86000001 1.8855722e-38
-0.11827694 0.1017021 0.85933334 1.9502494e-38
-0.11508354 0.10154429 0.85799998 1.9227704e-38
-0.021813218 0.10154429 0.85799992 1.9411011e-38
-0.11830714 0.10625005 0.8595556 1.7661473e-38
-0.11470745 0.10643347 0.85799998 1.7936979e-38
-0.021813218 0.10605738 0.85799992 1.8581981e-38
-0.11736229 0.10982296 0.86000001 1.7017548e-38
-0.1139337 0.11002026 0.85839999 1.6925717e-38
-0.025574118 0.10981827 0.85799998 1.7845502e-38
-0.021845948 0.10998894 0.8593334 1.8121368e-38
-0.11685967 0.11308999 0.86000001 1.6372906e-38
-0.11369801 0.11369722 0.85888892 1.6373982e-38
-0.10981827 0.11433136 0.85799998 1.6282505e-38
-0.10756174 0.11508354 0.85799998 1.6192105e-38
-0.029711107 0.11395527 0.85799998 1.7751873e-38
-0.026339546 0.11363879 0.85844445 1.7751873e-38
-0.022052549 0.11365544 0.86000007 1.7751873e-38
-0.11329776 0.11781962 0.85966676 1.5730057e-38
-0.10990419 0.1181846 0.85866666 1.5730416e-38
-0.10624541 0.11828029 0.85799992 1.5638581e-38
-0.10229647 0.11884443 0.85799998 1.5454192e-38
-0.032845192 0.11909516 0.85799998 1.7292697e-38
-0.030098593 0.11813872 0.85833329 1.7200143e-38
-0.026380457 0.11833734 0.85977781 1.7199784e-38
-0.023371933 0.1176136 0.86000001 1.7291978e-38
-0.11233606 0.12138326 0.86000001 1.5363074e-38
-0.11007427 0.1221372 0.86000001 1.5178327e-38
-0.10609917 0.12190079 0.85833329 1.5270162e-38
-0.10184517 0.12200359 0.85799998 1.5179044e-38
-0.098535575 0.12260534 0.85799998 1.5363074e-38
-0.036856819 0.12260534 0.85799998 1.7291978e-38
-0.03354723 0.12200359 0.85799998 1.7200143e-38
-0.030139361 0.12206663 0.85950005 1.7107948e-38
-0.026387665 0.1221372 0.86000007 1.710759e-38
-0.10932034 0.12439901 0.86000001 1.4992503e-38
-0.10611611 0.12571838 0.86000007 1.4809197e-38
-0.10157099 0.12564696 0.85822219 1.4717356e-38
-0.097783402 0.12561405 0.85799998 1.5085415e-38
-0.095025405 0.12661695 0.85799998 1.5269804e-38
-0.044880074 0.12661695 0.85799998 1.7199784e-38
-0.041971643 0.12591492 0.85799998 1.7384172e-38
-0.038410466 0.12577789 0.85911113 1.7106875e-38
-0.033917844 0.12587471 0.85977781 1.710759e-38
-0.030157333 0.12515293 0.86000001 1.7107231e-38
-0.027895533 0.12439901 0.86000001 1.7476008e-38
-0.10147943 0.12952575 0.86000007 1.425782e-38
-0.097859964 0.13022883 0.85866666 1.4441491e-38
-0.094022498 0.13012715 0.85799992 1.4900668e-38
-0.090261593 0.13163149 0.85799998 1.4624803e-38
-0.080483258 0.13163149 0.85799998 1.600665e-38
-0.078226715 0.13163149 0.85799998 1.5546391e-38
-0.075217992 0.13163149 0.85799998 1.5083622e-38
-0.048891697 0.13087931 0.85799998 1.7199067e-38
-0.04589447 0.13016123 0.85822219 1.7199425e-38
-0.042203613 0.1303805 0.85966676 1.6833159e-38
-0.038450599 0.12967652 0.86000007 1.6280713e-38
-0.035434868 0.1289226 0.86000001 1.6186365e-38
-0.097257398 0.1334462 0.86000001 1.416706e-38
-0.093853131 0.13392523 0.8592 1.3888684e-38
-0.08950942 0.13388804 0.85799998 1.4071996e-38
-0.085748516 0.13388804 0.85799998 1.4438621e-38
-0.081987619 0.13388804 0.85799998 1.5359847e-38
-0.078226715 0.13388804 0.85799998 1.5453835e-38
-0.074766688 0.13403848 0.85799998 1.5450963e-38
-0.070704915 0.13464022 0.85799998 1.5266575e-38
-0.061678756 0.13464022 0.85799998 1.581974e-38
-0.057917859 0.13464022 0.85799998 1.6187082e-38
-0.053906232 0.13413876 0.85799998 1.6464024e-38
-0.050396062 0.13388804 0.85799998 1.6555501e-38
-0.045971524 0.13414842 0.85966671 1.6464024e-38
-0.04247158 0.13394883 0.86000001 1.581974e-38
-0.093487725 0.13646193 0.86000001 1.3521701e-38
-0.089416496 0.13706508 0.86000007 1.3521701e-38
-0.085948393 0.13721585 0.86000001 1.3520266e-38
-0.082115024 0.13786401 0.85933334 1.4160962e-38
-0.077798024 0.13807894 0.85950005 1.4714127e-38
-0.074134186 0.13761839 0.8591429 1.5172587e-38
-0.070007086 0.13775706 0.85866666 1.4530097e-38
-0.06621784 0.137703 0.85833329 1.5082545e-38
-0.062447105 0.13768497 0.85822213 1.5450605e-38
-0.057962079 0.13775666 0.85866666 1.5818305e-38
-0.053702191 0.13811861 0.85975003 1.5820458e-38
-0.050048646 0.13766372 0.85942864 1.5635711e-38
-0.045989931 0.13721585 0.86000007 1.5543158e-38
-0.077956699 0.14158867 0.86000007 1.3613536e-38
-0.074639395 0.14098553 0.86000001 1.3706089e-38
-0.070115805 0.14098553 0.86000001 1.3608515e-38
-0.06521523 0.1413625 0.86000001 1.4808119e-38
-0.061822534 0.14173947 0.86000001 1.4899592e-38
-0.058354437 0.14158867 0.86000007 1.4806681e-38
-0.054283202 0.14098553 0.86000001 1.4622292e-38
-0.061068602 0.14400128 0.86000001 1.2226318e-38
-0.059560731 0.14400128 0.86000001 1.2321741e-38
-0.073301598 0.030983152 0.86199999 2.3488123e-38
-0.070278868 0.030983154 0.86199999 2.3488119e-38
-0.065366894 0.030605309 0.86199999 2.3486712e-38
-0.06272199 0.030227466 0.86199999 2.3483851e-38
-0.088415332 0.035517272 0.86199999 2.3479826e-38
-0.08690396 0.035517272 0.86199999 2.3478742e-38
-0.082369849 0.032998316 0.86199999 2.3485237e-38
-0.077835724 0.032494523 0.86199999 2.3484521e-38
-0.074057281 0.032494523 0.86199999 2.3483428e-38
-0.070278868 0.032494523 0.86199999 2.3484498e-38
-0.066500425 0.032494523 0.86199999 2.3480568e-38
-0.061210617 0.032494523 0.86199999 2.346839e-38
-0.058187872 0.032998316 0.86199999 2.3477301e-38
-0.054031596 0.035139427 0.86199999 2.3478774e-38
-0.049875315 0.035517272 0.86199999 2.3478036e-38
-0.047608256 0.035517272 0.86199999 2.3477666e-38
-0.101262 0.038540017 0.86199999 2.3471927e-38
-0.098239258 0.038540017 0.86199999 2.3472649e-38
-0.09446083 0.037784331 0.86199999 2.3475173e-38
-0.090934299 0.037532434 0.86199999 2.3474793e-38
-0.052142378 0.037028644 0.86199999 2.3475164e-38
-0.049875315 0.037028644 0.86199999 2.3476249e-38
-0.045794606 0.037633196 0.86199999 2.3474437e-38
-0.043074138 0.038540017 0.86199999 2.3476254e-38
-0.11259731 0.043074138 0.86199999 2.0704958e-38
-0.10957457 0.041310873 0.86199999 2.3007729e-38
-0.10579614 0.04080708 0.86199999 2.3469775e-38
-0.10239554 0.040429235 0.86199999 2.3470468e-38
-0.041260492 0.040655941 0.86199999 2.3473351e-38
-0.037784331 0.041562766 0.86199999 2.3472264e-38
-0.035013482 0.042570349 0.86199999 2.3471552e-38
-0.11436057 0.046096884 0.86199999 2.2272692e-38
-0.034005895 0.045089304 0.86199999 2.3469764e-38
-0.030983152 0.04685257 0.86199999 2.3468334e-38
-0.11763521 0.050127208 0.86199999 2.3189221e-38
-0.11562005 0.049119629 0.86199999 2.3479447e-38
-0.029975571 0.049623422 0.86199999 2.3468319e-38
-0.027960405 0.050631002 0.86199999 2.3467227e-38
-0.1186428 0.053653754 0.86199999 2.3466492e-38
-0.029471779 0.052142378 0.86199999 2.3468312e-38
-0.026260111 0.05346483 0.86199999 2.3467226e-38
-0.023426285 0.054409437 0.86199999 2.3467248e-38
-0.12015417 0.058187872 0.86199999 2.1806281e-38
-0.024937658 0.0566765 0.86199999 2.3467222e-38
-0.021914912 0.058565713 0.86199999 2.3467939e-38
-0.12015417 0.061966304 0.86199999 2.1527893e-38
-0.02040354 0.061210617 0.86199999 2.3465819e-38
-0.12090986 0.065744743 0.86199999 2.1344941e-38
-0.12204339 0.070656702 0.86199999 2.0974034e-38
-0.12242123 0.074057281 0.86199999 2.0791432e-38
-0.018892165 0.074812971 0.86199999 2.309304e-38
-0.12242123 0.077835724 0.86199999 2.0700298e-38
-0.018136479 0.077835724 0.86199999 2.2909375e-38
-0.015365629 0.07884331 0.86199999 2.2541677e-38
-0.12468829 0.083881214 0.86199999 1.9688311e-38
-0.12317692 0.082369849 0.86199999 2.0147488e-38
-0.017380793 0.082369849 0.86199999 2.1898467e-38
-0.015113733 0.082369842 0.86199999 2.1621168e-38
-0.12468829 0.086148277 0.86199999 1.8768528e-38
-0.12317692 0.085392587 0.86199999 1.9228417e-38
-0.017380793 0.086148277 0.86199999 1.876027e-38
-0.015113733 0.086148277 0.86199999 1.7837969e-38
-0.12569588 0.089926705 0.86199999 1.9045123e-38
-0.017758636 0.090304554 0.86199999 2.1254937e-38
-0.015491575 0.089548863 0.86199999 1.9960615e-38
-0.12468829 0.09446083 0.86199999 1.8861798e-38
-0.018136479 0.09446083 0.86199999 2.198923e-38
-0.015869418 0.09446083 0.86199999 2.1620455e-38
-0.12468829 0.098239258 0.86199999 1.7202302e-38
-0.018136479 0.098239258 0.86199999 2.1254178e-38
-0.015869418 0.098239258 0.86199999 2.1162701e-38
-0.12468829 0.10050632 0.86199999 1.6372547e-38
-0.12279908 0.10239553 0.86199999 1.8857537e-38
-0.018136479 0.10201769 0.86199999 1.9503922e-38
-0.01586942 0.1020177 0.86199999 1.9689387e-38
-0.12216934 0.10554424 0.86199999 1.7570008e-38
-0.018136479 0.10579613 0.86199999 1.8583056e-38
-0.015869418 0.10504045 0.86199999 1.8584491e-38
-0.12015417 0.11033024 0.86199999 1.6924995e-38
-0.1186428 0.11108593 0.86199999 1.701683e-38
-0.018388376 0.10856698 0.86199999 1.8305397e-38
-0.12015417 0.11259731 0.86199999 1.6282505e-38
-0.11813901 0.11410868 0.86199999 1.6006281e-38
-0.02040354 0.11562005 0.86199999 1.7476367e-38
-0.11713143 0.11788711 0.86199999 1.5730416e-38
-0.11562005 0.1186428 0.86199999 1.5638581e-38
-0.021159226 0.11788711 0.86199999 1.7291978e-38
-0.11410868 0.1212877 0.86199999 1.5270521e-38
-0.022103833 0.12147663 0.86199999 1.6832083e-38
-0.11259731 0.12468829 0.86199999 1.4718073e-38
-0.10957456 0.12619966 0.86199999 1.471628e-38
-0.030227466 0.12771104 0.86199999 1.6922484e-38
-0.026751308 0.12589739 0.86199999 1.692356e-38
-0.023426285 0.12468829 0.86199999 1.664913e-38
-0.10504045 0.12997809 0.86199999 1.4257461e-38
-0.10352907 0.13073377 0.86199999 1.4073431e-38
-0.033703621 0.13012922 0.86199999 1.5911935e-38
-0.030227466 0.12922241 0.86199999 1.6278559e-38
-0.101262 0.13224515 0.86199999 1.3799001e-38
-0.098239258 0.13451222 0.86199999 1.3706448e-38
-0.095972203 0.13526791 0.86199999 1.3612819e-38
-0.040429235 0.13413438 0.86199999 1.5727546e-38
-0.037784331 0.13375653 0.86199999 1.5636074e-38
-0.035517272 0.13375653 0.86199999 1.5637146e-38
-0.097483575 0.13677928 0.86199999 1.3521342e-38
-0.094082989 0.13829066 0.86199999 1.3153641e-38
-0.090304554 0.13942419 0.86199999 1.3153282e-38
-0.086148277 0.13980202 0.86199999 1.3336236e-38
-0.046096884 0.13980202 0.86199999 1.5175816e-38
-0.042066555 0.13778687 0.86199999 1.5358769e-38
-0.086148277 0.1413134 0.86199999 1.3335877e-38
-0.082067572 0.14191794 0.86199999 1.3244759e-38
-0.076324344 0.14282477 0.86199999 1.3798642e-38
-0.073805392 0.14232099 0.86199999 1.2693746e-38
-0.070278868 0.14282477 0.86199999 1.2871319e-38
-0.066500425 0.14282477 0.86199999 1.4440057e-38
-0.0566765 0.14282477 0.86199999 1.398303e-38
-0.053275909 0.14244694 0.86199999 1.3704295e-38
-0.050127208 0.1418172 0.86199999 1.4715203e-38
-0.045341197 0.1413134 0.86199999 1.508398e-38
-0.078591406 0.14433615 0.86199999 1.2413217e-38
-0.064233363 0.14433615 0.86199999 1.1305811e-38
-0.061966304 0.14509183 0.86199999 1.1031022e-38
-0.058187872 0.14483994 0.86199999 1.1862563e-38
-0.054409437 0.14433615 0.86199999 1.3150413e-38
-0.074486859 0.026602449 0.86699998 2.3501118e-38
-0.089434907 0.030656155 0.86699998 2.3492832e-38
-0.085887909 0.0304028 0.86700004 2.3493929e-38
-0.08199288 0.029606786 0.86599994 2.3496446e-38
-0.078106612 0.029572593 0.86500001 2.3494638e-38
-0.07410419 0.029083854 0.86549997 2.3497156e-38
-0.070235729 0.028973131 0.86520004 2.3496802e-38
-0.066337548 0.028689617 0.86580002 2.3495374e-38
-0.061480451 0.028992591 0.86580002 2.3485293e-38
-0.058183488 0.029753845 0.86474997 2.3472258e-38
-0.054182131 0.030077057 0.8670001 2.3489207e-38
-0.050164618 0.030402798 0.86699998 2.3485621e-38
-0.046744298 0.030782834 0.86699998 2.3483436e-38
-0.043323986 0.031162869 0.86699998 2.3479123e-38
-0.10945007 0.035723288 0.86699998 2.3483849e-38
-0.10564972 0.035723291 0.86699998 2.3477363e-38
-0.10184937 0.03496322 0.86699998 2.3475543e-38
-0.097993359 0.03494262 0.86650002 2.3479115e-38
-0.094139978 0.034161948 0.86600006 2.3480925e-38
-0.090443395 0.033938505 0.865125 2.3482011e-38
-0.085893698 0.033175871 0.86400002 2.3484879e-38
-0.056807999 0.032569919 0.86400002 2.3483471e-38
-0.053548902 0.033221107 0.86520004 2.3484184e-38
-0.05007783 0.033383906 0.86549997 2.3479068e-38
-0.04607464 0.033937849 0.86512506 2.3479477e-38
-0.041771118 0.034175683 0.86633337 2.3476605e-38
-0.038003497 0.03496322 0.86699998 2.3474031e-38
-0.1140105 0.038763568 0.86699998 2.3472292e-38
-0.10995767 0.037915833 0.86500001 2.3477387e-38
-0.1060416 0.037872002 0.86400002 2.3474098e-38
-0.10263312 0.037493281 0.86400002 2.3473361e-38
-0.098467201 0.037114561 0.86400002 2.3476978e-38
-0.041356225 0.037720513 0.86400002 2.3475145e-38
-0.037937749 0.037936434 0.86549997 2.3475484e-38
-0.034203149 0.038003497 0.86700004 2.3475136e-38
-0.031162869 0.038763568 0.86699998 2.3475119e-38
-0.11679741 0.041803848 0.86699998 2.3281782e-38
-0.11431864 0.041729774 0.86550009 2.2086482e-38
-0.11134367 0.040144317 0.86400002 2.3472339e-38
-0.037872002 0.040144317 0.86400002 2.3472614e-38
-0.033618413 0.041200705 0.86500001 2.3472977e-38
-0.029819269 0.041975126 0.86662501 2.3471185e-38
-0.026602449 0.043323986 0.86699998 2.347335e-38
-0.12085112 0.047124334 0.86699998 2.3280665e-38
-0.11843504 0.046309914 0.86600006 2.3291831e-38
-0.11588831 0.044688959 0.86400002 2.0247235e-38
-0.032569919 0.044688959 0.86400002 2.346869e-38
-0.029121241 0.046009596 0.86442858 2.3469399e-38
-0.02584238 0.04636427 0.86700004 2.346974e-38
-0.023562169 0.04636427 0.86699998 2.3469737e-38
-0.12135784 0.050417975 0.86699998 2.2360157e-38
-0.11891808 0.049233597 0.86400002 2.1348166e-38
-0.028025279 0.049233597 0.86400002 2.3469036e-38
-0.025774658 0.050033774 0.86475003 2.3467561e-38
-0.022422064 0.050544653 0.86699998 2.3467223e-38
-0.12541154 0.055485107 0.86699998 2.1804833e-38
-0.12223188 0.053902723 0.866 2.2449475e-38
-0.021564122 0.053640354 0.86528575 2.3466508e-38
-0.12617162 0.05776532 0.86699998 2.1619377e-38
-0.12272526 0.058099855 0.86520004 2.1805554e-38
-0.020955842 0.057312958 0.86400002 2.3467208e-38
-0.019001748 0.058525383 0.86699998 2.346615e-38
-0.12617162 0.061565667 0.86700004 2.1067641e-38
-0.12311398 0.061783433 0.86580002 2.1160551e-38
-0.018367393 0.061783433 0.86580002 2.3465795e-38
-0.12845182 0.066886157 0.86699998 2.0332235e-38
-0.12617162 0.066126093 0.86700004 2.0790695e-38
-0.12346272 0.065897278 0.86400002 2.0883613e-38
-0.018208805 0.066011682 0.86549997 2.3465061e-38
-0.015961468 0.066886157 0.86699998 2.3465068e-38
-0.12845182 0.069926433 0.86699998 2.0791772e-38
-0.12575923 0.070235722 0.86520004 2.0698142e-38
-0.12346271 0.069684476 0.86400002 2.0697086e-38
-0.01818864 0.070481807 0.86449999 2.3463982e-38
-0.015454756 0.07017979 0.86699998 2.3461828e-38
-0.12845182 0.073726788 0.86699998 2.0976522e-38
-0.12615006 0.073927723 0.86580002 2.0974725e-38
-0.01792608 0.073976636 0.86400002 2.3277437e-38
-0.014618196 0.073851705 0.86625004 2.3185599e-38
-0.01140105 0.074486859 0.86699998 2.2910804e-38
-0.12845182 0.076767065 0.86699998 2.0332968e-38
-0.12595464 0.078151762 0.86549997 2.0147132e-38
-0.013893852 0.077555627 0.86449999 2.2355488e-38
-0.010640981 0.078287199 0.86700004 2.1801962e-38
-0.12895855 0.082340911 0.86699998 1.9779787e-38
-0.12573504 0.081803516 0.86400002 2.0147851e-38
-0.01287648 0.081803516 0.86400002 2.1527532e-38
-0.010621255 0.081945539 0.86550003 2.1433914e-38
-0.12913783 0.085837498 0.86650008 1.8860359e-38
-0.12649249 0.08559072 0.86400002 1.9136584e-38
-0.01287648 0.08559072 0.86400002 2.0700323e-38
-0.010785103 0.085525505 0.86639994 2.2823025e-38
-0.12906376 0.090344876 0.86600006 1.821645e-38
-0.12649249 0.09165024 0.86400002 1.8676332e-38
-0.013509258 0.090626113 0.86580002 2.3280352e-38
-0.01140105 0.09044832 0.86699998 2.3282503e-38
-0.1292119 0.094248675 0.86699998 1.8217867e-38
-0.12649249 0.093922555 0.86400002 1.8400821e-38
-0.014106268 0.0942045 0.86519998 2.235477e-38
-0.01140105 0.093488604 0.86699998 2.2817175e-38
-0.1292119 0.09804903 0.86700004 1.7940925e-38
-0.12649249 0.09770976 0.86400002 1.7847662e-38
-0.013656275 0.097879402 0.86549997 1.996131e-38
-0.12845182 0.10184938 0.86699998 1.6281788e-38
-0.12584484 0.10234316 0.86475003 1.840011e-38
-0.013633921 0.10225441 0.86400002 1.8125672e-38
-0.01140105 0.10184938 0.86699998 1.8858204e-38
-0.12845182 0.10564972 0.86699998 1.840083e-38
-0.12615006 0.10580647 0.86580002 1.7663636e-38
-0.12346271 0.10679904 0.86400002 1.7203013e-38
-0.014088384 0.10619309 0.86400002 1.7663625e-38
-0.01140105 0.10564972 0.86699998 1.7753667e-38
-0.12617162 0.11021014 0.86700004 1.655837e-38
-0.12277674 0.10989325 0.86449999 1.6741683e-38
-0.01792608 0.11083873 0.86400002 1.8214279e-38
-0.014411815 0.10999887 0.86533332 1.7662917e-38
-0.01140105 0.11021014 0.86699998 1.6559088e-38
-0.12541154 0.1140105 0.86699998 1.554531e-38
-0.12207033 0.11448616 0.86485708 1.6004849e-38
-0.11891808 0.11588831 0.86400002 1.5914087e-38
-0.018330049 0.11407047 0.86400002 1.7567843e-38
-0.014723266 0.11370069 0.86580002 1.7385972e-38
-0.12541154 0.1162907 0.86699998 1.5177968e-38
-0.12237127 0.11806421 0.86700004 1.5361998e-38
-0.11891808 0.11816064 0.86400002 1.5546745e-38
-0.018063365 0.11795076 0.86580002 1.7108307e-38
-0.015961468 0.11781085 0.86699998 1.720086e-38
-0.12085112 0.12085112 0.86699998 1.5179403e-38
-0.11825585 0.12189891 0.86580002 1.5086856e-38
-0.11538335 0.12295776 0.86400002 1.508685e-38
-0.020450881 0.12346271 0.86400002 1.6464383e-38
-0.018495036 0.12135784 0.86699998 1.6739889e-38
-0.1162907 0.12541154 0.86699998 1.4810267e-38
-0.11400086 0.12613392 0.86500001 1.4625161e-38
-0.11134367 0.12649249 0.86400002 1.4624085e-38
-0.024995521 0.12649249 0.86400002 1.6832083e-38
-0.021722747 0.12623684 0.86640006 1.6373623e-38
-0.1140105 0.12845182 0.86699998 1.4441132e-38
-0.11010195 0.12984425 0.86614293 1.4348579e-38
-0.10679904 0.13027968 0.86400002 1.425782e-38
-0.029161438 0.13065839 0.86400002 1.6278918e-38
-0.025797231 0.12974887 0.86549997 1.6372547e-38
-0.022346057 0.1290599 0.86700004 1.5821893e-38
-0.10595375 0.13392434 0.86700004 1.3613536e-38
-0.10225441 0.13356192 0.86400002 1.3797566e-38
-0.099224642 0.13558176 0.86400002 1.3706089e-38
-0.03332736 0.13406688 0.86400002 1.5637146e-38
-0.029624758 0.1336956 0.86650008 1.5912293e-38
-0.026602449 0.13377231 0.86699998 1.6094171e-38
-0.10146934 0.13719262 0.86699998 1.3429148e-38
-0.098088473 0.1382328 0.86400002 1.3153641e-38
-0.040144317 0.13861151 0.86400002 1.526801e-38
-0.037872002 0.13785407 0.86400002 1.526801e-38
-0.034142222 0.13809384 0.86549997 1.5269086e-38
-0.029859893 0.13713834 0.8670001 1.5359847e-38
-0.097500667 0.14074971 0.86550003 1.2784864e-38
-0.094270237 0.14224145 0.86580002 1.2600476e-38
-0.090188406 0.14248157 0.86449999 1.2967818e-38
-0.08559072 0.14315616 0.86400002 1.3151489e-38
-0.049233597 0.14315616 0.86400002 1.4807756e-38
-0.046582561 0.14277743 0.86400002 1.4715203e-38
-0.041541506 0.1420785 0.86550003 1.4715921e-38
-0.038155511 0.14182906 0.86700004 1.4531891e-38
-0.03496322 0.14061294 0.86699998 1.4715203e-38
-0.089688256 0.14517337 0.86699998 1.2690159e-38
-0.085284978 0.14517665 0.86475003 1.2690876e-38
-0.081945539 0.14568226 0.86550003 1.2414294e-38
-0.077706635 0.14593409 0.86475003 1.2505412e-38
-0.074229121 0.14542848 0.86400002 1.2044799e-38
-0.070441924 0.14542848 0.86400002 1.3330145e-38
-0.065897286 0.14593345 0.86400002 1.4347514e-38
-0.062362563 0.14719585 0.86400002 1.2602269e-38
-0.058019903 0.14709485 0.86400002 1.2232416e-38
-0.053561825 0.14661875 0.86400002 1.2044082e-38
-0.049991038 0.14618592 0.86400002 1.2596888e-38
-0.046311669 0.14576599 0.86600006 1.342556e-38
-0.041803848 0.14593345 0.86700004 1.3518476e-38
-0.038763568 0.14517337 0.86699998 1.3428071e-38
-0.07767915 0.14912573 0.86700004 1.1771086e-38
-0.073943958 0.14929946 0.8670001 1.2505059e-38
-0.069673076 0.14872035 0.86699998 1.6099602e-38
-0.066430114 0.14912573 0.86700004 1.5087956e-38
-0.061261635 0.15034185 0.86700004 1.4993239e-38
-0.05776532 0.15049385 0.86699998 1.3151492e-38
-0.053964969 0.15049386 0.86700004 1.3338753e-38
-0.050164618 0.15049385 0.86699998 1.2694822e-38
-0.046581432 0.14929946 0.8670001 1.13998e-38
-0.043323986 0.14821364 0.86699998 1.1582039e-38
-0.08552058 0.023670875 0.87099999 2.3487054e-38
-0.081702702 0.023670875 0.87099999 2.3491031e-38
-0.077884816 0.023670875 0.87099999 2.3493563e-38
-0.0737615 0.023060014 0.87099999 2.3494652e-38
-0.070249051 0.022907298 0.87099999 2.3497883e-38
-0.066431165 0.022907298 0.87099999 2.3498235e-38
-0.06184971 0.023060014 0.87099999 2.3497868e-38
-0.05828635 0.023161825 0.87099999 2.349175e-38
-0.054977518 0.023670875 0.87099999 2.3293981e-38
-0.093485102 0.026328053 0.87049997 2.3485259e-38
-0.089998595 0.025930922 0.87 2.3486344e-38
-0.086119644 0.025911637 0.86933339 2.3489579e-38
-0.082276918 0.025901992 0.86900002 2.3492466e-38
-0.078467809 0.025901992 0.86900008 2.3495725e-38
-0.073515944 0.025521079 0.86900002 2.3498244e-38
-0.070087746 0.025901992 0.86900002 2.3504377e-38
-0.066278629 0.025901992 0.86900008 2.3502576e-38
-0.061707687 0.025901992 0.86900008 2.349755e-38
-0.057898574 0.025901992 0.86900002 2.3487419e-38
-0.054130368 0.025921278 0.8696667 2.3294343e-38
-0.049891621 0.025784343 0.87019998 2.3491742e-38
-0.046523821 0.026312711 0.87 2.3494639e-38
-0.043523867 0.026725182 0.87099999 2.3491758e-38
