# .PCD v0.7 - Point Cloud Data file format
VERSION 0.7
FIELDS x y z rgb
SIZE 4 4 4 4
TYPE F F F F
COUNT 1 1 1 1
WIDTH 749
HEIGHT 1
VIEWPOINT 0 0 0 1 0 0 0
POINTS 749
DATA ascii
0.045919798 0.11905134 0.97000003 1.952097e-39
0.050171636 0.11905134 0.97000015 8.9452546e-39
0.045919798 0.1224528 0.97000003 9.4741789e-42
0.050171636 0.1224528 0.97000015 4.8868308e-39
0.054423466 0.1224528 0.97000003 1.3455195e-38
0.058108389 0.12273626 0.97000003 2.8426881e-40
0.061736625 0.12262287 0.97000009 1.9506579e-39
0.0663286 0.12330317 0.97000003 1.9244172e-40
0.051872365 0.1250039 0.97000003 1.2351738e-38
0.053573098 0.1250039 0.97000003 1.3457727e-38
0.057824932 0.1250039 0.97000003 8.1415441e-43
0.06207677 0.12585428 0.97000015 3.7204474e-42
0.0663286 0.12585427 0.97000003 3.347702e-42
0.069730058 0.12585427 0.97000003 3.7815286e-39
0.069730058 0.12925573 0.97000003 3.782972e-39
0.019659251 0.11197225 0.97500002 2.0384968e-38
0.022223499 0.11197225 0.97500002 2.1302964e-38
0.02478775 0.11197225 0.97500002 2.1577753e-38
0.019659251 0.11453649 0.97500002 1.024606e-38
0.022223501 0.11453649 0.97500002 1.2546621e-38
0.02478775 0.11453649 0.97500002 1.5309945e-38
0.04952465 0.11441815 0.97399998 1.4306964e-38
0.05419115 0.11470745 0.97500002 2.0196992e-38
0.058123 0.11539125 0.97500002 1.7252158e-38
0.013675999 0.11795549 0.97500002 1.2062209e-39
0.017949749 0.11795551 0.97500002 1.3920555e-39
0.022223499 0.11795549 0.97500002 1.4853427e-39
0.025642499 0.11795549 0.97500002 1.3963939e-39
0.029916249 0.11795549 0.97500002 3.1484696e-39
0.038463749 0.1179555 0.97500002 8.4864527e-39
0.041455373 0.11838287 0.97500002 5.6330741e-39
0.047011249 0.11710075 0.97500002 1.9736379e-38
0.0494738 0.11686053 0.97299999 2.0934187e-38
0.054146267 0.11768706 0.97419995 2.0194471e-38
0.058123 0.11795549 0.97500002 1.3013695e-38
0.061257079 0.11824042 0.97500008 1.5502978e-38
0.065815747 0.11881026 0.97500008 8.4860617e-39
0.0188045 0.12051975 0.97500002 4.7966446e-42
0.022508416 0.12108958 0.97500008 7.3049689e-42
0.025357585 0.12108958 0.97500008 8.0294402e-42
0.030129936 0.12201556 0.97499996 2.820996e-40
0.034189999 0.12222926 0.97500002 2.799472e-40
0.037608996 0.12222925 0.97500002 1.758673e-39
0.041833851 0.12208957 0.97388893 1.2069426e-39
0.054591782 0.12027252 0.97299999 1.6315095e-38
0.057719439 0.12084119 0.97299999 6.0889389e-39
0.062268756 0.12084119 0.97299999 7.387319e-39
0.066102944 0.12110325 0.97419995 2.5049009e-39
0.070017606 0.12295687 0.97400004 3.4156496e-39
0.072653748 0.12393875 0.97500002 8.944774e-39
0.03447492 0.12621808 0.97500008 5.5328028e-40
0.037609 0.12650299 0.97500002 3.5053201e-39
0.041867845 0.12646005 0.9746666 1.8699207e-40
0.046061821 0.1262435 0.97299999 6.4459729e-44
0.0494738 0.1262435 0.97299999 1.291553e-39
0.054165285 0.12667 0.97299999 7.6508766e-39
0.058003772 0.1270965 0.97299999 2.2560905e-42
0.072579235 0.12637237 0.97399998 8.4830741e-39
0.038463749 0.12906726 0.97500002 1.1057422e-39
0.042224649 0.12975106 0.97500002 3.7031974e-40
0.046132393 0.12985581 0.97450006 2.9539372e-42
0.049498789 0.12972255 0.97350001 3.6893652e-39
0.053738788 0.12965548 0.97299999 6.916187e-39
0.058003772 0.12965548 0.97299999 1.5442309e-42
0.062268756 0.12965548 0.97299999 3.7285469e-40
0.066533729 0.12965548 0.97299999 1.9025289e-40
0.072504714 0.12965548 0.97299999 8.2047048e-39
0.0461565 0.13248624 0.97500002 7.7631935e-43
0.049860418 0.13305607 0.97500008 7.1016811e-39
0.053608384 0.13391411 0.9745 5.5314393e-39
0.058123 0.13334098 0.97500002 1.8557816e-40
0.061541997 0.13334098 0.97500002 4.8889944e-39
0.066243127 0.1329136 0.97500002 1.2941019e-39
0.069945723 0.13306749 0.97299999 5.3488403e-39
0.018862359 0.11060201 0.97799999 1.192247e-38
0.02229188 0.11060201 0.97799999 1.163943e-38
0.025721397 0.11060201 0.97799999 1.2370886e-38
0.029150918 0.11060201 0.97799999 1.650994e-38
0.00257214 0.1157463 0.97799999 1.7051e-41
0.0060016601 0.1157463 0.97800004 2.2800527e-41
0.010288559 0.11488892 0.97799999 5.1800035e-39
0.01371808 0.11403155 0.97800004 1.0337894e-38
0.017147599 0.11403155 0.97800004 1.227363e-38
0.02657878 0.11403154 0.97800004 1.6877979e-38
0.030008299 0.11403154 0.97799999 1.6052185e-38
0.034009404 0.11517471 0.97800004 6.6533203e-39
0.038010515 0.11517471 0.97800004 4.4460692e-39
0.041582927 0.11531761 0.97799999 1.7805323e-38
0.046469998 0.1143745 0.97799999 1.5780637e-38
0.049728036 0.11231677 0.97799999 1.3109157e-38
0.053586245 0.11274546 0.97799999 1.7615912e-38
0.058301836 0.11317416 0.97799999 1.3838782e-38
0.061559882 0.11437448 0.97799999 1.4028947e-38
0.065160871 0.1157463 0.97799999 9.8707954e-39
0.0020005533 0.11860423 0.97800004 3.7148422e-42
0.0060016601 0.11831843 0.97800004 1.0094814e-40
0.010288559 0.11831843 0.97799999 6.5376459e-40
0.034295198 0.11831843 0.97799999 1.1187294e-39
0.036867339 0.11831843 0.97799999 3.7034413e-39
0.042868998 0.11746105 0.97799999 1.2364786e-38
0.045441139 0.11746105 0.97799999 1.4942638e-38
0.062588736 0.11746105 0.97799999 2.0192687e-38
0.066018254 0.11746105 0.97800004 9.1253229e-39
0.070305154 0.11917581 0.97799999 1.3031053e-39
0.0020005533 0.12146217 0.97800004 2.624632e-42
0.0060016601 0.12174796 0.97800004 1.8630123e-40
0.010288559 0.12174796 0.97799999 9.4465733e-41
0.01371808 0.12174796 0.97799999 4.0693707e-42
0.017576288 0.12217665 0.97799999 4.0679694e-42
0.021434499 0.12260534 0.97799999 3.3420968e-42
0.026578778 0.12260534 0.97799999 4.7868356e-42
0.070305154 0.12089057 0.97799999 1.8544546e-39
0.073734671 0.12260534 0.97799999 8.3908561e-39
0.0068590399 0.12432009 0.97799999 2.2602944e-42
0.010288559 0.12432009 0.97799999 2.2616957e-42
0.014003873 0.12489168 0.97800004 3.3350903e-42
0.018004978 0.12603487 0.97799999 2.2532879e-42
0.02229188 0.12603486 0.97800004 2.972154e-42
0.025721399 0.12603486 0.97800004 2.2504853e-42
0.029763333 0.12652479 0.97800004 9.3739861e-41
0.033437818 0.12774962 0.97799999 1.5344218e-42
0.018347932 0.13015029 0.97799999 1.1826959e-42
0.02229188 0.13032176 0.97799999 2.2574918e-42
0.025721397 0.13032176 0.97799999 2.9791605e-42
0.030008297 0.13032177 0.97800004 2.2574918e-42
0.034295198 0.13032176 0.97799999 2.7812411e-40
0.037438925 0.13060755 0.97800004 8.2950984e-40
0.040296856 0.13117914 0.97799999 4.593036e-40
0.035152577 0.13289389 0.97799999 3.412002e-39
0.037724718 0.13375127 0.97799999 4.70168e-39
0.042354573 0.13357981 0.97799999 9.2297925e-41
0.046298519 0.13460866 0.97799999 7.7071416e-44
0.048870657 0.13460866 0.97799999 9.6689594e-44
0.065160871 0.13460866 0.97799999 1.3887989e-39
0.046298519 0.13632341 0.97799999 1.8847464e-42
0.049728036 0.13718079 0.97799999 6.0843006e-39
0.054014944 0.13832396 0.97800004 4.1477874e-39
0.058301836 0.13718079 0.97799999 1.9043646e-42
0.061445564 0.136895 0.97800004 1.5470335e-42
0.066018254 0.13632342 0.97800004 9.3376924e-41
0.070305154 0.13632341 0.97799999 5.5321456e-39
-0.0051758401 0.10783 0.98400003 1.1271012e-38
-0.00172528 0.10783 0.98400003 1.0169345e-38
0.00172528 0.10783 0.98400003 1.5316079e-38
0.0068952022 0.10688516 0.98325002 1.366017e-38
0.010344448 0.10688516 0.98325002 1.3015528e-38
0.01380224 0.10696736 0.98400003 1.3472912e-38
0.018087825 0.10680299 0.98250008 1.301194e-38
0.022428639 0.10696736 0.98400003 1.0069976e-38
0.025591653 0.10725491 0.98400009 9.606135e-39
0.03043887 0.10659765 0.98400009 9.9731168e-39
0.03407428 0.10653603 0.98400003 8.5901782e-39
0.03795616 0.10696736 0.98400003 1.7376101e-43
0.041924305 0.10713989 0.98400003 1.0428341e-38
0.046582557 0.10783 0.98400003 9.6050588e-39
0.050033119 0.10783 0.98400003 9.9677176e-39
0.05262104 0.10783 0.98400003 1.0978623e-38
0.058659516 0.10783 0.98400003 9.2286504e-39
0.062110074 0.10696735 0.98400003 1.0893267e-38
0.065560639 0.10610472 0.98400009 9.2308701e-39
0.06918373 0.10679483 0.98400003 2.4080235e-39
-0.010064134 0.11070547 0.98400009 1.4670358e-38
-0.0060384795 0.11041792 0.98400009 1.9459797e-38
-0.00172528 0.11041792 0.98400003 1.9648131e-38
0.00172528 0.11041792 0.98400003 2.0016549e-38
0.0060305903 0.11030571 0.98300004 1.9096042e-38
0.01032012 0.11008129 0.98100001 1.9276126e-38
0.01376016 0.11008129 0.98100001 1.7986483e-38
0.017630205 0.10965127 0.98100001 1.4214053e-38
0.022360258 0.10922126 0.98100001 1.3664116e-38
0.025800299 0.10922126 0.98100001 1.3382152e-38
0.030530356 0.10965127 0.98100001 1.3381435e-38
0.034427352 0.11016478 0.98175001 6.1084548e-39
0.037898302 0.11024828 0.98250002 1.2409899e-41
0.04226936 0.11041792 0.98400009 1.1448938e-38
0.046440542 0.11008128 0.98100001 1.5036626e-38
0.049880575 0.11008128 0.98100001 1.0617751e-38
0.053869762 0.11032008 0.98159999 1.9085636e-38
0.058070403 0.11010969 0.98280001 1.1533533e-38
0.061967399 0.11016478 0.98175001 1.0526642e-38
0.066220775 0.11008129 0.98100007 6.2802442e-39
0.070520818 0.11008129 0.98100001 1.9748359e-40
0.074073955 0.11024828 0.98250002 6.4555606e-39
-0.021500248 0.11352132 0.98100001 6.4828691e-40
-0.018076867 0.11363705 0.98200005 2.0384801e-39
-0.01380224 0.11386848 0.98400003 4.0671609e-39
-0.0103359 0.11369358 0.98250002 4.3441191e-39
-0.0060270834 0.11363617 0.98200005 5.5441071e-39
-0.00172002 0.11352132 0.98100001 7.9375963e-39
0.00172002 0.11352132 0.98100001 7.7600448e-39
0.0060200705 0.11352132 0.98100007 8.3146521e-39
0.01032012 0.11266131 0.98100001 1.4301225e-38
0.034687068 0.11323465 0.98100007 5.0978692e-39
0.037553772 0.11323465 0.98100007 2.4626419e-41
0.042484488 0.11334932 0.98100007 1.3477931e-38
0.045580529 0.11266131 0.98100001 1.2738228e-38
0.062780723 0.11266131 0.98100001 1.1630103e-38
0.066220775 0.11352132 0.98100007 4.1626356e-39
0.070520818 0.11352132 0.98100001 6.59168e-40
0.073960856 0.11352132 0.98100001 7.4689979e-39
-0.021544084 0.11806333 0.98300004 7.6510896e-43
-0.01810872 0.11814222 0.98366672 1.8809209e-40
-0.01378909 0.11806244 0.98300004 4.7798291e-42
-0.01032012 0.11782136 0.98100007 4.4267018e-42
-0.0060200705 0.11782135 0.98100007 5.1539758e-42
-0.0017200201 0.11782136 0.98100007 7.676313e-42
0.00086000998 0.11696135 0.98100001 1.0567192e-41
0.067940786 0.11610134 0.98100001 1.387015e-39
0.070520818 0.11696135 0.98100001 1.4867693e-39
0.073960863 0.11782136 0.98100007 7.6533653e-39
-0.021566 0.12249488 0.98400003 1.8665296e-42
-0.01811544 0.12249489 0.98400009 1.901562e-42
-0.01380224 0.12249488 0.98400003 2.2602944e-42
-0.0103359 0.12230946 0.98250002 1.9099698e-42
-0.0060200705 0.12212142 0.98100007 2.2673009e-42
-0.00172002 0.12212142 0.98100001 1.5484348e-42
0.00086000998 0.12298143 0.98100001 2.986167e-42
0.073960856 0.1212614 0.98100001 7.5604298e-39
-0.01035168 0.12508281 0.98400003 1.5414283e-42
-0.0060340967 0.12581745 0.98300004 2.6134216e-42
-0.00172002 0.12556145 0.98100001 2.6092177e-42
0.00172002 0.12556145 0.98100001 2.6204281e-42
0.0055900649 0.12599146 0.98100001 1.5372244e-42
0.01032012 0.12642147 0.98100001 1.540027e-42
0.012900149 0.12642147 0.98100001 1.8987594e-42
-0.0048839101 0.12897782 0.98300004 1.8772495e-40
-0.0017226499 0.12920007 0.98250002 2.7920872e-40
0.00172528 0.12939599 0.98400003 2.6190268e-42
0.0060292752 0.12920009 0.98250002 8.239635e-43
0.0103359 0.12920006 0.98250002 1.1714855e-42
0.013774186 0.12999563 0.98200005 2.2546892e-42
0.016340189 0.13158153 0.98100001 1.5484348e-42
0.01466488 0.13370919 0.98400003 5.5401456e-40
0.018425254 0.13415368 0.98220009 2.2658996e-42
0.02236026 0.13416156 0.98100001 2.9749566e-42
0.025800299 0.13416156 0.98100001 1.8630123e-40
0.030100351 0.13416156 0.98100007 2.9679501e-42
0.034113728 0.13444823 0.98100007 1.4773637e-39
0.040420465 0.13502157 0.98100001 7.3728758e-40
0.022428639 0.13715976 0.98400003 1.8987594e-42
0.025879201 0.13715976 0.98400003 1.5484348e-42
0.030192401 0.13715976 0.98400009 1.1574725e-42
0.035368241 0.13715976 0.98400003 3.3205042e-39
0.037840441 0.13674159 0.98100001 3.9655261e-39
0.042537093 0.13759898 0.98220009 7.383848e-40
0.046440542 0.1384616 0.98100001 4.6177409e-40
0.062780723 0.1384616 0.98100001 5.5398933e-40
0.066220775 0.13846162 0.98100007 3.6996942e-40
0.069660805 0.1384616 0.98100001 3.5052542e-39
0.046582557 0.14061031 0.98400003 1.8791412e-42
0.049956847 0.14125861 0.98250002 5.8080682e-39
0.054610632 0.14147164 0.98100001 2.950326e-39
0.058570098 0.14125861 0.98250002 4.6943499e-43
0.061760288 0.14104252 0.98300004 2.7742487e-40
0.065560639 0.14061031 0.98400003 3.6996802e-40
0.069011196 0.14061031 0.98400003 6.179317e-39
0.050033119 0.14406088 0.98400003 7.1827196e-39
0.05348368 0.14406088 0.98400003 5.5296064e-39
0.057796877 0.14406088 0.98400009 1.9362091e-39
0.01817067 0.099506043 0.98699999 1.0524849e-38
0.032880258 0.099506043 0.98699999 9.8812827e-39
0.0069221593 0.10296712 0.98699999 9.7894458e-39
0.010383239 0.10296712 0.98699999 9.6968943e-39
0.01384432 0.10296712 0.98699999 9.7887256e-39
0.01817067 0.10210185 0.98699999 1.0341176e-38
0.022497017 0.10296712 0.98699999 1.0433372e-38
0.025092829 0.10296712 0.98699999 1.0709237e-38
0.033399422 0.10227491 0.98699999 1.0065308e-38
0.038071878 0.10210185 0.98699999 1.0801427e-38
0.041244533 0.10239027 0.98699999 1.2181834e-38
0.063164711 0.10296712 0.98699999 1.0893626e-38
0.065760523 0.10296712 0.98699999 9.6932845e-39
0.068356328 0.10296712 0.98699999 4.9898571e-39
-0.0095179696 0.10642821 0.98699999 1.4394854e-38
-0.0060568894 0.10642821 0.98699999 1.2556709e-38
-0.0017305398 0.10556294 0.98699999 1.2368733e-38
0.0017305398 0.10556294 0.98699999 1.1630103e-38
0.0056242542 0.1051303 0.98699999 1.0526284e-38
0.010383239 0.10469767 0.98699999 9.7894472e-39
0.01384432 0.10469767 0.98699999 9.6043399e-39
0.01817067 0.10469767 0.98699999 9.6958167e-39
0.022497017 0.10469767 0.98699999 1.0064595e-38
0.026246523 0.10527452 0.98699999 1.034046e-38
0.029419178 0.10469767 0.98699999 1.0248982e-38
0.035476066 0.10556294 0.98699999 7.1132587e-39
0.038071878 0.10469767 0.98699999 1.3559346e-38
0.041532956 0.10469767 0.98699999 1.4482013e-38
0.045859307 0.10642821 0.98699999 1.2273661e-38
0.050185658 0.10642821 0.98699999 5.0896407e-39
0.05364674 0.10642821 0.98699999 1.6874034e-38
0.05840572 0.10599557 0.98699999 1.3098705e-38
0.062299438 0.10469767 0.98699999 1.0799276e-38
0.070663713 0.10585137 0.98699999 8.4000136e-40
-0.022497017 0.11161982 0.98699999 1.4859677e-39
-0.019901209 0.11161982 0.98699999 2.4965828e-39
-0.013555897 0.11104298 0.98699999 1.2917559e-38
-0.010671663 0.10873559 0.98699999 1.7893568e-38
-0.0077874293 0.10815874 0.98699999 1.3844556e-38
0.0043263496 0.10815874 0.98699999 1.6146903e-38
0.054512009 0.10815874 0.98699999 2.3050708e-38
0.056242548 0.10815874 0.98699999 2.3509886e-38
0.073547944 0.10815874 0.98699999 5.3449055e-39
-0.023362288 0.11335036 0.98699999 4.8907222e-39
-0.021631747 0.12546416 0.98699999 6.1671145e-42
-0.019901209 0.12546416 0.98699999 1.0789998e-43
-0.013555897 0.126041 0.98699999 8.2956869e-43
-0.010383239 0.12719469 0.98699999 1.5372244e-42
-0.0095179696 0.12892523 0.98699999 3.6840137e-42
-0.0069221593 0.1297905 0.98699999 9.6243981e-41
-0.0043263496 0.13238631 0.98699999 3.3350903e-42
-0.0017305398 0.13238631 0.98699999 9.4465733e-41
0.0025958098 0.13238631 0.98699999 2.9889696e-42
0.0060568894 0.13238631 0.98699999 3.3378929e-42
0.010671663 0.13296317 0.98699999 2.6204281e-42
0.01297905 0.13411684 0.98699999 9.5181797e-41
0.016440129 0.13584739 0.98699999 1.192505e-42
0.019901209 0.13757792 0.98699999 2.9637463e-42
0.023362288 0.13930847 0.98699999 3.333689e-42
0.025958098 0.13930847 0.98699999 1.5484348e-42
0.028553909 0.13930847 0.98699999 1.8987594e-42
0.033745527 0.13757792 0.98699999 2.9371216e-42
0.038071878 0.13930847 0.98699999 6.465493e-40
0.040667687 0.13930847 0.98699999 5.5291874e-40
0.025958098 0.141039 0.98699999 1.5484348e-42
0.045859307 0.14219269 0.98699999 1.8556415e-40
0.063164711 0.14276955 0.98699999 8.2989379e-40
0.065760523 0.14276955 0.98699999 2.7849406e-40
0.069221601 0.14276955 0.98699999 5.3513514e-39
0.047589846 0.14450008 0.98699999 8.5479206e-44
0.051050927 0.14623062 0.98699999 1.1056721e-38
0.05364674 0.14623062 0.98699999 5.06898e-39
0.057107817 0.14623062 0.98699999 7.3801626e-40
0.061434165 0.14450008 0.98699999 6.5452886e-39
-0.0008696533 0.09479221 0.99199998 1.1537192e-38
0.0017393066 0.09479221 0.99199998 1.107622e-38
0.0060875728 0.09479221 0.99199998 1.0525566e-38
0.010435839 0.093922555 0.99199998 1.0802149e-38
0.013914453 0.093922555 0.99199998 1.0525925e-38
0.017393064 0.093922555 0.99199998 1.0249342e-38
0.021741334 0.09479221 0.99199998 1.0341178e-38
0.025219945 0.09479221 0.99199998 1.0984385e-38
0.033916481 0.09479221 0.99199998 1.0156431e-38
-0.009566186 0.098270826 0.99199998 1.0249342e-38
-0.0060875728 0.098270826 0.99199998 1.0340459e-38
-0.00156485 0.097862475 0.99140006 1.0708878e-38
0.0017362381 0.098120473 0.99049997 1.0892908e-38
0.0060706241 0.09800607 0.98933327 1.0433731e-38
0.01040428 0.09797363 0.98900002 1.0709955e-38
0.013872373 0.09797363 0.98900002 1.0617402e-38
0.01820749 0.097106606 0.98900002 1.0433731e-38
0.0225654 0.098070949 0.99000001 1.0525565e-38
0.026050588 0.098120473 0.99049997 1.0432654e-38
0.029523063 0.098120473 0.99049997 1.052449e-38
0.034061633 0.097478189 0.98900002 1.0064594e-38
0.038187601 0.098070949 0.99000001 8.4979938e-39
0.041680679 0.098120481 0.99049997 9.4195871e-39
0.05420839 0.097691059 0.99199998 8.1144514e-39
0.057397112 0.097401172 0.99199998 2.1665642e-38
0.061745387 0.097401172 0.99200004 1.2822118e-38
0.065223999 0.098270826 0.99199998 1.0065312e-38
-0.025143676 0.10317577 0.98900002 9.8627674e-39
-0.022593232 0.10254084 0.99124998 6.3636593e-39
-0.01710318 0.10290897 0.99199998 9.3244908e-39
-0.013740522 0.1020973 0.99200004 1.1075853e-38
-0.010426196 0.101646 0.99100006 1.0801431e-38
-0.0060752998 0.10154255 0.99000001 1.0248983e-38
-0.0019090291 0.10184903 0.9896 1.0248625e-38
0.0017340466 0.10230875 0.98900002 1.0432296e-38
0.0056356513 0.10187525 0.98900002 1.0250776e-38
0.01040428 0.10144173 0.98900002 1.0526284e-38
0.013872373 0.10144173 0.98900002 1.061776e-38
0.022542607 0.10144173 0.98900002 1.0342254e-38
0.026299708 0.10201975 0.98900002 1.0249341e-38
0.029478792 0.10230876 0.98900002 1.034225e-38
0.035547953 0.10144173 0.98900002 9.3306243e-39
0.042484142 0.10144173 0.98900002 9.4206703e-39
0.045783415 0.10211226 0.99071437 1.0153541e-38
0.050552811 0.1019721 0.99080002 7.4634277e-40
0.053864151 0.10164513 0.99100006 8.4853681e-39
0.0579172 0.1017341 0.98974997 1.9272882e-38
0.061941028 0.10101494 0.99050009 1.0520164e-38
0.065993711 0.10072593 0.99049997 9.9698728e-39
0.070334092 0.1024626 0.99049997 3.2359891e-39
0.074268393 0.10244516 0.99200004 2.8660982e-39
-0.025143676 0.10577685 0.98900002 9.2177581e-39
-0.021695746 0.1058838 0.99000001 3.3295468e-39
-0.017393064 0.1060977 0.99199998 8.9578691e-39
-0.013883551 0.1058564 0.98975003 1.4572785e-38
-0.010693288 0.10548785 0.98900002 1.5862787e-38
-0.0060691629 0.10490982 0.98900002 1.3563671e-38
0.045952238 0.10490982 0.98900002 1.1442821e-38
0.050287351 0.10490982 0.98900002 1.3851835e-41
0.053755447 0.10490982 0.98900002 8.8731956e-39
0.057223536 0.10490982 0.98900002 1.963875e-38
0.071962938 0.10490982 0.98900002 4.8330784e-42
0.07456401 0.10577685 0.98900002 5.7198215e-39
-0.02203449 0.10913729 0.9896 2.866768e-39
-0.017719937 0.11015894 0.98942864 9.1372087e-39
-0.014161381 0.10895593 0.98900002 1.6045012e-38
0.075431027 0.10837791 0.98900002 9.8624913e-39
0.077165075 0.10837791 0.98900002 1.0048245e-38
-0.021675583 0.12745243 0.98900002 2.2177748e-39
-0.017860681 0.1267588 0.98900002 3.3491033e-42
-0.014739396 0.12745243 0.98900002 8.3237129e-43
-0.02087168 0.12957834 0.99199998 1.1150538e-39
-0.01710318 0.13015811 0.99199998 2.8171704e-40
-0.013883551 0.13015278 0.98975003 3.7248335e-40
-0.010693288 0.13034251 0.98900002 4.6359858e-40
-0.0078032096 0.13092051 0.98900002 7.3873372e-40
-0.013914453 0.1339266 0.99199998 9.4447516e-41
-0.010428607 0.133826 0.99125004 2.7847864e-40
-0.0064243884 0.13385805 0.99020004 2.2546892e-42
-0.0017340466 0.13438861 0.98900002 1.5484348e-42
0.0014450389 0.13381061 0.98900002 1.5428296e-42
0.0060691629 0.13438861 0.98900002 2.6218294e-42
0.0095372573 0.13438861 0.98900002 9.4109804e-41
-0.0052179196 0.13653557 0.99199998 1.5386257e-42
-0.0017393066 0.13740523 0.99199998 2.2546892e-42
0.0017393066 0.13740522 0.99199998 2.2546892e-42
0.0060783681 0.13719879 0.99050009 1.5456322e-42
0.01042006 0.13719878 0.99049997 1.1883011e-42
0.013882236 0.13709423 0.98975003 1.5498361e-42
0.01820749 0.13872373 0.98900002 1.8945555e-42
0.021675583 0.13959076 0.98900002 2.9735553e-42
0.030345816 0.13959076 0.98900002 8.16957e-43
0.033813909 0.13959077 0.98900002 2.5980074e-42
0.0017393066 0.14001417 0.99199998 2.2504853e-42
0.0060875732 0.14001417 0.99199998 2.2532879e-42
0.010435839 0.14001417 0.99199998 1.178492e-42
0.013914453 0.14001417 0.99199998 1.1840972e-42
0.017393064 0.14088383 0.99199998 1.5428296e-42
0.022047639 0.14219093 0.99020004 1.1897024e-42
0.0260107 0.14305884 0.98900002 1.5386257e-42
0.029478794 0.14219183 0.98900002 1.178492e-42
0.033865195 0.1424088 0.99049997 1.5386257e-42
0.037897713 0.14204746 0.99000001 8.2676609e-43
0.041680239 0.14240879 0.99049997 9.3022396e-41
0.04421819 0.14305884 0.98900002 2.986167e-42
0.023480639 0.1452321 0.99199998 4.6324405e-40
0.026089597 0.1452321 0.99199998 4.0413448e-42
0.029568212 0.1452321 0.99199998 2.610619e-42
0.033046823 0.1452321 0.99199998 1.016771e-39
0.042613011 0.1452321 0.99199998 3.3226776e-39
0.046020612 0.14588083 0.99050003 1.8662773e-40
0.049420331 0.14652695 0.98900002 3.4041253e-39
0.059824612 0.14652695 0.98900002 3.4120623e-39
0.062714688 0.14594893 0.98900002 3.9652473e-39
0.065944396 0.14577104 0.98975003 9.2386347e-40
0.069142118 0.14551908 0.99000001 4.6130886e-39
0.047830928 0.14871071 0.99199998 2.9679501e-42
0.050362304 0.14848584 0.99049997 7.0018905e-39
0.053836975 0.1493555 0.99049997 3.2235974e-39
0.057354376 0.14946793 0.99125004 2.9679501e-42
0.061745387 0.14958036 0.99200004 9.2167043e-40
0.066093653 0.14871071 0.99199998 4.6285028e-40
0.0069782659 0.091589741 0.995 1.0248983e-38
0.010467399 0.091589741 0.995 1.0341178e-38
0.013956534 0.091589741 0.995 1.0433372e-38
0.017445665 0.091589741 0.995 1.0433372e-38
-0.022679366 0.095078878 0.995 8.3898051e-39
-0.0095951157 0.095078878 0.995 1.0616325e-38
-0.0061059827 0.095078878 0.995 1.0524131e-38
-0.00261685 0.095078878 0.995 1.1076579e-38
0.0017445666 0.093334317 0.995 1.1076576e-38
0.0061059832 0.093334317 0.99500006 1.0341178e-38
0.021807082 0.093334317 0.99500006 1.0525207e-38
0.026168499 0.094206601 0.995 1.070852e-38
0.029657632 0.095078878 0.995 1.070852e-38
0.035763618 0.093334317 0.995 1.070852e-38
0.038089707 0.094497368 0.99500006 8.9575258e-39
0.040997315 0.095078878 0.995 1.0248621e-38
0.054081567 0.095078878 0.995 4.8885628e-39
0.057570696 0.095078878 0.995 1.890412e-38
0.061059825 0.095078878 0.995 1.6506639e-38
-0.022679366 0.097695723 0.995 7.837346e-39
-0.013956534 0.098568007 0.995 1.0431213e-38
-0.010758161 0.097404972 0.99500006 1.0706723e-38
-0.0061059832 0.096823446 0.99500006 1.0431937e-38
0.046231017 0.098568007 0.99500006 1.0430492e-38
0.050883196 0.097986482 0.99500006 2.4004607e-39
0.053209282 0.096823446 0.995 1.6395192e-43
0.066584289 0.097404972 0.99500006 1.0614162e-38
0.069782667 0.098568007 0.995 5.9089379e-39
0.074492991 0.097870186 0.995 2.4976758e-39
-0.02137094 0.101621 0.995 4.4326616e-39
-0.017736427 0.10089411 0.99500006 8.8638644e-39
-0.014828817 0.10031258 0.995 1.0245005e-38
0.047103301 0.10031258 0.995 1.0059555e-38
0.049720149 0.10031258 0.995 4.8101448e-39
0.069782667 0.10031258 0.995 4.9902186e-39
0.07414408 0.10031258 0.99500006 2.2221847e-39
-0.020062516 0.13171478 0.995 5.5028991e-42
-0.018317949 0.13171478 0.995 5.8630328e-42
-0.016573383 0.13433163 0.995 3.6924215e-42
-0.01308425 0.13694848 0.995 2.610619e-42
-0.010467399 0.13694848 0.995 2.610619e-42
-0.0061059827 0.13782077 0.995 2.610619e-42
-0.0017445666 0.14043762 0.995 2.9637463e-42
0.0017445666 0.14218217 0.995 9.4441911e-41
0.0061059832 0.14218217 0.99500006 1.8931542e-42
0.010467399 0.14218217 0.995 1.5386257e-42
0.013956534 0.14218217 0.995 1.178492e-42
0.017445665 0.14305446 0.995 1.8987594e-42
0.020062516 0.14392674 0.995 1.5386257e-42
0.039252751 0.14392674 0.995 2.610619e-42
0.021807082 0.14567131 0.995 6.4763531e-40
0.026168499 0.14741588 0.995 3.6770072e-42
0.029657632 0.14741588 0.995 2.2406762e-42
0.034019049 0.14683436 0.99500006 1.2944186e-39
0.037508182 0.14567131 0.995 2.2149386e-39
0.042741884 0.14741588 0.995 3.3266587e-39
0.044486448 0.14741588 0.995 2.8420295e-40
0.030529916 0.14916044 0.995 4.2319214e-43
0.033146765 0.14916044 0.995 1.8525166e-42
0.045358732 0.14916044 0.995 3.710302e-40
0.051464718 0.150905 0.995 5.8040465e-39
0.065421246 0.150905 0.995 7.3691904e-40
0.05844298 0.15264958 0.995 3.3042618e-42
0.061932113 0.15264958 0.99500006 3.6920291e-40
0.050744973 0.08311677 0.99800003 9.4116754e-39
0.053369712 0.08311677 0.99800003 8.3053391e-39
0.050744973 0.084866591 0.99800003 8.4979924e-39
0.053952988 0.086033151 0.99800003 1.0062426e-38
0.0017498266 0.091865897 0.99800003 1.0432296e-38
0.005686936 0.090553537 0.99800003 1.0340819e-38
0.01049896 0.090116076 0.99800003 1.0524849e-38
0.013998613 0.090116076 0.99800003 1.0617043e-38
0.017498266 0.090116076 0.99800003 1.0524849e-38
0.021872833 0.09099099 0.99800009 1.0433372e-38
0.025955763 0.091282628 0.99800003 1.052449e-38
0.054419607 0.089766107 0.99800009 7.5781674e-39
0.05774428 0.09099099 0.99800003 1.8348085e-38
0.062118843 0.09099099 0.99800009 1.4112474e-38
0.066493407 0.091865897 0.99800003 1.070852e-38
-0.021872833 0.094199002 0.99800003 7.8395208e-39
-0.013998613 0.095365554 0.99800003 1.1626154e-38
-0.011373873 0.095365554 0.99800003 1.1257731e-38
-0.0055411174 0.094199002 0.99800003 1.0432296e-38
-0.0017498266 0.093615726 0.99800003 1.1352803e-38
0.027122313 0.093615726 0.99800003 1.052449e-38
0.029747054 0.093615726 0.99800003 1.034046e-38
0.033246703 0.093615726 0.99800003 9.973477e-39
0.039371099 0.093615726 0.99800003 9.3259412e-39
0.041995838 0.09449064 0.99800003 1.0891828e-38
0.045495495 0.095365554 0.99800003 1.1534679e-38
0.049870059 0.095365554 0.99800003 5.078464e-39
0.054244623 0.093615726 0.99800003 3.5964984e-39
0.05774428 0.093615726 0.99800003 1.9360428e-38
0.062556297 0.094053179 0.99800003 1.2455139e-38
0.066493407 0.09449064 0.99800003 1.0615964e-38
0.070867978 0.095365554 0.99800003 6.6439834e-39
0.072617806 0.095365554 0.99800003 3.7503932e-40
-0.020123007 0.097990289 0.99800003 2.0438541e-39
-0.017206628 0.098281935 0.99800003 7.6671233e-39
-0.013998613 0.097115375 0.99800003 1.0891112e-38
0.045495495 0.097115375 0.99800003 1.1075856e-38
0.048995145 0.097115375 0.99800003 8.6769788e-39
0.069993064 0.097115375 0.99800003 6.0022167e-39
0.072617806 0.097115375 0.99800003 8.0532623e-42
-0.020123007 0.10061503 0.99800003 9.3971636e-40
-0.016623352 0.13736139 0.99800003 3.3350903e-42
-0.013998613 0.13823631 0.99800003 2.6120203e-42
-0.01049896 0.13911122 0.99800003 2.610619e-42
-0.0069993064 0.13911122 0.99800003 2.610619e-42
-0.0052494798 0.14086105 0.99800003 1.1700842e-42
-0.0017498266 0.14261088 0.99800003 2.7882757e-40
0.0017498266 0.14436069 0.99800003 9.4785229e-41
0.0061243935 0.14436069 0.99800003 2.2392749e-42
0.01049896 0.14436069 0.99800003 2.9609437e-42
0.013998613 0.14436069 0.99800003 2.2462814e-42
0.017498266 0.1452356 0.99800003 9.5170587e-41
0.021872833 0.14727709 0.99800003 1.8735641e-40
0.035871446 0.14786035 0.99800003 1.5767438e-39
0.038787827 0.14727709 0.99800003 1.0206974e-39
0.041120928 0.14698544 0.99800003 3.231596e-39
0.02362266 0.14961018 0.99800003 4.2038954e-44
0.026247401 0.14961018 0.99800003 5.465064e-44
0.029747054 0.1504851 0.99800003 5.8854536e-44
0.034559075 0.15092255 0.99800003 1.855123e-40
0.037621275 0.1504851 0.99800003 5.5573115e-40
0.04228748 0.15019345 0.99800003 5.5468298e-40
0.045495495 0.15136001 0.99800003 9.3346096e-41
0.048995145 0.15136001 0.99800003 2.9492428e-39
0.067368321 0.15136001 0.99800003 3.0406958e-39
0.06911815 0.14961018 0.99800003 5.9038274e-39
0.051619884 0.15398476 0.99800003 0
0.054244623 0.15398476 0.99800003 2.1019477e-44
0.05774428 0.15398476 0.99800003 1.126644e-42
0.062118843 0.15485966 0.99800003 7.357924e-40
0.065618493 0.15310983 0.99800003 1.6595886e-39
0.022342199 0.082862347 1.0034001 1.0156426e-38
0.026326301 0.083366618 1.001 1.0801073e-38
0.029882498 0.083491534 1.0025001 1.1077297e-38
0.046649184 0.083616458 1.0039999 1.2269006e-38
0.04884991 0.082196563 1.0010002 8.8541562e-39
-0.016723292 0.087137155 1.0039999 2.9644371e-39
-0.014082773 0.087137155 1.0039999 1.098329e-38
-0.010562079 0.087137155 1.0039999 1.0799622e-38
-0.0061612129 0.086256981 1.0039999 1.0432652e-38
-0.0017603465 0.087137155 1.0039999 1.0340816e-38
0.0017603465 0.087137155 1.0039999 1.052449e-38
0.0058091432 0.086433016 1.0039999 1.0433013e-38
0.010562079 0.087137155 1.0039999 1.080179e-38
0.014376163 0.086550377 1.0039999 1.0617043e-38
0.017603464 0.086256981 1.0039999 1.0433012e-38
0.021948664 0.086041771 1.0015 1.0249701e-38
0.026326301 0.08599925 1.001 9.9738357e-39
0.029882498 0.086128116 1.0025001 9.7901647e-39
0.033446584 0.086256981 1.0039999 9.9727595e-39
0.038287535 0.086697072 1.0039999 8.2188607e-39
0.042248316 0.086256981 1.0039999 1.013349e-40
0.045700632 0.086126804 1.0024999 1.1446432e-38
0.049581196 0.08643803 1.001 1.1996366e-38
-0.021124158 0.090657845 1.0039999 8.9455054e-39
-0.017310074 0.090071067 1.0039999 3.7005252e-39
-0.01407291 0.089709952 1.00325 1.08929e-38
-0.0105463 0.089642227 1.0025001 1.052412e-38
-0.0061520077 0.089642242 1.0025001 9.9727581e-39
-0.0017577166 0.089642234 1.0025001 1.0340101e-38
0.0017550867 0.08950942 1.001 1.0708878e-38
0.0061428039 0.088631883 1.0010002 1.0249701e-38
0.01053052 0.088631876 1.001 1.080179e-38
0.014040693 0.088631876 1.001 1.0525566e-38
0.017550867 0.088631876 1.001 1.0433013e-38
0.021938583 0.088631883 1.0010002 1.0432654e-38
0.026618816 0.08921691 1.0010002 1.0616684e-38
0.029859485 0.089575827 1.00175 9.9734756e-39
0.033873171 0.089684926 1.001 1.0616684e-38
0.038199518 0.089601636 1.0039999 6.4696689e-39
0.042248316 0.089777663 1.0039999 1.4788603e-39
0.045632251 0.08950942 1.001 7.2025494e-39
0.050019972 0.08950942 1.001 7.6692785e-39
0.066693291 0.090386964 1.001 1.0708161e-38
0.070203468 0.090386964 1.001 7.4762678e-39
0.072836094 0.090386964 1.001 1.3909807e-39
-0.020768527 0.09272708 1.0010002 8.2101096e-39
-0.017550869 0.093897134 1.001 6.0028852e-39
-0.014040693 0.09301959 1.001 1.1444634e-38
-0.01053052 0.09301959 1.001 1.0799629e-38
-0.0065815756 0.092580818 1.001 1.0432296e-38
-0.0017550867 0.092142045 1.001 1.0431937e-38
0.029836472 0.092142045 1.001 1.0340101e-38
0.03422419 0.092142045 1.0010002 1.0525207e-38
0.038611908 0.092142045 1.001 6.0079775e-39
0.042414598 0.09272708 1.0010002 3.4239929e-39
0.045632251 0.09301959 1.001 4.7107899e-39
0.050019972 0.09301959 1.001 8.3354137e-40
0.053530145 0.092142045 1.001 2.4100918e-39
0.070027962 0.093546115 1.001 7.1996851e-39
0.073769525 0.093967482 1.00175 2.8283388e-40
-0.018428411 0.097407311 1.001 6.190491e-39
-0.021093912 0.13358514 1.0025001 2.2434788e-42
-0.018428411 0.13426413 1.001 2.9889696e-42
-0.020243986 0.13642685 1.0039999 2.986167e-42
-0.018017253 0.13842085 1.0024999 9.4813255e-41
-0.014918236 0.13952939 1.001 2.9735553e-42
-0.016723292 0.14258808 1.0039999 2.5938035e-42
-0.014063047 0.14237505 1.0025001 9.4788032e-41
-0.01053052 0.14216202 1.001 9.5145363e-41
-0.0065815756 0.1426008 1.001 1.8734239e-40
-0.016723292 0.14522858 1.0039999 4.621146e-40
-0.014063047 0.14501162 1.0025001 1.8732558e-40
-0.0105463 0.14589179 1.0025001 9.402012e-41
-0.0061498168 0.14581859 1.0020001 2.7806386e-40
-0.0017550867 0.1456722 1.001 2.7697925e-40
0.0017550867 0.14654973 1.001 5.6051939e-44
0.0061428039 0.14654973 1.0010002 9.2973351e-41
0.01053052 0.14654973 1.001 2.7880515e-40
0.014040693 0.14654973 1.001 9.5141159e-41
0.016673323 0.14654973 1.001 3.7173225e-40
-0.0044008661 0.14874928 1.0039999 7.0064923e-45
-0.0017603465 0.14874928 1.0039999 0
0.0017577165 0.14940722 1.0025001 4.6242849e-44
0.0061568297 0.14860113 1.003 4.7644148e-44
0.010562079 0.14874928 1.0039999 5.465064e-44
0.014082773 0.14874928 1.0039999 1.8661092e-40
0.017878447 0.14918791 1.003 1.855137e-40
0.02078869 0.14962479 1.0020001 2.7661912e-40
0.026326301 0.151815 1.001 4.2038954e-44
0.02895893 0.151815 1.001 7.7631935e-43
0.039489452 0.15093745 1.001 9.4048146e-41
0.041244537 0.151815 1.001 4.4841551e-44
0.022884503 0.15226997 1.0039999 2.8025969e-45
0.02992589 0.15403032 1.0039999 4.0497526e-43
0.033446584 0.15403032 1.0039999 5.6051939e-45
0.038199518 0.15473448 1.0039999 2.8025969e-45
0.042185199 0.15468037 1.0024999 1.4012985e-45
0.045700632 0.15468037 1.0025001 1.2611686e-44
0.049142428 0.15444762 1.001 1.1210388e-44
0.057040315 0.15532516 1.001 9.4025726e-41
0.066693291 0.15444762 1.001 2.491461e-39
0.069533683 0.15315014 1.0039999 7.3760329e-39
0.058003329 0.15731563 1.0025001 7.3686859e-40
0.061428033 0.15708025 1.001 1.6570032e-39
0.064060666 0.15708025 1.001 5.5571433e-40
-0.016773263 0.083866306 1.007 2.5048686e-39
-0.014124852 0.083866306 1.007 1.0615574e-38
-0.011476442 0.083866306 1.007 1.0613065e-38
-0.0065327445 0.083160065 1.007 1.0431577e-38
-0.0017656065 0.083866306 1.007 1.0432654e-38
0.0017656065 0.083866306 1.007 1.0431937e-38
0.0052968198 0.083866306 1.007 1.0340819e-38
0.015007655 0.083866306 1.007 1.0524847e-38
0.017656066 0.083866306 1.007 1.0617042e-38
0.020304475 0.082100704 1.007 1.0063873e-38
-0.017950334 0.086220466 1.007 4.4326307e-39
-0.014124852 0.085631922 1.007 1.0798891e-38
-0.01059364 0.085631922 1.007 1.0706711e-38
-0.0017656065 0.085631922 1.007 1.0801073e-38
0.0017656065 0.085631922 1.007 1.0799279e-38
0.0079452293 0.085631922 1.007 1.0433372e-38
0.01059364 0.085631922 1.007 1.0433372e-38
0.013242049 0.085631922 1.007 1.0433731e-38
0.037960541 0.085631922 1.007 1.043122e-38
-0.020304475 0.089163132 1.007 8.2083019e-39
-0.018538868 0.089163132 1.007 5.7190199e-39
-0.022070082 0.13506891 1.007 1.4937842e-42
-0.021187279 0.13771731 1.007 2.2350711e-42
-0.020304475 0.14036572 1.007 1.8628161e-40
-0.018538868 0.14301413 1.007 9.4439109e-41
-0.014124852 0.14742814 1.007 1.4727647e-42
-0.0061796233 0.14978229 1.007 9.208829e-40
-0.0017656065 0.15095936 1.007 1.5687522e-39
0.0061796228 0.15095936 1.007 2.6624671e-44
0.01059364 0.15095936 1.007 7.3708299e-43
0.014124852 0.15095936 1.007 2.2420775e-44
0.016773263 0.15095936 1.007 2.8025969e-44
-0.010625199 0.078803562 1.01 1.2827193e-38
-0.013871788 0.081755012 1.01 9.3262803e-39
-0.010625199 0.081459865 1.01 1.0800348e-38
-0.0061980332 0.081459865 1.01 1.0892907e-38
-0.0014757223 0.081755012 1.01 1.080179e-38
0.0014757223 0.081755012 1.01 1.0801073e-38
0.0053125997 0.082345299 1.01 1.0984385e-38
-0.018594099 0.084116161 1.01 5.5349776e-39
-0.0097397659 0.084116161 1.01 1.0614882e-38
0.0079688998 0.084116161 1.01 1.0432296e-38
-0.023906698 0.1354713 1.01 1.4784245e-39
-0.023316411 0.13842274 1.01 1.2940193e-39
-0.022135831 0.1413742 1.01 1.0159946e-39
-0.020364966 0.14432563 1.01 4.4000772e-43
-0.018594099 0.14609648 1.01 8.2695107e-40
0.071720093 0.15052366 1.01 6.7313614e-39
-0.00266419 0.080813758 1.013 1.1260609e-38
0.00266419 0.080813758 1.013 1.1076579e-38
0.0062164431 0.081701823 1.013 1.0985102e-38
0.0097686956 0.082589887 1.013 1.080179e-38
0.0097686956 0.084366016 1.013 1.052449e-38
-0.022201583 0.14297819 1.013 1.8439126e-40
