# .PCD v0.7 - Point Cloud Data file format
VERSION 0.7
FIELDS x y z rgb
SIZE 4 4 4 4
TYPE F F F F
COUNT 1 1 1 1
WIDTH 831
HEIGHT 1
VIEWPOINT 0 0 0 1 0 0 0
POINTS 831
DATA ascii
0.026497249 0.11197225 0.97500002 1.3100906e-38
0.029916249 0.11197226 0.97500008 2.0287392e-38
0.02307825 0.11453649 0.97500002 9.2243666e-39
0.025642499 0.11453649 0.97500002 1.1621813e-38
0.029916249 0.11453651 0.97500002 1.7332857e-38
0.03333525 0.11453649 0.97500002 1.7886755e-38
0.02307825 0.1179555 0.97500002 1.5764355e-39
0.025642499 0.1179555 0.97500002 3.9710192e-39
0.029885566 0.11783364 0.97399998 5.6294812e-39
0.034189999 0.1179555 0.97500002 3.3278274e-39
0.036754247 0.11881025 0.97500002 7.314778e-42
0.02307825 0.12051975 0.97500002 3.1336747e-39
0.025642499 0.12051975 0.97500002 2.5859085e-39
0.029885566 0.12125089 0.9740001 8.3744539e-40
0.034189999 0.1213745 0.97500002 7.4632736e-40
0.036754247 0.12051975 0.97500002 5.1539758e-42
0.023149259 0.10974464 0.97799999 1.200175e-38
0.025721397 0.10974464 0.97799999 1.2552763e-38
0.030008299 0.10974464 0.97800004 1.6610744e-38
0.034295198 0.11060201 0.97799999 1.2286223e-38
0.019033834 0.11437448 0.97799999 4.431612e-39
0.02186319 0.11360285 0.97799999 9.3187161e-39
0.024864018 0.11231677 0.97799999 1.3930654e-38
0.034723885 0.11360285 0.97799999 1.8535325e-38
0.037724718 0.11403154 0.97800004 5.540849e-39
0.04098276 0.1143745 0.97799999 1.2030161e-39
0.018862359 0.11831843 0.97799999 2.1216752e-39
0.021434499 0.11831843 0.97799999 8.3887051e-40
0.038010515 0.11803263 0.97800004 1.6740458e-39
0.042011619 0.11831843 0.97800004 1.0421813e-38
0.019148152 0.12146217 0.97800004 2.3042728e-39
0.022006087 0.12203376 0.97800004 2.1195242e-39
0.025721397 0.12260534 0.97799999 1.1997371e-39
0.038010515 0.12203376 0.97800004 3.3463007e-42
0.041668665 0.12157648 0.97799999 1.3462433e-38
0.02229188 0.12432009 0.97799999 2.2117184e-39
0.025721397 0.12517747 0.97799999 2.0298481e-39
0.030222643 0.1258205 0.97800004 2.3057203e-39
0.034295198 0.12603486 0.97800004 2.4004285e-39
0.037438925 0.12489168 0.97800004 2.6190268e-42
0.041154236 0.12432009 0.97799999 1.2726668e-38
0.022428639 0.10265416 0.98400003 1.7432949e-38
0.025879201 0.10265416 0.98400003 1.2092868e-38
0.011214321 0.10783 0.98400003 1.1987349e-38
0.01380224 0.10696736 0.98400003 1.3930291e-38
0.01810872 0.10606819 0.98366672 1.3473988e-38
0.022383053 0.10588732 0.98200005 1.6605719e-38
0.025826599 0.10588729 0.98200005 1.7434033e-38
0.030161716 0.10599513 0.9830001 1.4302297e-38
0.034290995 0.10631827 0.98280001 1.8819459e-38
0.038128685 0.10644978 0.98400003 1.4296528e-38
0.042269357 0.10610472 0.98400009 7.2933353e-39
0.045719918 0.10783 0.98400003 4.985188e-39
0.011214321 0.11041792 0.98400003 3.3270791e-39
0.0137812 0.11024828 0.98250002 7.7495883e-39
0.018060209 0.11008129 0.98100007 1.3650111e-38
0.021500248 0.11008128 0.98100001 1.2001391e-38
0.034400396 0.10922126 0.98100001 1.2830052e-38
0.037840441 0.11008129 0.98100001 4.9981752e-39
0.042185199 0.11019349 0.98200005 3.7005896e-39
0.046295013 0.11070547 0.98400009 2.8664961e-39
0.011214321 0.11386848 0.98400003 1.2965822e-39
0.013760159 0.11352132 0.98100001 2.3089517e-39
0.016913529 0.11323465 0.98100007 4.8893658e-39
0.043287169 0.11323465 0.98100007 3.7023917e-39
0.046512865 0.11369491 0.98250002 1.2172421e-38
0.013802241 0.11818168 0.98400009 1.9397978e-39
0.016340189 0.11782136 0.98100007 2.0301984e-39
0.04386051 0.11610134 0.98100001 1.9813866e-38
0.046326399 0.11762043 0.98220009 1.7049042e-38
0.01466488 0.12249488 0.98400003 2.1220395e-39
0.016946843 0.12265706 0.98300004 2.0294852e-39
0.04386051 0.12298143 0.98100001 1.7328848e-38
0.045650221 0.12230946 0.98250002 1.7971686e-38
0.018425254 0.12554304 0.98220009 2.0291306e-39
0.022360258 0.12642147 0.98100001 1.7532612e-39
0.03870045 0.12642147 0.98100001 1.1630777e-43
0.042183444 0.12597699 0.98200005 1.493646e-38
0.045719918 0.12508281 0.98400003 1.4566562e-38
0.019840719 0.12853335 0.98400003 1.5699461e-39
0.022428639 0.12853335 0.98400003 1.3851975e-39
0.025839312 0.13006184 0.98250002 1.2040433e-39
0.029854635 0.13035294 0.98100007 1.6635823e-39
0.034400396 0.13072151 0.98100001 2.4926143e-39
0.037860166 0.12992857 0.98150003 9.2655256e-41
0.040544078 0.12939599 0.98400003 1.391987e-38
0.02674184 0.13370919 0.98400003 4.6935932e-40
0.030160841 0.13443598 0.98300004 1.8472561e-39
0.034452997 0.13436802 0.98250002 2.9517974e-39
0.037630916 0.13414842 0.98300004 1.1024842e-39
0.011248509 0.10296712 0.98699999 1.2642805e-38
0.01384432 0.10296712 0.98699999 1.5038061e-38
0.01817067 0.10210185 0.98699999 1.7157809e-38
0.022497017 0.10123658 0.98699999 1.0528436e-38
0.025958098 0.10123658 0.98699999 1.2275463e-38
0.029419178 0.10296712 0.98699999 1.1171643e-38
0.033399422 0.10227491 0.98699999 1.2183627e-38
0.038360305 0.10239027 0.98699999 1.7617347e-38
0.041532956 0.10210185 0.98699999 1.337568e-38
0.044128768 0.10296712 0.98699999 7.2004741e-39
0.0072105825 0.10585137 0.98699999 9.6896566e-39
0.010383239 0.10556294 0.98699999 1.3193805e-38
0.01384432 0.10469767 0.98699999 1.2370527e-38
0.035476066 0.10469767 0.98699999 1.6230129e-38
0.037206605 0.10469767 0.98699999 1.9272897e-38
0.046724573 0.10556294 0.98699999 3.4200272e-39
0.049320389 0.10556294 0.98699999 6.6393521e-42
0.0062732073 0.10967296 0.98699999 1.667548e-39
0.0095179696 0.10988929 0.98699999 3.9717395e-39
0.047589846 0.10902402 0.98699999 9.2965783e-40
0.049753025 0.11032192 0.98699999 1.9206477e-40
0.0077874293 0.11335036 0.98699999 7.4487001e-40
0.0095179696 0.11421563 0.98699999 1.3873555e-39
0.049897235 0.11392721 0.98699999 4.8882223e-39
0.010383239 0.11767671 0.98699999 9.2924445e-40
0.049320389 0.11767671 0.98699999 1.0509738e-43
0.011248509 0.12027252 0.98699999 2.1223926e-39
0.01297905 0.12200306 0.98699999 1.9380084e-39
0.047589846 0.12027252 0.98699999 7.8280344e-39
0.014709589 0.12546416 0.98699999 1.9380084e-39
0.016440129 0.12719469 0.98699999 1.9376525e-39
0.044128768 0.12719469 0.98699999 1.8528428e-38
0.019035939 0.1297905 0.98699999 1.3862667e-39
0.022497017 0.13065577 0.98699999 1.4777533e-39
0.042398226 0.12892523 0.98699999 1.7054437e-38
0.023362288 0.13238631 0.98699999 1.4777477e-39
0.025669677 0.13527054 0.98699999 6.5338764e-40
0.02682337 0.13757792 0.98699999 7.4557626e-40
0.029707601 0.13815477 0.98699999 2.0298467e-39
0.033312894 0.13801056 0.98699999 2.4000641e-39
-0.0008696533 0.09479221 0.99199998 1.4399159e-38
0.0017393066 0.09479221 0.99199998 1.7713846e-38
0.0060875732 0.09479221 0.99199998 1.63338e-38
0.010725725 0.094212443 0.99199998 1.126599e-38
0.013914453 0.093922555 0.99199998 1.172445e-38
0.017393064 0.093922555 0.99199998 1.2183627e-38
0.021306507 0.094357386 0.99199998 1.2459493e-38
0.025219945 0.09479221 0.99199998 1.2274745e-38
0.035076018 0.094212443 0.99199998 1.5040572e-38
0.038264744 0.093922555 0.99199998 1.8998467e-38
0.04174336 0.093922555 0.99199998 1.6327701e-38
0.04574376 0.094096489 0.99200004 1.7432241e-38
0.062615037 0.093922555 0.99199998 5.3507096e-39
-0.0043482664 0.098270826 0.99199998 1.4754293e-38
-0.00156485 0.097862475 0.99140006 1.3380357e-38
0.0017375532 0.098170005 0.99099994 1.2828987e-38
0.0060814368 0.098170005 0.991 1.6237304e-38
0.01042532 0.098170012 0.99100006 1.7434035e-38
0.0138864 0.098070949 0.98999995 1.4578518e-38
0.018003883 0.098263368 0.98974991 1.245985e-38
0.022199206 0.097851023 0.99028569 1.1539344e-38
0.026050586 0.098120473 0.99049997 1.2367298e-38
0.029508598 0.098070942 0.99000001 1.2183269e-38
0.033836115 0.098038502 0.98966664 1.1631179e-38
0.038149029 0.09797363 0.98900002 1.1168772e-38
0.041617125 0.09797363 0.98900002 1.6326628e-38
0.046014767 0.09810397 0.99033338 1.678471e-38
0.050235983 0.097862475 0.99140006 8.9568153e-39
0.053918503 0.097401172 0.99199998 6.557215e-39
0.057397112 0.097401172 0.99199998 3.9699836e-39
0.062615037 0.097401172 0.99199998 7.5619446e-39
0.065223999 0.097401172 0.99199998 1.3088596e-38
-0.0052179201 0.10174944 0.99200004 3.6043751e-39
-0.0019090291 0.10184903 0.9896 7.1985879e-39
0.0017340466 0.10230876 0.98900002 1.1807987e-38
0.0060691638 0.10230877 0.98900002 1.3011578e-38
0.010115273 0.10201975 0.98900002 1.3380359e-38
0.013872373 0.10144173 0.98900002 1.9089944e-38
0.029478792 0.10144173 0.98900002 1.2460569e-38
0.035547953 0.10144173 0.98900002 1.1632614e-38
0.037282001 0.10144173 0.98900002 1.2739304e-38
0.046299044 0.10213535 0.98900002 5.5423582e-39
0.050491791 0.10184903 0.9896 6.3724496e-39
0.053865027 0.10164599 0.99100006 4.4345197e-39
0.057397112 0.10174944 0.99200004 6.5271221e-40
0.061745387 0.10174944 0.99200004 5.9967657e-39
0.065223999 0.10087979 0.99199998 1.2536124e-38
-0.0043482664 0.1060977 0.99199998 1.2973221e-39
-0.0017379916 0.10593726 0.99049997 1.7600883e-39
0.0017340465 0.10577685 0.98900002 2.8668254e-39
0.0049131322 0.10548785 0.98900002 8.7644605e-39
0.051154375 0.10577685 0.98900002 1.115868e-39
0.05383829 0.10593727 0.99049997 2.4944528e-39
0.057397112 0.1060977 0.99199998 1.9383811e-39
0.060006075 0.10522804 0.99199998 5.5239185e-42
-0.0017379916 0.10941062 0.99049997 2.3067909e-39
0.0017340466 0.11011197 0.98900002 2.3057203e-39
0.0043351166 0.11184601 0.98900002 2.3049832e-39
0.051154375 0.10924494 0.98900002 3.7575258e-40
0.053648319 0.10989771 0.99019998 2.217119e-39
0.056527462 0.10957631 0.99199998 2.4022291e-39
-0.0015653759 0.11357673 0.99200004 1.2054866e-39
0.0017373341 0.1147081 0.99124998 1.7564898e-39
0.0057223542 0.11462048 0.98900002 1.8483281e-39
0.051154375 0.1153141 0.98900002 9.223865e-40
0.054028261 0.11413359 0.99080002 2.4007788e-39
0.002029191 0.11798297 0.99199998 1.1140015e-39
0.0060735466 0.11803439 0.99000001 1.1140015e-39
0.051154375 0.11791517 0.98900002 2.7598854e-40
0.053048849 0.11740319 0.99199998 2.7663369e-39
0.0078150444 0.12156868 0.99049997 1.0221632e-39
0.010124916 0.12179589 0.99000001 1.2965934e-39
0.01300535 0.12398433 0.98900002 9.2961439e-40
0.047830928 0.12262111 0.99199998 4.2345474e-39
0.049420331 0.12051625 0.98900002 9.8090893e-44
0.010725725 0.1249402 0.99199998 9.2961439e-40
0.013596515 0.12700328 0.99000001 1.2962403e-39
0.046091624 0.12783904 0.99199998 1.5484923e-38
0.014784106 0.12957834 0.99199998 1.9380084e-39
0.017068116 0.1304749 0.99000001 1.4777435e-39
0.042484142 0.13092051 0.98900002 1.8985155e-38
0.04421819 0.12918648 0.98900002 1.8160426e-38
0.018575339 0.13351019 0.99020004 1.5699433e-39
0.022253599 0.13381061 0.98900002 1.661776e-39
0.04137107 0.1333667 0.99000001 1.7144531e-38
0.022047639 0.13698249 0.99020004 1.6614201e-39
0.025721692 0.13901274 0.98900002 8.3741596e-40
0.02861177 0.13959076 0.98900002 1.9380084e-39
0.034680933 0.13959076 0.98900002 2.0327179e-39
0.038178615 0.13796124 0.98975003 3.4066491e-39
0.023480639 0.14088383 0.99199998 1.6624781e-39
0.026069216 0.14251597 0.99124998 1.6614243e-39
0.029478794 0.14219183 0.98900002 1.8458156e-39
0.033848979 0.14233647 0.99000001 2.307137e-39
0.037974861 0.14175348 0.99199998 3.0403707e-39
0.026959252 0.1452321 0.99199998 2.3978879e-39
0.029568212 0.14610174 0.99199998 2.6744552e-39
0.03275694 0.14581187 0.99199998 2.7666522e-39
0.051464718 0.082866915 0.995 1.3928143e-38
0.053209282 0.082866915 0.995 1.1899511e-38
0.051464718 0.084611475 0.995 1.3289241e-38
0.053790808 0.085774526 0.99500006 1.6970553e-38
0.010467399 0.091589741 0.995 1.1999956e-38
0.013956534 0.091589741 0.995 1.2092509e-38
0.017445665 0.091589741 0.995 1.2183986e-38
0.021807082 0.091589741 0.99500006 1.1538626e-38
0.035763618 0.091589741 0.995 1.7620217e-38
0.038380466 0.091589741 0.995 1.412078e-38
0.040997315 0.091589741 0.995 1.3110951e-38
0.046231017 0.091589741 0.99500006 1.3020191e-38
0.054256022 0.089845181 0.995 1.8624274e-38
0.057570696 0.090717465 0.995 8.7684556e-39
-0.0043614162 0.095078878 0.995 1.1818438e-38
-0.00261685 0.095078878 0.995 1.2278691e-38
0.0017445666 0.093334317 0.995 1.9370114e-38
0.0061059832 0.093334317 0.99500006 1.4303366e-38
0.0095951157 0.093334317 0.995 1.0527719e-38
0.022679366 0.093334317 0.995 1.2275104e-38
0.02645926 0.093915842 0.99500006 1.1815209e-38
0.029657632 0.094206601 0.995 1.1445715e-38
0.032274481 0.094206601 0.995 1.1632614e-38
0.047975581 0.093334317 0.995 2.2775202e-38
0.050301671 0.094497368 0.99500006 1.9637678e-38
0.054081563 0.094206601 0.995 9.5017355e-39
0.057570696 0.094206601 0.995 7.4770077e-39
0.060187545 0.094206601 0.995 3.6948345e-39
-0.0064548962 0.097521268 0.995 1.3096921e-38
0.060187545 0.097695723 0.995 1.1133358e-39
0.067165814 0.098568007 0.995 1.3364031e-38
-0.0078505492 0.10205714 0.99500006 1.7597464e-39
0.067165814 0.10031258 0.995 1.2995968e-38
-0.0066875052 0.1061278 0.99500006 1.5731915e-39
0.061932117 0.1061278 0.99500006 6.6432071e-39
-0.0049429387 0.10961694 0.99500006 2.3057161e-39
0.05844298 0.10990769 0.995 4.6612091e-40
0.056698415 0.11339682 0.995 3.2276682e-39
0.0008722833 0.11950281 0.995 1.022166e-39
0.054081567 0.11863053 0.995 3.3187876e-39
0.0055244612 0.12182891 0.99500006 9.2961299e-40
0.051464718 0.12124739 0.995 1.4748947e-39
0.0078505492 0.12473652 0.995 1.022166e-39
0.0095951157 0.12648107 0.995 8.3741876e-40
0.011339683 0.12822564 0.995 1.0218128e-39
0.013956534 0.13084251 0.995 1.8461743e-39
0.045358732 0.13084251 0.995 1.7328853e-38
0.016573383 0.13520391 0.995 1.6607124e-39
0.042741884 0.13520391 0.995 1.8708195e-38
0.018317949 0.13694848 0.995 1.8440079e-39
0.020062516 0.13869305 0.995 1.9369112e-39
0.040997315 0.13782077 0.995 1.5933737e-38
0.021807082 0.14043762 0.995 1.3869744e-39
0.039252751 0.14218217 0.995 2.758037e-39
0.040997315 0.14043762 0.995 5.6142827e-39
0.035182096 0.14683436 0.99500006 2.765555e-39
0.037508182 0.14567131 0.995 1.3829947e-39
0.030529916 0.14916044 0.995 2.7873508e-40
0.032274481 0.14916044 0.995 1.0166476e-39
0.048995145 0.079617113 0.99800003 1.0237103e-38
0.045495495 0.08311677 0.99800003 1.4671078e-38
0.049520094 0.082066871 0.99800009 1.2084973e-38
-0.020997919 0.086616419 0.99800003 1.0989048e-38
0.042870753 0.086616419 0.99800003 1.393747e-38
0.045495491 0.085741505 0.99800003 1.4213335e-38
0.049520094 0.085916489 0.99800009 1.4303736e-38
-0.020997919 0.090116076 0.99800009 7.5727865e-39
-0.0043745665 0.091865897 0.99800003 1.7710618e-38
-0.0017498266 0.091865897 0.99800003 1.890412e-38
0.0017498266 0.09099099 0.99800003 1.2921176e-38
0.0061243931 0.09099099 0.99800009 1.0987972e-38
0.01049896 0.090116076 0.99800003 1.2275463e-38
0.013998613 0.090116076 0.99800003 1.227618e-38
0.017498266 0.090116076 0.99800003 1.1907762e-38
0.021872833 0.090116076 0.99800003 1.1261326e-38
0.026247399 0.09099099 0.99800003 1.1448226e-38
0.029747054 0.09099099 0.99800003 1.5681986e-38
0.034121618 0.091282628 0.99800003 1.8997032e-38
0.038496189 0.090116076 0.99800003 1.4028588e-38
0.042433299 0.090116076 0.99800003 1.3661246e-38
0.045495491 0.089241162 0.99800003 1.3844917e-38
0.050088786 0.089897349 0.99800009 1.8263065e-38
0.053369712 0.090116076 0.99800003 2.341805e-38
0.060369018 0.091865897 0.99800003 4.2501663e-39
-0.020997919 0.09449064 0.99800003 2.2203939e-39
-0.0061243931 0.094490632 0.99800003 1.264424e-38
-0.0017498266 0.093615726 0.99800003 1.6329498e-38
0.034121618 0.093615726 0.99800003 1.6789034e-38
0.051619884 0.093615726 0.99800003 1.7147333e-38
-0.0096240472 0.097990289 0.99800003 9.0385012e-39
-0.0096240472 0.10148995 0.99800003 9.2997733e-40
-0.0096240472 0.10586451 0.99800003 1.7561521e-39
-0.0078742197 0.10761434 0.99800003 2.6741413e-39
0.062993757 0.10761434 0.99800003 1.0698345e-38
-0.0069993064 0.11023907 0.99800003 2.3986306e-39
0.060369018 0.10936416 0.99800003 2.2142351e-39
-0.0049578422 0.11344709 0.99800003 2.1220423e-39
0.058619194 0.11286382 0.99800003 1.0149731e-39
-0.0043745665 0.11636347 0.99800003 2.1220423e-39
-0.0014581889 0.1181133 0.99800003 1.1136483e-39
0.056869365 0.11636347 0.99800003 2.9525078e-39
0.0026247399 0.12248787 0.99800003 9.2996612e-40
0.0043745665 0.12336278 0.99800003 9.2996752e-40
0.050744973 0.12336278 0.99800003 1.0146059e-39
0.0067076683 0.12627918 0.99800003 9.2997032e-40
0.048703507 0.12569588 0.99800003 1.8370743e-40
0.01049896 0.12948719 0.99800003 1.2951613e-39
0.013998613 0.13386174 0.99800003 1.7543346e-39
0.045495491 0.13386174 0.99800003 1.3824329e-38
0.017498266 0.13823631 0.99800003 1.7532458e-39
0.042870753 0.13736139 0.99800003 1.6872558e-38
0.020997919 0.14173597 0.99800003 2.2131295e-39
0.041120928 0.14261088 0.99800003 1.6531244e-39
0.022747748 0.14436069 0.99800003 1.57063e-39
0.025955763 0.14727709 0.99800003 1.6602977e-39
0.037621275 0.14786035 0.99800003 2.5797176e-39
0.02887214 0.14961018 0.99800003 7.1746481e-43
0.034996532 0.14961018 0.99800003 3.0424404e-39
0.034326758 0.071294032 1.0039999 1.14263e-38
0.036087103 0.071294032 1.0039999 1.1424795e-38
0.034326758 0.073054381 1.0039999 1.2083175e-38
0.037349503 0.074262872 1.0024999 1.0423661e-38
-0.036087103 0.077455245 1.0039999 1.0974549e-38
-0.034326758 0.077455245 1.0039999 1.0983309e-38
0.037789151 0.07733997 1.0025001 1.4024283e-38
0.041683309 0.078540131 1.001 1.3376766e-38
-0.029045718 0.082736284 1.0039999 1.7430806e-38
-0.026698589 0.08302968 1.0039999 2.1939352e-38
-0.021627015 0.082812384 1.0028 1.6418451e-38
-0.0061612129 0.083616458 1.0039999 1.4117908e-38
-0.0017603465 0.083616458 1.0039999 1.0895419e-38
0.0017603465 0.083616458 1.0039999 1.2276539e-38
0.0061612129 0.083616458 1.0039999 1.2275463e-38
0.010562079 0.083616458 1.0039999 1.1813415e-38
0.014376163 0.08302968 1.0039999 1.3473629e-38
0.017310074 0.08302968 1.0039999 1.651532e-38
0.022004332 0.083616458 1.0039999 1.651496e-38
0.026405197 0.083616458 1.0039999 1.3755593e-38
0.02992589 0.083616458 1.0039999 1.3845993e-38
0.033446584 0.082736284 1.0039999 1.4398441e-38
0.037847448 0.081856117 1.0039998 1.4121859e-38
0.042122081 0.082489073 1.001 1.3935676e-38
0.045632251 0.081611529 1.001 1.3562953e-38
-0.029045718 0.087137155 1.0039999 1.998821e-38
-0.026111808 0.086550377 1.0039999 1.4840712e-38
-0.022377353 0.085560486 1.001 9.3320592e-39
-0.017577168 0.086126804 1.0025001 1.4209031e-38
-0.014082773 0.086256981 1.0039999 1.954948e-38
-0.010562079 0.086256981 1.0039999 2.2406066e-38
-0.0061612129 0.086256981 1.0039999 1.3840601e-38
-0.0017596891 0.086191893 1.00325 1.0896137e-38
0.0017577165 0.086126804 1.0024999 1.2275822e-38
0.0061520077 0.086126804 1.0025001 1.2183986e-38
0.010553532 0.086191893 1.00325 1.1907403e-38
0.014061732 0.086126804 1.0024999 1.1352803e-38
0.017577168 0.086126804 1.0025001 1.4484896e-38
0.021971457 0.086126797 1.0024999 1.6698632e-38
0.02636575 0.086126797 1.0025001 1.5412578e-38
0.029881181 0.086126804 1.0025001 1.4489918e-38
0.033932608 0.086328879 1.0028 1.375344e-38
0.038153231 0.085976802 1.0028 1.3937111e-38
0.041829567 0.085706733 1.0010002 1.3752723e-38
-0.029045718 0.088897496 1.0039999 1.6955127e-38
-0.026111808 0.089484274 1.0039999 7.3793344e-39
-0.02369367 0.08950942 1.001 2.5985623e-39
-0.017550867 0.08950942 1.001 1.2271154e-38
-0.014082773 0.089777671 1.0039999 1.181162e-38
-0.0105463 0.089642227 1.0025001 1.3101619e-38
-0.0061467486 0.089553699 1.0015001 1.6881224e-38
-0.0017550867 0.08950942 1.001 1.3749853e-38
0.0017550867 0.088631876 1.001 1.1353879e-38
0.0061428039 0.088631883 1.0010002 1.1907045e-38
0.01053052 0.088631876 1.001 1.2275463e-38
0.014040693 0.088631876 1.001 1.2368375e-38
0.017550867 0.088631876 1.001 1.1354955e-38
0.021938583 0.088631883 1.0010002 1.2459134e-38
0.026326301 0.088631876 1.001 1.9734227e-38
0.029836472 0.088631876 1.001 1.7159956e-38
0.033873178 0.089333914 1.001 1.5226037e-38
0.038611908 0.088631876 1.001 1.4029664e-38
0.041244537 0.088631876 1.001 1.430553e-38
-0.025525024 0.094178542 1.0039999 1.3851933e-39
-0.023693671 0.093897134 1.0010002 1.115847e-39
-0.017550869 0.093897134 1.001 4.7111192e-39
-0.014040693 0.093897134 1.001 2.6792168e-39
-0.01053052 0.093897134 1.001 1.2826469e-38
-0.0073128617 0.09272708 1.0010002 1.4670002e-38
-0.025525024 0.097699232 1.0039999 3.3645176e-42
-0.021938583 0.098284863 1.001 1.2951683e-39
-0.017550867 0.098284855 1.001 8.3347691e-40
-0.014040694 0.098284855 1.001 8.3385807e-40
-0.011408064 0.098284855 1.001 5.9975504e-39
-0.022004332 0.1021001 1.0039999 1.4766239e-39
-0.017590974 0.10202449 1.00325 2.12385e-39
-0.014040693 0.10179503 1.001 2.1245703e-39
-0.011408064 0.10179503 1.001 1.6650242e-39
-0.021124158 0.10474061 1.0039999 2.7663075e-39
-0.017310075 0.1053274 1.0039999 2.8578263e-39
-0.01405187 0.10538475 1.00175 2.3071735e-39
-0.011408064 0.10618275 1.0010002 1.3888087e-39
-0.013642685 0.10958157 1.0039999 1.8476218e-39
-0.010539067 0.11065397 1.00175 2.1231227e-39
-0.0078978902 0.111448 1.001 2.4911766e-39
0.061782792 0.11097431 1.0020001 7.7456184e-39
0.064060666 0.10969292 1.001 1.3274023e-38
-0.013202599 0.11354235 1.0039999 2.2142379e-39
-0.010554847 0.11433771 1.00325 2.490106e-39
-0.0073128617 0.11437315 1.0010002 2.4904619e-39
0.058795404 0.11495818 1.001 1.1990056e-39
0.060641222 0.11425027 1.0025001 3.041835e-39
-0.010562079 0.11706305 1.0039999 2.0302054e-39
-0.0065022367 0.11790834 1.0022 1.6635823e-39
-0.0026326301 0.11846835 1.001 9.296172e-40
0.058210373 0.11788332 1.0010002 1.3887765e-39
0.060550489 0.11759081 1.001 5.7143998e-39
-0.0044008661 0.12058374 1.0039999 1.2051251e-39
-0.0020537376 0.12175731 1.0039999 8.3742157e-40
0.00087754335 0.12285607 1.001 1.0221618e-39
0.054583199 0.12232955 1.001 2.5826533e-39
0.057976596 0.12209951 1.0020001 4.1539083e-39
0.060731951 0.12058374 1.0039999 7.4693272e-39
-0.00088017323 0.12410443 1.0039999 9.2961439e-40
0.0017564017 0.12655559 1.0025001 1.9387132e-39
0.0043877168 0.12636624 1.001 1.0221632e-39
0.051241752 0.12678587 1.0020001 1.5674406e-39
0.054570742 0.12674496 1.0039999 3.2269157e-39
0.057211258 0.12586477 1.0039999 3.6871596e-39
0.0026405198 0.13026565 1.0039999 1.4798791e-39
0.0061449949 0.12994173 1.0015001 1.5706594e-39
0.0096529769 0.13075395 1.001 1.7543332e-39
0.049759947 0.12993392 1.0028 4.6102439e-40
0.0065132822 0.13361029 1.0039999 1.5706482e-39
0.01053052 0.13338658 1.001 1.4788169e-39
0.049217377 0.13358645 1.0025001 1.821688e-44
0.0070413859 0.13642685 1.0039999 1.2933074e-39
0.010731275 0.13775361 1.0033998 1.5698957e-39
0.013873075 0.13820897 1.0016 1.8457861e-39
0.016673323 0.13952939 1.001 1.8447141e-39
0.042999625 0.13952939 1.001 1.059277e-38
0.045667101 0.13787752 1.00175 1.8410343e-39
0.048409529 0.13642685 1.0039999 6.4284847e-40
0.014376163 0.14229469 1.0039999 8.2875173e-40
0.01756336 0.14226919 1.00175 1.3819283e-39
0.020183496 0.14303957 1.001 1.6628214e-39
0.043064058 0.14237636 1.0025001 5.0553159e-39
0.044888835 0.1417079 1.0039999 5.5130641e-39
0.017603464 0.14522858 1.0039999 4.6102439e-40
0.021514934 0.14622076 1.00175 6.4757085e-40
0.039489452 0.14479466 1.001 1.3851205e-39
0.041368142 0.14522858 1.0039999 1.0163394e-39
0.023154227 0.14918792 1.003 3.6847564e-40
0.026364435 0.15028477 1.0025001 1.8367099e-40
0.030714015 0.151815 1.001 1.8413945e-39
0.032469105 0.151815 1.001 2.5789595e-39
0.037734363 0.15005991 1.001 5.4373912e-39
0.027285371 0.15226997 1.0039999 2.0203809e-39
0.02992589 0.15315014 1.0039999 3.0392356e-39
0.033446584 0.15315014 1.0039999 4.2377802e-39
0.036087103 0.15226997 1.0039999 4.0544567e-39
0.030015312 0.070624262 1.007 1.1159438e-38
0.032663722 0.071507066 1.007 1.1887278e-38
-0.032663722 0.075038284 1.007 1.6144392e-38
-0.030898115 0.075038284 1.007 1.9736379e-38
0.030898115 0.073272668 1.007 1.393173e-38
0.033546522 0.07415548 1.007 1.3285653e-38
-0.037960541 0.077686682 1.007 9.3150292e-39
-0.032663722 0.077686682 1.007 1.4671078e-38
-0.030015312 0.077686682 1.007 1.5684856e-38
-0.027366901 0.077686682 1.007 2.1479819e-38
0.030898115 0.077686682 1.007 1.4674306e-38
0.033546522 0.07768669 1.007 1.4580677e-38
-0.03707774 0.082100704 1.007 4.3440841e-39
-0.033546522 0.082100704 1.007 1.1805124e-38
-0.030456714 0.081659302 1.007 1.125592e-38
-0.02618983 0.080923632 1.007 2.2310642e-38
-0.022511482 0.080776498 1.007 2.2496822e-38
-0.017361797 0.083277777 1.007 1.5681268e-38
-0.014124853 0.082983501 1.007 1.6323041e-38
-0.01059364 0.083866306 1.007 2.1577394e-38
-0.0057382211 0.081659302 1.007 1.4397365e-38
-0.0017656065 0.0812179 1.007 1.3470756e-38
0.0017656065 0.0812179 1.007 1.098869e-38
0.0061796233 0.082100704 1.007 1.1537909e-38
0.01059364 0.082100704 1.007 1.5682703e-38
0.014124852 0.0812179 1.007 1.7618782e-38
0.017950334 0.080923632 1.007 1.4489558e-38
0.02207008 0.0812179 1.007 1.3569769e-38
0.026484098 0.0812179 1.007 1.3845635e-38
0.030015312 0.0812179 1.007 1.4029664e-38
0.033546522 0.080335096 1.007 1.495053e-38
-0.032663722 0.085631922 1.007 5.8770458e-42
-0.030309578 0.086220466 1.007 1.3723202e-38
-0.027366901 0.085631922 1.007 2.341805e-38
-0.03030958 0.090340197 1.007 1.0225942e-38
-0.027366901 0.090928733 1.007 9.7727816e-39
-0.029721044 0.093282878 1.007 1.179718e-38
-0.027366901 0.093577147 1.007 4.0545464e-39
-0.029132508 0.097108364 1.007 9.7742348e-39
-0.026778366 0.097991168 1.007 1.9169763e-40
-0.025601294 0.10240518 1.007 1.0509738e-43
-0.025601294 0.10505359 1.007 1.0930128e-43
-0.022511484 0.1063778 1.007 1.1067988e-39
-0.018538868 0.1068192 1.007 2.8581822e-39
-0.016773263 0.10946761 1.007 2.1231381e-39
-0.015007655 0.11035042 1.007 1.6646809e-39
-0.016773263 0.11211601 1.007 1.4795806e-39
-0.01441912 0.11388162 1.007 1.3873808e-39
-0.013242049 0.11741284 1.007 1.5699489e-39
-0.01059364 0.11917844 1.007 2.1227542e-39
-0.0061796233 0.12153259 1.007 1.4802714e-39
-0.0017656065 0.12535806 1.007 1.2962319e-39
0.00088280329 0.12977208 1.007 2.0319767e-39
0.053851001 0.13036063 1.007 2.6737377e-39
0.0026484097 0.13418609 1.007 1.0181652e-39
0.0044140164 0.13506891 1.007 1.2018475e-39
0.052085392 0.13418609 1.007 1.7528576e-39
0.0061796228 0.13801157 1.007 5.5392768e-40
0.049436983 0.13771731 1.007 2.1194121e-39
0.0079452293 0.14036572 1.007 0
0.01059364 0.14124852 1.007 1.4643569e-42
0.013242049 0.14389692 1.007 2.7555133e-40
0.046788573 0.14036572 1.007 1.1960825e-39
0.015007655 0.14566255 1.007 4.5923774e-40
0.017656066 0.14742814 1.007 3.7835059e-43
0.039726146 0.14742814 1.007 1.8424496e-39
0.021187279 0.15007655 1.007 1.7488653e-39
0.039726146 0.15007655 1.007 4.3303009e-39
0.037960541 0.15272497 1.007 5.5299455e-39
-0.034531899 0.075261831 1.01 9.230175e-39
-0.029809587 0.074081257 1.01 1.9825704e-38
-0.026858144 0.074671544 1.01 1.5040569e-38
-0.022135835 0.075261831 1.01 2.1298659e-38
-0.018594099 0.075261831 1.01 2.2864516e-38
0.029809587 0.074671544 1.01 1.3659094e-38
0.03276103 0.075261831 1.01 1.3474347e-38
-0.025677565 0.077918127 1.01 2.3509886e-38
-0.022135831 0.077918127 1.0100001 2.2865243e-38
-0.018003812 0.078213274 1.01 1.5954215e-38
-0.015052366 0.078803562 1.01 1.5405044e-38
-0.0044271667 0.078803562 1.01 2.0932393e-38
-0.0017708666 0.078803562 1.01 1.9549108e-38
0.0017708666 0.078803562 1.01 8.598806e-39
0.0061980332 0.078803562 1.01 1.5502261e-38
0.011510633 0.078803562 1.01 1.5965026e-38
0.014166933 0.078803562 1.01 1.5136354e-38
0.017708667 0.078803562 1.01 1.4306606e-38
0.022490008 0.07809522 1.0100001 1.4121859e-38
0.026563 0.077918127 1.01 1.3846352e-38
0.029219298 0.077918127 1.01 1.430553e-38
-0.041615367 0.081459865 1.01 1.1984719e-38
-0.039844498 0.081459865 1.01 8.0203065e-39
-0.01800381 0.081164718 1.01 7.2064828e-39
-0.014166933 0.080574423 1.01 5.1821993e-39
-0.010625199 0.081459865 1.01 1.6332368e-38
-0.0070834663 0.080574423 1.01 1.5315e-38
0.0061980332 0.080574423 1.01 1.2459134e-38
0.010625199 0.080574423 1.01 1.7434035e-38
0.013281499 0.080574423 1.01 1.8539648e-38
-0.037719458 0.086241201 1.0100001 3.4177964e-39
-0.033941612 0.087067604 1.01 9.3072703e-40
-0.036302764 0.090314195 1.01 2.1216752e-39
-0.033646464 0.090314195 1.01 2.8282547e-40
-0.036302764 0.09297049 1.01 1.9329581e-39
-0.033646464 0.093855925 1.01 1.1118827e-39
-0.030990165 0.094741359 1.01 1.2075186e-38
-0.033646464 0.097397663 1.01 2.4926647e-39
-0.030990165 0.097397663 1.01 1.3923038e-38
-0.033646464 0.10005396 1.01 3.3227659e-39
-0.030104732 0.10093939 1.01 1.1431605e-38
-0.027448434 0.10182483 1.01 2.9973774e-42
-0.025677565 0.10713743 1.01 1.2331426e-43
-0.021781659 0.10961664 1.0100001 1.2966327e-39
-0.018594099 0.10979372 1.01 1.6646809e-39
-0.016823232 0.11422089 1.01 3.7647565e-40
-0.015052366 0.11599176 1.01 9.2674313e-40
-0.013281499 0.1195335 1.01 1.9390776e-39
-0.0097397659 0.12130436 1.01 2.2142351e-39
-0.0070834663 0.12307522 1.01 1.7557751e-39
-0.0044271667 0.1248461 1.01 8.3742157e-40
-0.0026562999 0.12661695 1.01 1.9390776e-39
-0.0014757223 0.12897812 1.01 2.4904395e-39
0.00088543328 0.13192956 1.01 1.204367e-39
0.054011431 0.13192956 1.01 3.0406958e-39
0.00088543328 0.13370042 1.01 8.3305792e-40
0.054011431 0.13370042 1.01 3.0421027e-39
0.0026562999 0.13724217 1.01 1.1196375e-42
0.0044271667 0.13901302 1.01 6.4396251e-40
0.0061980328 0.14078389 1.01 5.0446745e-44
0.0097397659 0.14255476 1.01 2.8768657e-42
0.011510633 0.14432563 1.01 1.8417994e-39
0.014166933 0.14698192 1.01 2.0276116e-39
0.041615367 0.14786735 1.01 4.0551434e-39
-0.029898133 0.07134109 1.013 1.5121287e-38
-0.0266419 0.071045063 1.013 1.5312483e-38
-0.022645615 0.071489096 1.013 1.301768e-38
-0.01864933 0.071933128 1.013 2.3509886e-38
0.026641902 0.071045063 1.013 1.3839536e-38
-0.025753837 0.073709257 1.013 1.2733173e-38
-0.022201583 0.073709264 1.013 2.0471781e-38
-0.017761268 0.074597321 1.013 1.9918257e-38
-0.014209013 0.075485386 1.013 1.7801018e-38
-0.011544824 0.075485386 1.013 1.5218823e-38
-0.0044403165 0.075485386 1.013 2.121077e-38
-0.0017761267 0.075485386 1.013 2.1390133e-38
0.0017761267 0.075485386 1.013 1.5860238e-38
0.0062164436 0.075485393 1.013 9.3277586e-39
0.0097686956 0.075485386 1.013 1.4581395e-38
0.014209013 0.075485386 1.013 1.495053e-38
0.017761268 0.074597321 1.013 1.4858336e-38
0.022201583 0.074597321 1.013 1.4765783e-38
0.0266419 0.074597321 1.013 1.430553e-38
-0.016873203 0.077261508 1.013 1.6603211e-38
-0.013912993 0.077853553 1.013 1.3933883e-38
-0.010656759 0.078149572 1.013 9.4209954e-39
-0.0065716687 0.077971958 1.013 1.6974499e-38
-0.0017761267 0.077261508 1.013 2.0837684e-38
0.0017761267 0.077261508 1.013 1.1165483e-38
0.0062164436 0.077261508 1.013 1.4029306e-38
0.010360738 0.077853553 1.013 1.6421692e-38
0.014209013 0.077261508 1.013 1.5042725e-38
0.017761268 0.077261508 1.013 1.4582112e-38
0.020425456 0.077261508 1.013 1.4397724e-38
-0.043515101 0.082589887 1.013 1.3180012e-38
-0.042627037 0.086142145 1.013 1.2904511e-38
-0.039962847 0.087030202 1.013 8.4805644e-39
-0.042331021 0.090286434 1.013 1.3181451e-38
-0.039074786 0.09058246 1.013 6.0845977e-39
-0.038186722 0.094134711 1.013 4.4247386e-39
-0.037298661 0.097686961 1.013 2.1241723e-39
-0.037298661 0.10123922 1.013 2.0294571e-39
-0.033746406 0.10301534 1.013 4.5184336e-39
-0.030194152 0.10390341 1.013 1.0694442e-38
-0.030194152 0.10567953 1.013 1.0600384e-38
-0.027529962 0.10656759 1.013 1.3592595e-43
-0.025753837 0.10923178 1.013 2.3317606e-42
-0.020425456 0.11278404 1.013 3.2337821e-39
-0.01864933 0.11367211 1.013 1.9437761e-39
-0.016873203 0.11633629 1.013 2.5862645e-39
-0.015097077 0.11811242 1.013 2.0294781e-39
-0.013320949 0.12166467 1.013 1.5717244e-39
-0.010952781 0.12284876 1.013 2.0312648e-39
-0.0062164436 0.126105 1.013 1.7554108e-39
-0.0044403165 0.12876917 1.013 1.8457861e-39
-0.00266419 0.1305453 1.013 2.1223716e-39
0.057724115 0.12965724 1.013 4.4243365e-39
-0.0015985139 0.13374233 1.013 7.3973565e-40
0.00088806328 0.13587368 1.013 5.5754443e-40
0.055947989 0.13232143 1.013 3.7782608e-39
0.0017761267 0.13853787 1.013 3.7241469e-40
0.0062164431 0.14209013 1.013 8.3122362e-40
0.0097686956 0.14475432 1.013 3.0428061e-39
0.04529123 0.14475432 1.013 6.5333145e-39
-0.021439761 0.058959339 1.0190001 1.46624e-38
-0.018759791 0.058959339 1.0190001 1.5124134e-38
-0.02404872 0.062348533 1.016 1.3009767e-38
-0.021406885 0.062440582 1.0175 1.5961797e-38
-0.018759791 0.061639313 1.0190001 1.577992e-38
-0.024084225 0.066007301 1.0175 1.6697557e-38
-0.021423323 0.066056617 1.01825 1.5315361e-38
-0.018759791 0.066999249 1.0190001 9.7851158e-39
0.017866466 0.066999249 1.0190001 1.485152e-38
0.020546436 0.066999249 1.0190001 1.3650125e-38
-0.031174267 0.070364773 1.016 8.391404e-39
-0.02404872 0.068583384 1.016 1.6604646e-38
-0.02137664 0.069474079 1.016 1.3748058e-38
-0.018127421 0.069840237 1.0170001 1.973351e-38
-0.014293174 0.070572548 1.0190001 2.3234379e-38
-0.0098265568 0.06967923 1.0190001 1.5775961e-38
-0.0053599402 0.069679223 1.0190001 1.2925842e-38
-0.0017866467 0.069679223 1.0190001 1.2831498e-38
0.0017866467 0.070572548 1.0190001 1.4672872e-38
0.0053599402 0.070572548 1.0190001 1.4670002e-38
0.0098265577 0.070572548 1.0190001 1.0251136e-38
0.014293174 0.069679223 1.0190001 1.4214053e-38
0.017813867 0.069474079 1.016 1.5591944e-38
0.02137664 0.069474079 1.016 1.5036985e-38
0.02404872 0.069474079 1.016 1.3008352e-38
-0.016923174 0.073036849 1.016 2.3326215e-38
-0.014251092 0.073036849 1.016 1.7706649e-38
-0.0095749535 0.073704869 1.0159999 1.1444601e-38
-0.0055222991 0.073571265 1.016 1.2553109e-38
-0.0017813867 0.073036857 1.016 1.7528735e-38
0.0017813867 0.073036849 1.016 1.3844914e-38
0.0053441599 0.073036849 1.016 8.1331671e-39
0.010052111 0.07341858 1.016 1.1634767e-38
0.014251092 0.073036849 1.016 1.5043801e-38
0.017813867 0.072146162 1.016 1.5134201e-38
0.02137664 0.072146162 1.016 1.5778485e-38
0.02404872 0.072146162 1.016 1.4856184e-38
-0.045425359 0.091741413 1.016 1.3548422e-38
-0.04364397 0.091741413 1.016 1.4285987e-38
-0.045425359 0.094413489 1.016 1.3640266e-38
-0.042218864 0.094591632 1.016 1.2442811e-38
-0.045425359 0.097085573 1.016 1.2901633e-38
-0.041862588 0.097976267 1.016 1.1613778e-38
-0.041904669 0.10163986 1.0170001 1.2260218e-38
-0.040199552 0.10451883 1.0190001 9.2173952e-39
-0.03746435 0.1052583 1.0175 1.8447057e-39
-0.033897631 0.106149 1.0175 4.7943185e-39
-0.029392879 0.10777389 1.016 6.4509195e-39
-0.033052966 0.10809212 1.0190001 9.6820882e-39
-0.030372994 0.10898545 1.0190001 1.0138715e-38
-0.025870871 0.11060772 1.0175 1.0157564e-39
-0.021695456 0.11441873 1.0170001 3.1430564e-39
-0.018129176 0.11798501 1.0170001 3.7848007e-39
-0.016973143 0.12149197 1.0190001 1.7561086e-39
-0.014547992 0.12202498 1.016 1.5706384e-39
-0.014283312 0.12586588 1.01825 1.10857e-39
-0.010153905 0.12665661 1.016 2.1198577e-39
-0.013399851 0.12953188 1.0190001 1.1060519e-39
-0.0098177902 0.13029811 1.0180001 5.5428781e-40
-0.0056410581 0.13033813 1.016 1.0160072e-39
-0.0080399103 0.13310517 1.0190001 7.3469798e-40
-0.0053487625 0.13370328 1.0167501 7.401182e-40
0.057895064 0.1327133 1.016 5.1618987e-39
-0.0044666165 0.13667847 1.0190001 3.7455867e-40
-0.0020809146 0.13759956 1.0170001 1.385454e-39
0.00089069334 0.13983886 1.016 1.7542603e-39
0.050769519 0.13983886 1.016 4.5153802e-39
-0.018815018 0.063612677 1.022 1.5317155e-38
-0.018815018 0.065404586 1.022 1.4393778e-38
-0.014335252 0.067196488 1.022 2.2867037e-38
-0.0098554865 0.067196488 1.0220001 2.0837668e-38
-0.0053757196 0.067196488 1.022 1.3472542e-38
-0.0017919065 0.067196488 1.022 1.0716412e-38
0.011647392 0.067196488 1.022 1.3843123e-38
0.014335252 0.066300541 1.022 1.2825751e-38
-0.017023113 0.068988405 1.022 1.7146331e-38
-0.014335252 0.068988405 1.022 2.3509886e-38
0.0017919065 0.068988405 1.022 1.4856184e-38
0.0053757196 0.068988405 1.022 1.8630049e-38
0.0098554865 0.068988405 1.0220001 1.5499027e-38
-0.042109802 0.10542384 1.0220001 1.2259495e-38
-0.037630036 0.10841034 1.022 2.7655578e-39
-0.034046225 0.1093063 1.022 5.0672718e-39
-0.031358361 0.11020225 1.022 1.3272981e-38
-0.025982644 0.11199415 1.022 1.6661257e-39
-0.024788041 0.11438337 1.0220001 5.170633e-39
-0.020606924 0.11826582 1.022 3.5096557e-39
-0.018815018 0.12184964 1.022 1.939753e-39
-0.017023113 0.12543346 1.022 1.8913045e-40
-0.014633904 0.12991323 1.0220001 1.4751805e-39
-0.0098554865 0.13409434 1.0220001 1.5669754e-39
-0.018024266 0.054974012 1.028 1.1153558e-38
-0.017723862 0.057377249 1.0280001 1.3555364e-38
-0.014719817 0.057978056 1.0280001 1.5125592e-38
-0.0045060664 0.057677649 1.028 1.8632919e-38
-0.0018024266 0.057677649 1.028 2.3509886e-38
0.0018024265 0.057677649 1.028 1.9268887e-38
0.0045060664 0.058578864 1.028 1.0980439e-38
-0.017073084 0.062002249 1.025 1.549975e-38
-0.014397934 0.062091231 1.0265 1.2735351e-38
-0.0099045802 0.063022688 1.0270001 2.0378869e-38
-0.0054072798 0.06308493 1.028 2.1942568e-38
-0.0018019881 0.062152594 1.0275 1.7244946e-38
0.0018019881 0.062152594 1.0275 1.2642796e-38
0.0054042111 0.062152594 1.0275 1.4023562e-38
0.0098844161 0.063799426 1.025 1.7985048e-38
-0.017073084 0.066495165 1.025 1.3012299e-38
-0.014377332 0.065596581 1.025 1.2826833e-38
-0.0098844171 0.065596581 1.025 2.3509886e-38
-0.0053915 0.065596581 1.025 1.4576714e-38
-0.0017971665 0.065596581 1.025 1.0438737e-38
0.0017971664 0.066495165 1.025 6.4819303e-39
0.0053915 0.066495165 1.025 1.3199199e-38
0.0095249824 0.06631545 1.025 1.77099e-38
-0.040436249 0.10872857 1.025 8.9415314e-39
-0.037740499 0.11052574 1.025 3.7797097e-39
-0.035044748 0.11052574 1.025 9.1847547e-40
-0.036949743 0.11265166 1.028 1.7503073e-39
-0.033913262 0.11314289 1.027 5.2473289e-39
-0.030574845 0.113305 1.02575 7.7416415e-39
-0.027257025 0.11412008 1.025 2.4051018e-39
-0.024909899 0.11854491 1.027 1.3894841e-39
-0.022464583 0.11861299 1.025 2.4047094e-39
-0.020727905 0.12256501 1.028 1.386938e-39
-0.018897865 0.12598707 1.0265 8.2975927e-40
-0.017707206 0.12934896 1.027 7.3832314e-40
-0.015365336 0.055134442 1.031 9.7735551e-39
-0.013557649 0.056942131 1.031 1.4577449e-38
-0.010394197 0.058297891 1.031 1.467323e-38
-0.0063269031 0.058749814 1.031 1.4482743e-38
-0.0099422764 0.060557507 1.031 1.540719e-38
-0.0054230597 0.060557503 1.031 2.3509886e-38
-0.035249889 0.11478809 1.031 1.2861524e-39
-0.033442203 0.11659579 1.031 1.9365188e-39
-0.029465294 0.11731886 1.031 1.8482846e-39
-0.02440377 0.12201884 1.031 1.8469114e-42
-0.022596082 0.12292269 1.031 8.3447884e-40
-0.020788398 0.12653807 1.031 0
-0.0135971 0.055294871 1.034 1.2728901e-38
-0.011784153 0.055294871 1.034 1.7799583e-38
-0.009064734 0.057107821 1.034 1.4302653e-38
-0.034445986 0.11784153 1.034 1.0145387e-39
-0.031726569 0.11874801 1.034 7.1746481e-43
-0.029007148 0.12056095 1.034 1.8414225e-39
-0.026287727 0.12146743 1.034 1.1985782e-39
-0.0090998001 0.055508777 1.038 1.7524435e-38
-0.0054598795 0.055508777 1.038 1.3287432e-38
-0.0063698594 0.057328735 1.038 1.3655148e-38
-0.037309177 0.11556746 1.038 3.1343011e-39
-0.035489216 0.11920737 1.038 3.1342983e-39
-0.03924223 0.11590146 1.041 8.2968976e-39
