# .PCD v0.7 - Point Cloud Data file format
VERSION 0.7
FIELDS x y z rgb
SIZE 4 4 4 4
TYPE F F F F
COUNT 1 1 1 1
WIDTH 301
HEIGHT 1
VIEWPOINT 0 0 0 1 0 0 0
POINTS 301
DATA ascii
0.043257359 0.11035042 1.007 3.4137564e-39
0.046200037 0.10976188 1.007 3.5981337e-39
0.049436983 0.1094676 1.007 3.9665631e-39
0.039726146 0.11476442 1.007 3.2279331e-39
0.042551119 0.11423474 1.007 3.2282904e-39
0.045905769 0.11388163 1.007 3.135736e-39
0.049436983 0.11388163 1.007 3.4119656e-39
0.052085392 0.11476442 1.007 3.9640604e-39
0.045905769 0.11741284 1.007 2.5807265e-39
0.048554178 0.11741284 1.007 2.028273e-39
0.038073633 0.10713743 1.01 2.4921491e-39
0.038959064 0.11067916 1.01 3.1360934e-39
0.041615367 0.11067916 1.01 3.413762e-39
0.03010473 0.11599176 1.01 4.8852712e-39
0.03276103 0.11599176 1.01 3.136113e-39
0.037778489 0.1142209 1.0100001 3.0439047e-39
0.041615367 0.11245003 1.01 3.2290121e-39
0.053421147 0.1142209 1.01 3.7814487e-39
0.03010473 0.11776263 1.01 7.9244003e-39
0.03276103 0.11776263 1.01 4.1541213e-39
0.039844498 0.11776263 1.01 1.569813e-39
0.042795941 0.11835292 1.01 3.3164839e-39
0.046042532 0.1195335 1.01 5.2471789e-39
0.049879409 0.11894321 1.01 4.6990358e-39
0.052830856 0.11835292 1.01 5.3483485e-39
0.055947989 0.11011985 1.013 3.4115956e-39
0.057724115 0.11100791 1.013 3.3190427e-39
0.027529962 0.11456016 1.013 2.6818835e-39
0.030194154 0.11367211 1.013 3.2282876e-39
0.033746406 0.11456016 1.013 4.0544553e-39
0.055355947 0.11337608 1.013 4.9785402e-39
0.058316156 0.11396813 1.013 2.9516769e-39
0.026819516 0.1177572 1.013 8.4811628e-39
0.030194152 0.11988855 1.013 9.3073123e-39
0.034190439 0.11855645 1.013 5.3479981e-39
0.037831496 0.11917811 1.013 4.5146529e-39
0.041738976 0.11988855 1.013 3.9593478e-39
0.055503957 0.11855645 1.013 7.190438e-39
0.058612179 0.11811243 1.013 9.673232e-39
0.030490175 0.12225672 1.013 1.2256093e-38
0.033746406 0.12255274 1.013 1.1976284e-38
0.038186725 0.12255274 1.013 1.1240521e-38
0.042627037 0.12255274 1.013 1.1055415e-38
0.046179295 0.12255274 1.013 1.1700416e-38
0.049731545 0.12255274 1.013 1.2714567e-38
0.05417186 0.12166467 1.013 1.3267722e-38
0.057724115 0.12166467 1.013 1.6215819e-38
0.031082217 0.12521693 1.013 1.7230388e-38
0.034042425 0.12580898 1.013 1.6584247e-38
0.038186725 0.126105 1.013 1.5388555e-38
0.043515101 0.12521693 1.013 1.5476466e-38
0.046179295 0.12521693 1.013 1.5662288e-38
0.017866466 0.10541216 1.0190001 2.1226365e-39
0.024976233 0.10703969 1.0175 2.8577156e-39
0.033846349 0.1068832 1.016 2.6751054e-39
0.054492723 0.10630548 1.0190001 3.4148158e-39
0.058066018 0.10630548 1.0190001 1.7524246e-39
0.062440585 0.10703969 1.0175 1.8546886e-40
0.06600862 0.10703969 1.0175 3.7058039e-40
0.069576651 0.10703969 1.0175 4.7016324e-39
0.017866466 0.10809212 1.0190001 6.8260065e-39
0.021428805 0.10982397 1.0185001 1.8471356e-39
0.026096238 0.11010972 1.0164286 3.0453327e-39
0.030313384 0.10966136 1.0170001 2.3985381e-39
0.03354945 0.11074287 1.016 2.6733201e-39
0.036518428 0.11133667 1.016 3.1346514e-39
0.053441599 0.11044597 1.016 3.2279274e-39
0.058574341 0.1091206 1.0175002 2.9517007e-39
0.062348533 0.11044597 1.016 2.2137727e-39
0.065911308 0.11044597 1.016 4.0576699e-39
0.069474079 0.11044598 1.016 6.0830885e-39
0.021391762 0.11409225 1.0167501 8.479051e-39
0.025473831 0.1138306 1.016 3.0478312e-39
0.033846349 0.11311805 1.016 3.778223e-39
0.036518428 0.11311805 1.016 2.8605883e-39
0.05967645 0.11311805 1.016 1.9357551e-39
0.06234853 0.11400874 1.016 7.0014294e-39
0.065911308 0.11400874 1.016 1.3456477e-38
0.068583384 0.11400874 1.016 9.4049338e-39
0.022267334 0.11757152 1.016 1.4930908e-38
0.02404872 0.11757152 1.016 1.1059052e-38
0.062348533 0.11757152 1.016 1.5477905e-38
0.065960623 0.11765897 1.0167501 1.3359248e-38
0.068583384 0.11668083 1.016 8.6623661e-39
0.0267208 0.12202498 1.016 1.5111688e-38
0.029392879 0.12380636 1.016 1.667928e-38
0.053738497 0.12321258 1.016 1.47432e-38
0.057895064 0.12321258 1.016 1.6309427e-38
0.06211213 0.12095751 1.0170001 1.6031041e-38
0.027097475 0.12595859 1.0190001 1.6305896e-38
0.030015608 0.12690072 1.0170001 1.6952309e-38
0.032955654 0.12736915 1.016 1.6858629e-38
0.042456385 0.12677537 1.016 1.6770442e-38
0.046316054 0.12736915 1.016 1.7599126e-38
0.049878828 0.12647846 1.016 1.5847736e-38
0.053441599 0.12647846 1.016 1.7139891e-38
0.057608217 0.12609237 1.0172001 1.6679301e-38
0.033895001 0.13023323 1.0175 1.3811579e-38
0.037409119 0.13004123 1.016 1.4923333e-38
0.041862588 0.13004123 1.016 1.428048e-38
0.046316054 0.13004123 1.016 1.4739669e-38
0.049952466 0.13023454 1.0175 1.4646767e-38
0.053599402 0.12953188 1.0190001 1.6769801e-38
0.057172693 0.12953188 1.0190001 1.5020972e-38
0.034839608 0.1339985 1.0190001 2.9426819e-39
0.037491307 0.13390054 1.01825 3.3118176e-39
0.041882314 0.13367018 1.0165 3.7749411e-39
0.046316054 0.13360399 1.016 3.5909114e-39
0.050026108 0.1339985 1.0190001 3.5919918e-39
0.042343527 0.13739313 1.0190001 7.0064923e-45
0.046452813 0.1375718 1.0190001 9.1842503e-41
0.050026108 0.1375718 1.0190001 7.3612871e-40
0.042879522 0.14025176 1.0190001 1.2889283e-39
0.015231205 0.10303462 1.022 5.9970095e-39
0.017919065 0.10213867 1.022 4.6708501e-40
0.02508669 0.10303462 1.022 3.225768e-39
0.061820775 0.10303463 1.0220001 1.8986161e-38
0.066300541 0.10303462 1.022 5.5176253e-39
0.015231205 0.10482653 1.022 8.9419195e-39
0.021502879 0.10572249 1.022 1.7542365e-39
0.02643062 0.10527451 1.022 3.1332151e-39
0.030163761 0.10602114 1.0220001 2.9524083e-39
0.033150271 0.10661844 1.022 2.7665752e-39
0.058236964 0.10482653 1.022 0
0.061820775 0.10482653 1.0220001 2.7555694e-40
0.066300541 0.10482653 1.022 1.0369609e-43
0.06988436 0.10482653 1.022 1.8367099e-40
0.018815018 0.11020225 1.022 1.0602415e-38
0.024190737 0.12095369 1.022 1.6492428e-38
0.063612677 0.1227456 1.022 1.6767525e-38
0.065404586 0.12095369 1.022 1.4376948e-38
0.024788041 0.12573211 1.0220001 1.6027169e-38
0.061223473 0.12573211 1.0220001 1.5940709e-38
0.026878599 0.12901726 1.022 1.0589443e-38
0.03046241 0.13080917 1.022 9.57351e-39
0.053757194 0.13170514 1.022 6.9020662e-39
0.057341009 0.13170514 1.022 1.1939063e-39
0.060028873 0.12991323 1.0220001 5.8968503e-39
0.031358361 0.13349704 1.022 1.7463122e-39
0.033150271 0.13439299 1.022 3.4032943e-39
0.053757194 0.13439299 1.022 9.2050736e-40
0.056445051 0.13439299 1.022 0
0.034942176 0.13708085 1.022 0
0.037928689 0.13767815 1.0220001 8.4077908e-45
0.040317897 0.13887276 1.022 1.821688e-44
0.053458542 0.13767815 1.0220001 8.290362e-40
0.017971667 0.094351247 1.025 1.9353824e-39
0.021598874 0.094489321 1.0265 2.3052495e-39
0.025233973 0.094627395 1.028 2.8587778e-39
0.054072797 0.094627395 1.028 2.3509886e-38
0.057677649 0.094627395 1.028 2.3509886e-38
0.062183719 0.094627403 1.0280001 2.3509886e-38
0.015275916 0.097945571 1.025 2.0304647e-39
0.017971668 0.097945571 1.0250001 1.3858183e-39
0.021598876 0.097189017 1.0265 2.1226533e-39
0.025774702 0.097511284 1.028 2.8595135e-39
0.051369157 0.098232254 1.028 5.4182943e-39
0.054072797 0.09733104 1.028 2.3505515e-38
0.057621539 0.098134935 1.0270001 2.3509845e-38
0.062123228 0.098134942 1.0270001 2.3509886e-38
0.066431694 0.098475963 1.0268 2.3509886e-38
0.069857471 0.099239253 1.026 2.0835854e-38
0.015275915 0.10153991 1.025 2.9313482e-40
0.02158704 0.10163723 1.026 2.398887e-39
0.026348343 0.10115155 1.0262856 3.5956408e-39
0.030311918 0.10293791 1.027 1.2024977e-39
0.051369157 0.10093589 1.028 6.4284847e-40
0.054019324 0.10173716 1.0270001 4.5114187e-39
0.057509329 0.10243849 1.025 1.5111765e-38
0.062002249 0.10153991 1.025 2.3509886e-38
0.066495165 0.10153991 1.025 2.3509886e-38
0.07019338 0.10258841 1.0265 7.2834548e-39
0.031542465 0.10544196 1.028 1.568755e-39
0.033344891 0.10544196 1.028 1.2907388e-39
0.054072797 0.10544196 1.028 2.7550649e-40
0.056610744 0.10513424 1.025 0
0.018870249 0.11591724 1.025 1.7231855e-38
0.018287851 0.11902912 1.026 1.0773855e-38
0.020667415 0.11861299 1.025 1.8331691e-38
0.069393419 0.11986136 1.028 8.2755979e-39
0.01799665 0.12238616 1.0265 2.1122164e-39
0.021566 0.12220733 1.025 1.5840653e-38
0.024261748 0.12310591 1.025 1.7228939e-38
0.066794693 0.12250686 1.025 7.3748334e-39
0.069393419 0.12166379 1.028 6.7172643e-39
0.018925479 0.12616986 1.028 4.5917888e-40
0.021566 0.12580165 1.025 5.7056473e-39
0.063799419 0.12580165 1.025 1.6032193e-38
0.066389382 0.12586945 1.0280001 1.4745085e-38
0.018925479 0.12977472 1.028 5.5105782e-40
0.021596244 0.12958534 1.0265 7.3469798e-40
0.024860805 0.12969552 1.025 3.6798854e-39
0.062900834 0.12939599 1.025 9.1837738e-40
0.065788567 0.12977472 1.028 1.4693679e-39
0.026070749 0.13305564 1.0255001 1.836752e-40
0.030252306 0.13508701 1.025 4.2038954e-45
0.058407914 0.13478749 1.025 2.8025969e-45
0.062063612 0.13372001 1.026 1.0145121e-39
0.065788567 0.13247836 1.028 2.4896898e-39
0.054230601 0.091288179 1.031 2.3509886e-38
0.056942131 0.091288179 1.031 2.3509886e-38
0.022596082 0.093095861 1.031 2.3970864e-39
0.025307612 0.093095861 1.031 2.5818308e-39
0.028019143 0.093999706 1.031 1.0145051e-39
0.054230601 0.093095861 1.031 2.3509886e-38
0.057845972 0.093095861 1.031 2.3509886e-38
0.062365185 0.093095861 1.031 2.3509886e-38
0.065980569 0.094300985 1.031 2.3509886e-38
0.028922986 0.097615078 1.031 3.6987273e-40
0.05151907 0.096711233 1.031 1.7228483e-38
0.067788251 0.096711233 1.031 2.3509886e-38
0.069595933 0.096711233 1.031 2.3509886e-38
0.029826827 0.10032661 1.031 5.0446745e-44
0.069595933 0.12382654 1.031 1.0495434e-38
0.067788251 0.12744191 1.031 1.529434e-38
0.069595933 0.12563422 1.031 1.3917087e-38
0.067788251 0.13015343 1.031 4.3259891e-39
0.046230137 0.091553807 1.034 1.2710384e-38
0.050309267 0.091100574 1.034 2.2676493e-38
0.054388396 0.089740857 1.034 2.3509886e-38
0.058920763 0.091553807 1.034 2.3509886e-38
0.061640181 0.091553807 1.034 2.3509886e-38
0.064963922 0.090949498 1.0340002 2.0010431e-38
0.029913621 0.094273224 1.034 8.4077908e-45
0.046230137 0.093366757 1.034 0
0.049856033 0.094273232 1.034 1.7137247e-38
0.060733709 0.093366757 1.034 2.3509886e-38
0.067079023 0.093366757 1.034 2.3509886e-38
0.030820094 0.097899117 1.034 1.4012985e-45
0.04925172 0.097596966 1.0340002 1.8367099e-40
0.031726569 0.10152501 1.034 1.5414283e-44
0.049856033 0.10061853 1.034 0
0.069798447 0.12781274 1.034 9.4053415e-39
0.038219158 0.081898198 1.038 2.3509886e-38
0.045498997 0.086448096 1.038 2.3509886e-38
0.050503887 0.085993111 1.038 2.3509886e-38
0.054598797 0.085538119 1.038 2.3509886e-38
0.057328735 0.086448096 1.038 2.3509886e-38
0.026389418 0.091907971 1.038 2.0315409e-39
0.029422686 0.090694666 1.0380001 1.9368229e-39
0.034579236 0.091907971 1.038 0
0.038674146 0.090543002 1.038 3.0388544e-39
0.041859075 0.09008801 1.0380001 1.197534e-38
0.045317002 0.089724027 1.038 2.0000352e-38
0.049684908 0.088996045 1.038 2.2864164e-38
0.054598797 0.088268057 1.038 2.3509886e-38
0.058238715 0.089178041 1.038 2.3509886e-38
0.061575308 0.089481369 1.038 2.3233299e-38
0.031849299 0.094637915 1.038 2.8025969e-45
0.034275912 0.094334595 1.038 0
0.038219158 0.093727939 1.038 0
0.041859075 0.094637915 1.038 0
0.045195669 0.094941244 1.038 0
0.031849299 0.09736786 1.038 0
0.034579236 0.098277837 1.038 0
0.045802325 0.097974509 1.038 0
0.048228938 0.099187814 1.038 0
0.033669256 0.10100777 1.038 0
0.049138919 0.10191776 1.038 0
0.045630496 0.079397067 1.041 2.3509886e-38
0.031941351 0.083047509 1.041 9.5696143e-39
0.034679182 0.083047509 1.041 2.3507401e-38
0.041980058 0.082134902 1.041 2.3509886e-38
0.045630496 0.082134902 1.041 2.3509886e-38
0.049280938 0.083047509 1.041 2.3509886e-38
0.052931376 0.083047509 1.041 2.3509886e-38
0.03102874 0.085785344 1.041 6.4680714e-40
0.034679182 0.085785344 1.041 1.0764192e-38
0.03832962 0.085785337 1.041 2.1569721e-38
0.041980058 0.085785337 1.041 2.3509886e-38
0.045630496 0.08487273 1.041 2.3509886e-38
0.049280938 0.08487273 1.041 2.3509886e-38
0.031332947 0.089131579 1.0410001 2.0275696e-39
0.034679182 0.089435779 1.041 0
0.037417009 0.089435771 1.041 9.1835496e-40
0.035591789 0.095824048 1.041 0
0.03832962 0.095824048 1.041 0
0.038025416 0.098257683 1.0410001 0
0.042284261 0.098257683 1.0410001 0
0.044717886 0.09947449 1.041 0
0.034679182 0.10221232 1.041 0
0.046543106 0.10129971 1.041 0
0.048368327 0.10312493 1.041 0
0.033766571 0.10495015 1.041 3.9236357e-44
0.049422961 0.081456356 1.044 2.3509886e-38
0.039355319 0.099761158 1.044 0
0.041185796 0.099761158 1.044 0
0.035694357 0.10342211 1.044 0
0.04313989 0.10188357 1.0470001 0
0.045499876 0.10291103 1.0450001 0
0.035796929 0.10555505 1.0470001 2.6624671e-44
0.04956498 0.10555505 1.0470001 0
0.038660996 0.10217549 1.05 0
0.041422494 0.10217549 1.05 0
0.035899498 0.10769849 1.05 0
0.038476896 0.10548929 1.0500001 1.4012985e-45
0.042649828 0.10463016 1.05 0
0.046024997 0.106778 1.05 0
0.049706995 0.10769849 1.05 0
0.052468497 0.10769849 1.05 0
0.041580297 0.10626076 1.054 0
