# .PCD v0.7 - Point Cloud Data file format
VERSION 0.7
FIELDS x y z rgb
SIZE 4 4 4 4
TYPE F F F F
COUNT 1 1 1 1
WIDTH 581
HEIGHT 1
VIEWPOINT 0 0 0 1 0 0 0
POINTS 581
DATA ascii
0.050373264 -0.046498399 1.105 2.0546038e-38
0.054248132 -0.046498399 1.105 1.9532261e-38
0.057154279 -0.046498399 1.105 1.814863e-38
0.050373264 -0.042623535 1.105 1.6392972e-38
0.054248132 -0.042623531 1.105 1.6486248e-38
0.058122996 -0.042623531 1.105 1.6301503e-38
0.047467116 -0.03777995 1.105 1.3812215e-38
0.050373264 -0.038748667 1.105 1.4179921e-38
0.054248132 -0.038748667 1.105 1.4363602e-38
0.058122996 -0.038748667 1.105 1.4087378e-38
0.047467116 -0.035842516 1.105 1.427247e-38
0.050373264 -0.034873798 1.105 1.4456149e-38
0.053925227 -0.035196707 1.105 1.4270688e-38
0.058122996 -0.034873798 1.105 1.3627122e-38
0.061997864 -0.034873798 1.105 1.2982114e-38
0.065549828 -0.034550894 1.105 1.261297e-38
0.069747597 -0.033905081 1.105 1.224418e-38
0.047467116 -0.0290615 1.105 1.2152338e-38
0.050373267 -0.030030219 1.105 1.2890622e-38
0.054054391 -0.029642731 1.105 1.2522555e-38
0.058122993 -0.030030219 1.105 1.1968305e-38
0.061997861 -0.030030219 1.105 1.1967593e-38
0.065872736 -0.030030219 1.105 1.1875396e-38
0.069747597 -0.030030219 1.105 1.1690642e-38
0.050373264 -0.025186632 1.105 1.1044914e-38
0.054248132 -0.025186632 1.105 1.1044911e-38
0.058122996 -0.025186632 1.105 1.1137464e-38
0.061997864 -0.025186632 1.105 1.113782e-38
0.065872729 -0.025186632 1.105 1.0861233e-38
0.069747597 -0.026155349 1.105 1.1228937e-38
0.05457104 -0.021634672 1.105 1.0491376e-38
0.058122996 -0.021311766 1.105 1.0307702e-38
0.061997864 -0.021311766 1.105 1.0308057e-38
0.064904019 -0.022280483 1.105 1.0676119e-38
0.055216849 -0.018405616 1.105 9.84744e-39
0.058122996 -0.018405616 1.105 9.84744e-39
0.061997864 -0.018405616 1.105 9.7556017e-39
0.054591782 -0.057516344 1.112 1.7498965e-38
0.042893544 -0.05361693 1.112 1.5469602e-38
0.046792962 -0.054591782 1.112 1.6205729e-38
0.050692372 -0.054591782 1.112 1.6482309e-38
0.054591782 -0.054591782 1.112 1.6390474e-38
0.058166247 -0.054266833 1.112 1.6482311e-38
0.062390611 -0.05361693 1.112 1.6942213e-38
0.066290021 -0.05361693 1.112 1.6389399e-38
0.070189439 -0.05361693 1.112 1.5834425e-38
0.03899413 -0.050692372 1.112 1.52852e-38
0.042816401 -0.050602954 1.11 1.5653989e-38
0.046624642 -0.050510027 1.108 1.6300436e-38
0.050510027 -0.050510027 1.108 1.685432e-38
0.054395415 -0.050510027 1.108 1.6485539e-38
0.058280803 -0.050510027 1.108 1.6484109e-38
0.062335379 -0.050647661 1.1110001 1.6299001e-38
0.066170797 -0.05060295 1.11 1.6022053e-38
0.070127197 -0.050647661 1.1110001 1.5467439e-38
0.074088857 -0.049717516 1.112 1.5189413e-38
0.038380463 -0.046565026 1.1112001 1.5284831e-38
0.042739253 -0.046624642 1.108 1.6206434e-38
0.046624638 -0.046624638 1.108 1.9805256e-38
0.05925215 -0.046624638 1.108 1.7685506e-38
0.062166184 -0.046624642 1.108 1.630186e-38
0.066051573 -0.046624642 1.108 1.5655413e-38
0.069936961 -0.046624638 1.108 1.4640189e-38
0.074088857 -0.046792962 1.112 1.4547633e-38
0.077663317 -0.046468012 1.112 1.3995889e-38
0.034056745 -0.042330727 1.11 1.5009312e-38
0.03832436 -0.042996641 1.1096001 1.4640186e-38
0.042739253 -0.04273925 1.108 1.4733097e-38
0.046624642 -0.042739253 1.108 1.6116023e-38
0.062166184 -0.042739253 1.108 1.657665e-38
0.066051573 -0.042739253 1.108 1.4915334e-38
0.069936961 -0.042739253 1.108 1.3717157e-38
0.073822349 -0.04273925 1.108 1.3534202e-38
0.077988267 -0.042893548 1.112 1.3166132e-38
0.080912821 -0.041918691 1.112 1.3074653e-38
0.033828374 -0.038209952 1.1105 1.390369e-38
0.038250722 -0.037925772 1.1093333 1.3627825e-38
0.04273925 -0.038853869 1.108 1.3258688e-38
0.046300858 -0.039177652 1.108 1.3903695e-38
0.062166184 -0.038853869 1.108 1.3810072e-38
0.066051573 -0.038853869 1.108 1.3718233e-38
0.069936961 -0.038853869 1.108 1.3166137e-38
0.073822349 -0.038853869 1.108 1.2705516e-38
0.077849753 -0.038923997 1.11 1.2614748e-38
0.081400245 -0.037531853 1.112 1.1784623e-38
0.030220453 -0.03314501 1.112 1.2337075e-38
0.034035709 -0.033065528 1.1093334 1.2612947e-38
0.039048135 -0.033608597 1.108 1.2889176e-38
0.042739253 -0.033997133 1.108 1.2796628e-38
0.046430372 -0.033608597 1.108 1.362711e-38
0.055366758 -0.033025786 1.108 1.3719312e-38
0.06702292 -0.035939828 1.108 1.2705523e-38
0.069936961 -0.035939828 1.108 1.2244187e-38
0.073822349 -0.033997133 1.108 1.1782479e-38
0.077707738 -0.033997133 1.108 1.1690995e-38
0.081887677 -0.03314501 1.112 1.1138539e-38
0.0292456 -0.029245598 1.112 1.1505162e-38
0.034035709 -0.029175466 1.1093334 1.1781034e-38
0.038853869 -0.029140398 1.108 1.1874309e-38
0.04273925 -0.029140398 1.108 1.1967225e-38
0.045653291 -0.029140398 1.108 1.2151256e-38
0.073822349 -0.029140398 1.108 1.1229658e-38
0.077707738 -0.029140398 1.108 1.1046699e-38
0.081562728 -0.028920649 1.112 1.0771186e-38
0.029245598 -0.025346186 1.112 1.0954494e-38
0.03314501 -0.025346186 1.112 1.1045979e-38
0.037948564 -0.025300015 1.11 1.1137463e-38
0.042739253 -0.025255013 1.108 1.1137105e-38
0.046624642 -0.025255011 1.108 1.1321502e-38
0.069936961 -0.024283666 1.108 1.0861226e-38
0.073822349 -0.025255013 1.108 1.0768673e-38
0.077848002 -0.025298845 1.11 1.040061e-38
0.081562728 -0.025671137 1.112 1.0125818e-38
0.02957055 -0.021771725 1.112 1.0126165e-38
0.03314501 -0.021446772 1.112 1.0309129e-38
0.037971355 -0.021421056 1.1106668 1.0308059e-38
0.04273925 -0.021369627 1.108 1.0308059e-38
0.046624642 -0.021369627 1.108 1.0492448e-38
0.050510027 -0.021369627 1.108 1.0123309e-38
0.053424068 -0.02039828 1.108 1.0215865e-38
0.06637536 -0.021045845 1.108 1.021586e-38
0.069936961 -0.021369627 1.108 1.0215857e-38
0.073889852 -0.021388037 1.109 1.0031823e-38
0.077013411 -0.022421626 1.112 9.9385496e-39
0.030220453 -0.017547358 1.112 9.0219603e-39
0.03314501 -0.017547358 1.112 9.2967689e-39
0.038019281 -0.017547358 1.112 9.4797281e-39
0.042854093 -0.017530702 1.1110001 9.5715664e-39
0.046624638 -0.01748424 1.108 9.6634005e-39
0.050510027 -0.01748424 1.108 9.4790092e-39
0.054071635 -0.017160458 1.108 9.479012e-39
0.058280803 -0.016512893 1.108 9.2957011e-39
0.062166184 -0.016512893 1.108 9.386459e-39
0.066051573 -0.01748424 1.108 9.5704874e-39
0.069936961 -0.01748424 1.108 9.6626802e-39
0.074023105 -0.017530702 1.1110001 9.295334e-39
0.034119863 -0.0146228 1.112 8.6553512e-39
0.037629336 -0.013842917 1.112 8.3769706e-39
0.043218493 -0.013972897 1.112 8.6506863e-39
0.046750002 -0.013634796 1.1110001 8.8343572e-39
0.050510027 -0.013598853 1.108 9.0187499e-39
0.054395415 -0.013598854 1.108 8.9276305e-39
0.058280803 -0.013598854 1.108 8.8368712e-39
0.062166184 -0.013598853 1.108 8.7446741e-39
0.066051573 -0.013598853 1.108 8.5599242e-39
0.070064947 -0.0136234 1.11 8.3751714e-39
0.073763907 -0.013972897 1.112 8.0985789e-39
0.046792958 -0.0097485324 1.112 8.1907759e-39
0.050645906 -0.0097388895 1.1110001 8.4680788e-39
0.054493599 -0.0097292457 1.11 8.1914878e-39
0.058439475 -0.0097388905 1.1110001 7.9159841e-39
0.062278397 -0.0097292457 1.11 7.5482791e-39
0.066170797 -0.0097292457 1.11 7.6390314e-39
0.069864489 -0.010073485 1.112 7.3610054e-39
0.073114 -0.010723387 1.112 7.4528423e-39
0.050692372 -0.0068239728 1.112 7.638307e-39
0.054916736 -0.0061740703 1.112 7.3631522e-39
0.058166247 -0.0061740703 1.112 7.086208e-39
0.061415758 -0.0068239728 1.112 7.0844171e-39
0.043009266 -0.057671517 1.115 1.768156e-38
0.046919197 -0.058648996 1.115 1.8234008e-38
0.050829131 -0.058648996 1.115 1.8234726e-38
0.054739065 -0.059626479 1.115 1.8511308e-38
0.058323171 -0.058323171 1.115 1.805249e-38
0.062558934 -0.057671517 1.115 1.7592236e-38
0.066468865 -0.057671517 1.115 1.7406412e-38
0.069401316 -0.057671517 1.115 1.6852528e-38
0.034211915 -0.053761583 1.115 1.5655774e-38
0.037470195 -0.05441324 1.115 1.5930216e-38
0.041543044 -0.055227805 1.115 1.6022054e-38
0.059626479 -0.055716548 1.115 1.6761051e-38
0.062558934 -0.055716548 1.115 1.712983e-38
0.066468865 -0.055716548 1.115 1.6575227e-38
0.070378795 -0.055716548 1.115 1.6850728e-38
0.074288733 -0.053761583 1.115 1.6019529e-38
0.034211915 -0.050829131 1.115 1.5469943e-38
0.036166884 -0.050829131 1.115 1.5470303e-38
0.074288733 -0.051806614 1.115 1.5651465e-38
0.077872835 -0.050503306 1.115 1.4914615e-38
0.033560261 -0.046593368 1.115 1.6022388e-38
0.036166884 -0.047896683 1.115 1.565576e-38
0.07917615 -0.047896683 1.115 1.4364667e-38
0.081131108 -0.046919197 1.115 1.3719659e-38
0.029324498 -0.040076815 1.115 1.3810047e-38
0.03225695 -0.043986749 1.115 1.5376297e-38
0.082434431 -0.04203178 1.115 1.2521482e-38
0.026392048 -0.037144367 1.115 1.2520392e-38
0.029324498 -0.037144367 1.115 1.2797343e-38
0.083086081 -0.038121849 1.115 1.1783911e-38
0.026392048 -0.033234432 1.115 1.2153044e-38
0.028347015 -0.033234432 1.115 1.2244879e-38
0.085041046 -0.03225695 1.115 1.0770118e-38
0.026392048 -0.029324498 1.115 1.1230007e-38
0.083086081 -0.030301981 1.115 1.0678992e-38
0.085041046 -0.030301981 1.115 1.0402406e-38
0.026392048 -0.025414566 1.115 1.0587499e-38
0.083086081 -0.024437083 1.115 9.7591806e-39
0.026392048 -0.022482116 1.115 1.0310911e-38
0.028347015 -0.02052715 1.115 1.003397e-38
0.078524493 -0.021178808 1.115 9.4800854e-39
0.081131108 -0.021504633 1.115 9.5722796e-39
0.028347015 -0.017594699 1.115 9.2985458e-39
0.077221178 -0.017594699 1.115 9.2038558e-39
0.029650327 -0.014010595 1.115 8.1957841e-39
0.032908604 -0.013358939 1.115 8.1000138e-39
0.041054297 -0.012707283 1.115 8.4652188e-39
0.07526622 -0.012707283 1.115 7.2691573e-39
0.077221178 -0.013684766 1.115 7.4535556e-39
0.033560261 -0.010100661 1.115 7.7301369e-39
0.037144367 -0.009774833 1.115 7.7287103e-39
0.042031787 -0.009774833 1.115 8.0974985e-39
0.071356282 -0.0087973494 1.115 7.0847731e-39
0.074288733 -0.009774833 1.115 7.2691573e-39
0.043986749 -0.0068423832 1.115 7.4531954e-39
0.046919197 -0.0058648996 1.115 7.0858408e-39
0.050829131 -0.0048874165 1.115 6.7202869e-39
0.053761583 -0.0048874165 1.115 6.9958074e-39
0.059626479 -0.0048874165 1.115 6.7199338e-39
0.062884763 -0.0055390722 1.115 6.7181401e-39
0.066468865 -0.0068423832 1.115 6.9922173e-39
0.069401316 -0.0068423832 1.115 7.1758897e-39
0.083086081 -0.0058648996 1.115 4.8824321e-39
0.085041046 -0.0058648996 1.115 6.1735297e-39
0.046919197 -0.0029324498 1.115 6.6284444e-39
0.050829135 -0.0019549667 1.115 5.7997599e-39
0.055064894 -0.0022807945 1.115 6.1681949e-39
0.058323171 -0.0022807945 1.115 6.2600332e-39
0.061581451 -0.0029324498 1.115 6.5362614e-39
0.051011477 -0.069650285 1.119 1.8234367e-38
0.054935433 -0.069650285 1.119 1.7957784e-38
0.070631273 -0.070631273 1.119 1.7223096e-38
0.073574245 -0.070631273 1.119 1.5379908e-38
0.050422885 -0.066511117 1.119 1.8326202e-38
0.054935433 -0.066707313 1.119 1.795886e-38
0.041528575 -0.062456362 1.119 1.8693186e-38
0.045125537 -0.06278336 1.119 1.9801669e-38
0.050030485 -0.062783353 1.119 2.0356269e-38
0.054935433 -0.06278336 1.119 1.9803104e-38
0.058859393 -0.062783353 1.119 1.8513102e-38
0.062783353 -0.06278336 1.119 1.8143608e-38
0.066380322 -0.062456362 1.119 1.7958143e-38
0.069650285 -0.061802361 1.119 1.7957067e-38
0.079460189 -0.061802361 1.119 1.5472459e-38
0.082403153 -0.061802361 1.119 1.4551193e-38
0.034334645 -0.058859393 1.119 1.8418038e-38
0.037277617 -0.058859393 1.119 1.8327277e-38
0.040874582 -0.059186392 1.119 1.8327279e-38
0.044144548 -0.059840385 1.119 1.8602068e-38
0.059840385 -0.059840385 1.119 1.8238313e-38
0.062783353 -0.059840385 1.119 1.7592236e-38
0.066707313 -0.059840385 1.119 1.7497889e-38
0.070958272 -0.059186392 1.119 1.7035123e-38
0.074555233 -0.058859393 1.119 1.657558e-38
0.078479193 -0.058859393 1.119 1.556358e-38
0.082403153 -0.059840385 1.119 1.4735955e-38
0.029429698 -0.054935433 1.119 1.6482646e-38
0.033026662 -0.055262432 1.119 1.6668487e-38
0.036296628 -0.055916425 1.119 1.6757824e-38
0.074555233 -0.055916425 1.119 1.6482651e-38
0.078152195 -0.054608442 1.119 1.5285188e-38
0.026486728 -0.049049497 1.119 1.4825282e-38
0.0294297 -0.050030485 1.119 1.5286619e-38
0.032372668 -0.050030492 1.119 1.5377743e-38
0.079460189 -0.051992469 1.119 1.4824925e-38
0.082730152 -0.049376495 1.119 1.4088077e-38
0.026486728 -0.045125537 1.119 1.4639455e-38
0.029429698 -0.045125537 1.119 1.5286616e-38
0.083384141 -0.045125537 1.119 1.2981727e-38
0.086000115 -0.044798546 1.119 1.2429272e-38
0.025505736 -0.041201577 1.119 1.3533104e-38
0.029429698 -0.042182565 1.119 1.4456142e-38
0.086327113 -0.041201577 1.119 1.1785347e-38
0.02158178 -0.037277617 1.119 1.2151245e-38
0.024524748 -0.037277617 1.119 1.2336358e-38
0.086327113 -0.03727762 1.119 1.1415839e-38
0.02158178 -0.033353657 1.119 1.1508029e-38
0.024524748 -0.033353657 1.119 1.1692064e-38
0.086654112 -0.033680655 1.119 1.095486e-38
0.090251073 -0.032372668 1.119 1.0036461e-38
0.02158178 -0.0294297 1.119 1.1138519e-38
0.024524748 -0.029429698 1.119 1.1137812e-38
0.086654112 -0.029102704 1.119 1.0311275e-38
0.089924082 -0.029756695 1.119 9.5769263e-39
0.021581778 -0.025505736 1.119 1.0403823e-38
0.024524748 -0.025505738 1.119 1.0495305e-38
0.086327113 -0.025505738 1.119 9.7598967e-39
0.090251073 -0.025505738 1.119 8.1957617e-39
0.094175033 -0.024524748 1.119 5.2494154e-39
0.022562768 -0.021581778 1.119 9.7587995e-39
0.025178742 -0.021254783 1.119 9.9432019e-39
0.083384141 -0.021581778 1.119 9.2992744e-39
0.086327113 -0.02158178 1.119 9.0241197e-39
0.090251073 -0.02158178 1.119 6.3536372e-39
0.093848035 -0.021908775 1.119 4.6976709e-39
0.025832735 -0.017984815 1.119 9.3921833e-39
0.079460189 -0.017657818 1.119 8.5602801e-39
0.082403153 -0.017657818 1.119 7.7333767e-39
0.086327113 -0.017657818 1.119 6.9993751e-39
0.090251073 -0.017657818 1.119 6.448683e-39
0.093194038 -0.018638808 1.119 6.725965e-39
0.026486728 -0.013733858 1.119 8.561687e-39
0.028448708 -0.012752868 1.119 7.9163218e-39
0.079460189 -0.013733858 1.119 6.9950731e-39
0.082403153 -0.013733858 1.119 6.9046656e-39
0.086327113 -0.013733858 1.119 6.8160362e-39
0.090251073 -0.013733858 1.119 6.9107234e-39
0.026486728 -0.010790889 1.119 7.3634885e-39
0.029429698 -0.0098098991 1.119 6.9947214e-39
0.032372668 -0.0088289091 1.119 7.2702335e-39
0.075536221 -0.0088289091 1.119 6.7188548e-39
0.078479193 -0.0098098991 1.119 6.6277185e-39
0.082403153 -0.0098098991 1.119 6.2621436e-39
0.086327113 -0.0098098991 1.119 6.3572021e-39
0.089270085 -0.010790889 1.119 7.4653447e-39
0.034334645 -0.0068669296 1.119 7.0851206e-39
0.037277617 -0.0058859396 1.119 6.8099728e-39
0.041201577 -0.0058859396 1.119 7.1773176e-39
0.044144548 -0.0049049496 1.119 7.0851206e-39
0.066707313 -0.0049049496 1.119 6.6266592e-39
0.070958272 -0.0055589429 1.119 6.442621e-39
0.074228242 -0.0062129362 1.119 5.7986809e-39
0.079460189 -0.0068669296 1.119 5.2494308e-39
0.081422165 -0.0068669296 1.119 5.1568764e-39
0.038258608 -0.0019619798 1.119 5.4309718e-39
0.041201577 -0.0019619798 1.119 5.7990383e-39
0.044798546 -0.0016349832 1.119 6.1660313e-39
0.048068505 -0.00098098989 1.119 5.6139267e-39
0.053954445 -0.00098098989 1.119 5.062555e-39
0.059840385 -0.00098098989 1.119 5.7079273e-39
0.063110352 -0.0016349832 1.119 5.1554807e-39
0.066380322 -0.0022889765 1.119 4.9721671e-39
0.069650285 -0.0029429698 1.119 5.0643529e-39
0.041201577 0.00098098989 1.119 4.6051544e-39
0.046106528 0.0019619798 1.119 4.1420295e-39
0.049539994 0.0014714848 1.119 4.4182632e-39
0.053954445 0.00098098989 1.119 4.604451e-39
0.059840385 0.0019619798 1.119 3.0363854e-39
0.061802361 0.0019619798 1.119 2.5768421e-39
0.063007787 -0.073837243 1.123 1.7681555e-38
0.065961279 -0.073837243 1.123 1.6761033e-38
0.042333357 -0.069899261 1.123 1.9617998e-38
0.045286845 -0.069899261 1.123 1.8787532e-38
0.048896667 -0.071211927 1.123 1.8510591e-38
0.053162821 -0.071868256 1.123 1.7957784e-38
0.057428971 -0.071211927 1.123 1.8326561e-38
0.062023293 -0.070883766 1.1230001 1.8512743e-38
0.066945776 -0.070883758 1.123 1.8145401e-38
0.041677028 -0.066617608 1.123 1.8418397e-38
0.045286845 -0.066945769 1.123 1.8324409e-38
0.048240334 -0.067930266 1.123 1.8325485e-38
0.058085304 -0.066945776 1.123 1.8512384e-38
0.062023293 -0.066945776 1.1230001 1.8419473e-38
0.066945776 -0.066945769 1.123 1.851095e-38
0.070883758 -0.066945769 1.123 1.8511667e-38
0.07482174 -0.066945769 1.123 1.6392975e-38
0.030519394 -0.060054291 1.123 1.7588269e-38
0.033472888 -0.06202329 1.123 1.7587571e-38
0.03741087 -0.063007787 1.123 1.7862719e-38
0.040364362 -0.063992284 1.123 1.8048185e-38
0.067930266 -0.063992284 1.123 1.8509873e-38
0.071211927 -0.063335955 1.123 1.8326917e-38
0.07482174 -0.063007787 1.123 1.7406408e-38
0.078267485 -0.062515534 1.123 1.5471746e-38
0.086635709 -0.060054291 1.123 1.4464364e-38
0.025596913 -0.056116309 1.123 1.5746511e-38
0.029534899 -0.058085304 1.123 1.7035818e-38
0.032488391 -0.058085304 1.123 1.7403901e-38
0.079744235 -0.057100806 1.123 1.5379182e-38
0.082697719 -0.057100806 1.123 1.4365024e-38
0.086635709 -0.057100806 1.123 1.353848e-38
0.089589193 -0.056116309 1.123 1.5938087e-38
0.025596913 -0.053162821 1.123 1.5378811e-38
0.082697719 -0.053162821 1.123 1.427211e-38
0.086635709 -0.053162821 1.123 1.3259743e-38
0.089589193 -0.054147318 1.123 1.5199429e-38
0.021987094 -0.048896667 1.123 1.4548327e-38
0.024612416 -0.049224831 1.123 1.4456141e-38
0.086635709 -0.049224831 1.123 1.29828e-38
0.018705435 -0.044302348 1.123 1.3165031e-38
0.021658927 -0.045286845 1.123 1.371821e-38
0.024612416 -0.045286845 1.123 1.3533107e-38
0.087620199 -0.046271343 1.123 1.2523254e-38
0.089589193 -0.045286845 1.123 1.1785692e-38
0.018705435 -0.04134886 1.123 1.2612579e-38
0.021658927 -0.04134886 1.123 1.2888452e-38
0.090573683 -0.04134886 1.123 1.1049921e-38
0.093527183 -0.040364362 1.123 1.4001253e-38
0.017720938 -0.03741087 1.123 1.1783896e-38
0.090573691 -0.03741087 1.123 1.0865167e-38
0.093527183 -0.038395368 1.123 1.427747e-38
0.01476745 -0.033472888 1.123 1.1140299e-38
0.017720938 -0.033472888 1.123 1.1231791e-38
0.090573691 -0.034457382 1.123 1.049637e-38
0.01476745 -0.029534899 1.123 1.0035042e-38
0.017720938 -0.029534899 1.123 1.0402036e-38
0.091558188 -0.028550403 1.123 7.8284295e-39
0.093527183 -0.028550403 1.123 4.6015825e-39
0.01476745 -0.02658141 1.123 9.3936071e-39
0.017720938 -0.025596913 1.123 9.8520769e-39
0.094511673 -0.02658141 1.123 4.8802825e-39
0.017720938 -0.021658927 1.123 9.2988849e-39
0.02067443 -0.021658927 1.123 9.7587995e-39
0.021987094 -0.018049104 1.123 8.8393529e-39
0.024612416 -0.016736442 1.123 9.02447e-39
0.022643423 -0.013782954 1.123 7.5457302e-39
0.024612416 -0.013782954 1.123 8.0085132e-39
0.022643423 -0.010829464 1.123 6.5365949e-39
0.025268748 -0.0095168008 1.123 6.9021432e-39
0.02658141 -0.0068914765 1.123 6.4411567e-39
0.029534899 -0.0059069796 1.123 6.1663845e-39
0.033144724 -0.0055788141 1.123 6.349345e-39
0.075806238 -0.0049224831 1.123 4.2359795e-39
0.078431569 -0.0055788141 1.123 4.6036999e-39
0.081713222 -0.0049224831 1.123 4.5122133e-39
0.033801053 -0.0022971588 1.123 5.2480141e-39
0.036426377 -0.0019689933 1.123 5.5228087e-39
0.067930266 -0.00098449667 1.123 3.1282475e-39
0.071211927 -0.0016408277 1.123 2.7605271e-39
0.07449358 -0.0022971588 1.123 3.1307292e-39
0.07875973 -0.0029534898 1.123 3.3168959e-39
0.082697719 -0.0029534898 1.123 4.0555357e-39
0.038395368 0.0019689933 1.123 2.6704643e-39
0.04134886 0.0029534898 1.123 1.1949699e-39
0.044302348 0.0019689933 1.123 3.8654412e-39
0.050209329 0.0029534898 1.123 2.759109e-39
0.053162821 0.0029534898 1.123 3.1282475e-39
0.057100806 0.0019689933 1.123 3.4048162e-39
0.063992284 0.0019689933 1.123 2.116573e-39
0.066945769 0.0019689933 1.123 1.3797241e-39
0.070555598 0.0016408277 1.123 1.2868082e-39
0.050209329 0.0049224831 1.123 1.7496066e-39
0.053162821 0.0049224831 1.123 2.0229537e-39
0.057100806 0.0059069796 1.123 9.1835496e-41
0.06202329 0.0057100803 1.123 9.1842503e-41
0.065961279 0.0059069796 1.123 3.6770072e-40
0.045407824 -0.07206025 1.126 1.8971921e-38
0.037510812 -0.06811174 1.126 1.924958e-38
0.040472191 -0.069098867 1.126 1.9249221e-38
0.02665242 -0.06416323 1.126 1.6669907e-38
0.0296138 -0.06416323 1.126 1.7682244e-38
0.033233263 -0.065479398 1.1260002 1.8418397e-38
0.037510812 -0.066137485 1.126 1.8604579e-38
0.077983007 -0.066137485 1.126 1.5563226e-38
0.02665242 -0.061201856 1.126 1.6575913e-38
0.029284758 -0.061530899 1.1260002 1.7035094e-38
0.025665294 -0.058240477 1.126 1.6023101e-38
0.022703912 -0.05330484 1.126 1.5377732e-38
0.091144696 -0.0529758 1.1260002 1.4650891e-38
0.020729661 -0.050343461 1.126 1.4456138e-38
0.090815648 -0.049356334 1.126 1.3079639e-38
0.094764158 -0.048369206 1.126 1.576118e-38
0.018755406 -0.046394952 1.126 1.3627804e-38
0.091802776 -0.045407824 1.126 1.1791781e-38
0.094764158 -0.045407828 1.126 1.5576063e-38
0.016781153 -0.040472191 1.126 1.2428188e-38
0.093777031 -0.042446446 1.126 1.5569288e-38
0.0148069 -0.036523689 1.126 1.1416891e-38
0.012832646 -0.033562303 1.126 1.1048103e-38
0.012832646 -0.030600928 1.126 1.0310911e-38
0.0148069 -0.024678167 1.126 9.393935e-39
0.0148069 -0.021716787 1.126 8.5627338e-39
0.0148069 -0.018755406 1.126 8.0106278e-39
0.017768279 -0.018755406 1.126 8.5613198e-39
0.020729661 -0.016781153 1.126 8.1914695e-39
0.0148069 -0.013819773 1.126 5.6164239e-39
0.017768279 -0.013819773 1.126 6.7199072e-39
0.020729661 -0.013819773 1.126 7.3609802e-39
0.017768279 -0.010858393 1.126 5.1550814e-39
0.021387747 -0.0095422249 1.1260002 6.0756168e-39
0.025665294 -0.0059227599 1.126 6.1660089e-39
0.029942844 -0.0023032958 1.1260002 4.5111483e-39
0.032575179 -0.00098712661 1.126 4.6955536e-39
0.077983007 -0.00098712672 1.1260002 2.9466953e-39
0.081931509 -0.00098712661 1.126 4.5172327e-39
0.03454943 0.00098712661 1.126 4.8792035e-39
0.036523689 0.00098712661 1.126 4.6058705e-39
0.073376417 0.0023032958 1.1260002 1.5641027e-39
0.078970134 0.0019742534 1.126 3.5023703e-39
0.046394952 0.0059227599 1.126 6.4358275e-40
0.049027294 0.0062518022 1.1260002 3.6807907e-40
0.05330484 0.0069098868 1.126 0
0.062188979 0.0069098868 1.126 1.836766e-40
0.069098867 0.0059227599 1.126 1.2878718e-39
0.07206025 0.0049356334 1.126 1.6566445e-39
0.057253346 0.0088841403 1.126 9.1835496e-41
0.061201856 0.0088841403 1.126 1.0101905e-39
0.065150358 0.0088841403 1.126 1.5622796e-39
0.026747098 -0.068353698 1.13 1.5934142e-38
0.029718999 -0.068353698 1.13 1.7498576e-38
0.033681531 -0.068353698 1.13 1.888044e-38
0.021793932 -0.065381795 1.13 1.4921051e-38
0.025426254 -0.065712005 1.13 1.6207131e-38
0.029718999 -0.066372432 1.13 1.7958479e-38
0.021793932 -0.061419263 1.13 1.5287339e-38
0.024765832 -0.061419263 1.13 1.6391881e-38
0.021793932 -0.057456728 1.13 1.5652169e-38
0.017831398 -0.0534942 1.13 1.4454695e-38
0.020803299 -0.0534942 1.13 1.4824559e-38
0.094110161 -0.052503563 1.13 1.658914e-38
0.017831398 -0.049531665 1.13 1.3903671e-38
0.094110161 -0.050522298 1.13 1.6770292e-38
0.016840765 -0.045569129 1.13 1.3258304e-38
0.0148595 -0.040615965 1.13 1.2060829e-38
0.016840765 -0.042597231 1.13 1.2796971e-38
0.013538655 -0.037974279 1.13 1.1417252e-38
0.010896967 -0.033681531 1.13 9.9453375e-39
0.010896967 -0.029718999 1.13 9.6705261e-39
0.012878233 -0.028728366 1.13 1.0128318e-38
0.010896967 -0.025756465 1.13 8.9340092e-39
0.012878233 -0.025756465 1.13 9.3017547e-39
0.010896967 -0.021793932 1.13 7.5528446e-39
0.012878233 -0.021793932 1.13 8.2861469e-39
0.013538655 -0.017501188 1.13 6.813881e-39
0.017831398 -0.016840765 1.13 7.4556841e-39
0.018822031 -0.0089157 1.13 4.877756e-39
0.021793932 -0.0059437994 1.13 4.2295055e-39
0.024765832 -0.0049531665 1.13 4.9692636e-39
0.026747098 -0.0029718997 1.13 5.0621473e-39
0.028728366 -0.00099063327 1.13 1.8371009e-39
0.029718999 0.00099063327 1.13 8.2796981e-40
0.032690898 0.00099063327 1.13 3.0352909e-39
0.076278768 0.0019812665 1.13 1.5648356e-39
0.082222566 0.00099063327 1.13 4.5175859e-39
0.042597231 0.0049531665 1.13 8.2654609e-40
0.044578496 0.0049531665 1.13 1.4715568e-39
0.074297495 0.0049531665 1.13 1.9335901e-39
0.022865217 -0.068595655 1.1339999 1.335946e-38
0.025847636 -0.069589794 1.1339999 1.4645186e-38
0.028830057 -0.070583932 1.1339999 1.5468848e-38
0.018888658 -0.061636671 1.1339999 1.4185277e-38
0.014912098 -0.056665979 1.1339999 1.2895965e-38
0.018225899 -0.057328742 1.1340001 1.4455421e-38
0.014249339 -0.053352177 1.1340001 1.3444128e-38
0.013917958 -0.049706995 1.1339999 1.3074989e-38
0.0099413991 -0.045730434 1.1339999 1.2065471e-38
0.013917958 -0.045730434 1.1339999 1.2521817e-38
0.0099413991 -0.041753877 1.1339999 1.1695264e-38
0.013586579 -0.042085256 1.1340001 1.2153746e-38
0.0099413991 -0.037777316 1.1339999 1.031449e-38
0.0089472588 -0.033800758 1.1339999 9.9453375e-39
0.0089472588 -0.029824197 1.1339999 9.2091892e-39
0.0089472588 -0.025847636 1.1339999 7.6436305e-39
0.0089472588 -0.022865217 1.1339999 7.2744724e-39
0.025847636 -0.0019882799 1.1339999 2.1147514e-39
0.026841776 0.00099413993 1.1339999 0
0.034794897 0.0029824199 1.1339999 7.3469938e-40
0.036783174 0.0029824199 1.1339999 6.4285968e-40
0.040759739 0.0049706995 1.1339999 3.673602e-40
0.072572216 0.0069589796 1.1339999 2.7633522e-39
0.010309016 -0.049549785 1.138 1.2805857e-38
0.0069835265 -0.045891743 1.138 1.2902718e-38
0.0069835265 -0.04190116 1.138 1.0967681e-38
0.0069835265 -0.037910573 1.138 1.0043222e-38
0.0069835265 -0.033919986 1.138 9.2134463e-39
0.0069835265 -0.029929399 1.138 8.1967875e-39
0.0069835265 -0.025938813 1.138 6.267149e-39
0.022280775 -0.0023278422 1.138 1.653769e-39
0.024941167 -0.0009976466 1.138 7.3468397e-40
0.024941167 0.0009976466 1.138 1.8367099e-40
0.030927045 0.0029929399 1.138 9.185091e-41
0.032922339 0.0029929399 1.138 2.7551349e-40
0.038908217 0.0049882331 1.138 1.4012985e-45
0.042898808 0.0069835265 1.138 0
0.044894096 0.0069835265 1.138 0
0.074823499 0.0069835265 1.138 3.6849483e-39
0.077816434 0.0049882331 1.138 3.3172448e-39
0.0050013829 -0.034009404 1.141 5.3408711e-39
0.0030008301 -0.031008577 1.141 5.2508349e-39
0.0050013829 -0.031008577 1.141 6.258873e-39
0.035009682 0.0050013829 1.141 4.5918589e-40
0.037010238 0.0050013829 1.141 9.18397e-41
0.0050189164 -0.037139978 1.145 5.3401761e-39
0.033124849 0.0050189164 1.145 4.5918589e-40
0.041155115 0.0070264824 1.145 1.4012985e-45
0.050189164 0.0090340497 1.145 9.1835496e-41
0.0030218698 -0.03726973 1.149 3.9626142e-39
0.0030218698 -0.035255149 1.149 3.2264939e-39
0.029211411 0.0030218698 1.149 7.3470919e-40
0.030218702 0.00503645 1.149 4.6062782e-40
0.035255149 0.0070510297 1.149 6.4287089e-40
0.038277019 0.0070510297 1.149 9.18397e-41
