# .PCD v0.7 - Point Cloud Data file format
VERSION 0.7
FIELDS x y z rgb
SIZE 4 4 4 4
TYPE F F F F
COUNT 1 1 1 1
WIDTH 673
HEIGHT 1
VIEWPOINT 0 0 0 1 0 0 0
POINTS 673
DATA ascii
0.017898025 0.12772682 0.92799997 1.4184966e-38
0.021152213 0.12772682 0.92799997 1.3819776e-38
0.015457386 0.130981 0.92799997 1.344488e-38
0.017898025 0.13016745 0.92799997 1.3537806e-38
0.021965757 0.13016745 0.92799997 1.3264453e-38
0.014295178 0.13446765 0.92800003 1.2706958e-38
0.017898027 0.1342352 0.92799997 1.2892425e-38
0.021965759 0.13423519 0.92799991 1.2525799e-38
0.026033495 0.1342352 0.92799997 1.2247777e-38
0.029897839 0.13443859 0.92799997 1.2062309e-38
0.033355411 0.13586229 0.92799997 1.169281e-38
0.013830293 0.13830292 0.92799997 1.1878277e-38
0.017898025 0.13830292 0.92799997 1.1878276e-38
0.021965757 0.13830292 0.92799997 1.1971185e-38
0.026033491 0.13830292 0.92799997 1.1418371e-38
0.030101225 0.13830292 0.92799997 1.1509129e-38
0.033355411 0.13830292 0.92799997 1.1600602e-38
0.0073219188 0.1431842 0.92799997 1.0957016e-38
0.0099252686 0.14269607 0.92799997 1.1417641e-38
0.013830293 0.14237066 0.92799991 1.1510204e-38
0.017898027 0.14237064 0.92799997 1.1233983e-38
0.021965759 0.14237066 0.92799991 1.0864839e-38
0.026033491 0.14237066 0.92799997 1.067973e-38
0.030101227 0.14237066 0.92799991 1.0772282e-38
0.033355411 0.14074355 0.92799997 1.1326523e-38
0.0073219188 0.14643839 0.92799997 9.0209121e-39
0.0097625591 0.1464384 0.92799997 9.0216338e-39
0.013830293 0.1464384 0.92799997 1.0221968e-38
0.017898025 0.14643839 0.92799997 1.0313454e-38
0.021965761 0.1464384 0.92799997 1.0312377e-38
0.02576231 0.14616722 0.92799997 9.9443174e-39
0.030426642 0.14627568 0.92799997 1.0219818e-38
0.0073219188 0.14887902 0.92799997 8.5628024e-39
0.010033742 0.14942139 0.92799997 8.5628038e-39
0.013830293 0.14969258 0.92799997 8.469532e-39
0.017898025 0.14969257 0.92799997 9.5747978e-39
0.02164034 0.14952986 0.92799997 9.3011017e-39
0.025219945 0.14887902 0.92799997 9.4854874e-39
0.015457386 0.15213321 0.92799997 8.6528372e-39
0.017898025 0.15294677 0.92799997 8.2869344e-39
0.021152213 0.15294677 0.92799997 8.2872917e-39
0.0097835995 0.12637149 0.93000001 1.3628562e-38
0.014186218 0.12571925 0.93000001 1.4460126e-38
0.017936599 0.1255562 0.93000001 1.5198033e-38
0.021686979 0.12571926 0.93000001 1.5567529e-38
0.0057071 0.130448 0.93000001 1.344596e-38
0.0097835995 0.1296327 0.93000001 1.3353409e-38
0.013656275 0.12942888 0.92999995 1.3538157e-38
0.023643699 0.12800209 0.93000001 1.446155e-38
0.026089599 0.12963271 0.93000001 1.3539239e-38
0.030166097 0.13044798 0.93000001 1.3076462e-38
0.033970833 0.13071975 0.93000001 1.2984263e-38
0.0057071 0.13370919 0.93000001 1.307717e-38
0.0097835995 0.13370919 0.93000001 1.2707678e-38
0.012229499 0.13370919 0.93000001 1.2522932e-38
0.031796698 0.13289389 0.93000001 1.2523644e-38
0.0342426 0.13370919 0.93000001 1.2338531e-38
0.036688495 0.13370919 0.93000001 1.261655e-38
0.0024458999 0.13941629 0.93000001 1.1509826e-38
0.0057071 0.1377857 0.93000001 1.2248123e-38
0.0097836014 0.1377857 0.93000001 1.2432164e-38
0.035057899 0.1377857 0.93000001 1.1692802e-38
0.036688499 0.1377857 0.93000001 1.1509838e-38
0.0024458999 0.1418622 0.93000001 1.0219811e-38
0.0053809802 0.14169914 0.93000001 1.0865186e-38
0.0089683002 0.1410469 0.93000001 1.1603113e-38
0.034514368 0.14213398 0.93000001 1.0588241e-38
0.036688495 0.1410469 0.93000001 1.0864106e-38
0.0024458999 0.14593869 0.93000001 8.8386746e-39
0.0048917998 0.14593869 0.93000001 9.1138294e-39
0.0269049 0.1475693 0.93000001 1.0128339e-38
0.028535498 0.1475693 0.93000001 1.0128339e-38
0.0342426 0.14593869 0.93000001 9.9428698e-39
0.0062506339 0.15028697 0.93000001 8.3791286e-39
0.0089683002 0.15083049 0.93000001 8.4706068e-39
0.023643699 0.15083049 0.93000001 9.2092564e-39
0.026361367 0.15028697 0.93000001 9.4854832e-39
0.030166101 0.15001521 0.93000001 9.0245064e-39
0.033427298 0.1491999 0.93000001 9.4808183e-39
0.0073376996 0.1524611 0.93000001 8.1943772e-39
0.010055367 0.15300463 0.93000001 8.1943758e-39
0.013860101 0.1540917 0.93000001 8.0096244e-39
0.017936599 0.15572229 0.93000001 7.9167141e-39
0.022665339 0.15474394 0.93000001 8.2865729e-39
0.026089599 0.1540917 0.93000001 8.2865785e-39
0.029839978 0.15311335 0.93000001 8.3776979e-39
0.017936599 0.15735289 0.93000001 7.640479e-39
0.022013098 0.15735289 0.93000001 7.6415538e-39
0.026089599 0.15735289 0.93000001 7.549005e-39
0.015573982 0.11557535 0.935 1.6395505e-38
0.018033031 0.11557535 0.935 1.6304386e-38
0.021803576 0.1149196 0.93500006 1.6027086e-38
0.026229866 0.11557535 0.935 1.5657951e-38
0.030328281 0.11557536 0.93500006 1.5289527e-38
0.0057377834 0.11885408 0.93500006 1.5198756e-38
0.010109427 0.11830762 0.93500006 1.5751214e-38
0.013934618 0.11803439 0.93500006 1.6582045e-38
0.018033031 0.11803439 0.935 1.6580968e-38
0.02213145 0.11803439 0.93500006 1.6120715e-38
0.026229866 0.11803439 0.935 1.5566833e-38
0.030328279 0.11803439 0.93500006 1.5106935e-38
-0.00081968331 0.12295249 0.935 1.4645929e-38
0.0016393666 0.12213282 0.93500006 1.4645222e-38
0.0057346658 0.12207399 0.93455559 1.4921807e-38
0.0098291859 0.12204456 0.93433332 1.5290229e-38
0.013917668 0.12198651 0.93388897 1.6305458e-38
0.01799446 0.12187156 0.93300003 1.686042e-38
0.022084109 0.12187157 0.93300003 1.6954049e-38
0.02621175 0.12204514 0.93433332 1.6768225e-38
0.030328281 0.12213282 0.935 1.5292031e-38
0.0344267 0.12213282 0.93500006 1.4183902e-38
0.037432205 0.12322572 0.93500006 1.3629994e-38
-0.00081968331 0.12623122 0.935 1.4460817e-38
0.0016393666 0.12623122 0.935 1.399985e-38
0.0057255104 0.12596121 0.93300003 1.4090254e-38
0.0098151602 0.12514329 0.93300003 1.4089532e-38
0.01226895 0.12514329 0.93300003 1.5195518e-38
0.02371997 0.12514329 0.93300003 1.6398011e-38
0.026173759 0.12596121 0.93300003 1.5383505e-38
0.030295845 0.12609535 0.93400002 1.4737771e-38
0.03438988 0.12609535 0.93400002 1.3630001e-38
0.037705433 0.12623122 0.935 1.3445599e-38
0.040984165 0.12705091 0.935 1.2985331e-38
-0.0046448722 0.13142256 0.93500006 1.2893853e-38
-0.0016387822 0.13023613 0.93433332 1.3263353e-38
0.0016358601 0.13005088 0.93300003 1.3630705e-38
0.0057255104 0.12841502 0.93300003 1.3813308e-38
0.030263409 0.12841502 0.93300003 1.3998055e-38
0.034625702 0.1289603 0.93300003 1.3259415e-38
0.037651666 0.13014261 0.93366671 1.2894223e-38
0.04133546 0.13056386 0.93500006 1.2157371e-38
-0.0054099103 0.13459198 0.93500006 1.1510186e-38
-0.0016389284 0.13435662 0.93449998 1.2156274e-38
0.0016358598 0.13414052 0.93300003 1.2801652e-38
0.038442709 0.13414052 0.93300003 1.1602757e-38
0.041803848 0.13442805 0.93500006 1.1509842e-38
-0.0057377829 0.1377068 0.93500006 1.0494962e-38
-0.0016381978 0.13842654 0.93433344 1.1048134e-38
0.0014722738 0.13790299 0.93300003 1.1694585e-38
0.038442709 0.13823017 0.93300003 1.1325448e-38
0.041803848 0.13770679 0.93500006 1.1050655e-38
-0.0057377825 0.14180522 0.935 9.2985654e-39
-0.0016376132 0.14247324 0.93400002 9.4818889e-39
0.00081792998 0.14231983 0.93300003 9.9432243e-39
0.037897423 0.14259247 0.93300003 1.058752e-38
0.041598924 0.14201014 0.935 1.0311655e-38
-0.0049180998 0.14590362 0.935 8.7468293e-39
-0.0016389283 0.14582516 0.93450004 8.6560785e-39
0.00081792998 0.14559153 0.93300003 9.0227086e-39
0.037624776 0.14559153 0.93300003 9.8503126e-39
0.041475978 0.14573967 0.93500006 9.4840455e-39
-0.0045082583 0.14959221 0.935 8.1018201e-39
-0.0016387822 0.14989568 0.93433332 8.102183e-39
0.001472274 0.15000837 0.93300003 8.19438e-39
0.0040896498 0.15049912 0.93300003 8.2872917e-39
0.034625702 0.15077177 0.93300003 9.0230687e-39
0.037678551 0.14989625 0.93433332 9.207083e-39
0.040984169 0.15000205 0.93500006 8.5645961e-39
-0.0040984168 0.15328078 0.935 7.550063e-39
-0.0016393666 0.15410046 0.935 7.6419041e-39
0.0016376132 0.15393654 0.93400002 8.0085426e-39
0.0053983382 0.15393442 0.93300003 7.9177861e-39
0.0089972299 0.15458877 0.93300003 8.0099846e-39
0.03189927 0.15458877 0.93300003 8.8357992e-39
0.034390755 0.15393566 0.93400002 8.5617234e-39
0.037705433 0.15410046 0.935 8.3791272e-39
0.040164482 0.15410046 0.935 8.1036165e-39
-0.0013661388 0.15710597 0.93500006 7.1809175e-39
0.0018033034 0.15787101 0.93500006 7.1802057e-39
0.0057319389 0.15804964 0.93411118 7.2720482e-39
0.009822173 0.15797445 0.93366671 7.3642466e-39
0.013671117 0.15832788 0.93300009 7.4560863e-39
0.01799446 0.15949635 0.93300003 7.3646026e-39
0.022084113 0.15949635 0.93300003 7.5500644e-39
0.026173759 0.15949635 0.93300003 7.1812875e-39
0.030278606 0.15793607 0.93344456 7.5497197e-39
0.0344267 0.15819889 0.93500006 7.5497141e-39
0.03688575 0.1573792 0.935 7.641551e-39
0.0024590499 0.16147761 0.935 6.167832e-39
0.0060656569 0.16213337 0.93500006 6.4422735e-39
0.0098361988 0.16229729 0.935 6.717787e-39
0.013934618 0.16229731 0.93500006 7.0865779e-39
0.018013746 0.1621246 0.93400002 7.2709664e-39
0.02211567 0.16218218 0.93433332 6.8125008e-39
0.026216278 0.16221096 0.93449998 6.9043363e-39
0.030000407 0.16213337 0.93500006 6.8117805e-39
0.0073771495 0.16475634 0.935 5.6157316e-39
0.0098361988 0.16557604 0.935 5.8915926e-39
0.013934616 0.16557604 0.93500006 6.3504254e-39
0.018033031 0.16557604 0.935 6.0752776e-39
0.021803578 0.16541211 0.93500006 6.2596689e-39
0.025410183 0.16475634 0.935 6.628457e-39
0.022249801 0.10795274 0.94 1.7226688e-38
0.010712867 0.111249 0.94 1.6855758e-38
0.014338759 0.11058974 0.94 1.667137e-38
0.018129466 0.11042493 0.94 1.694867e-38
0.022226131 0.11030658 0.93900007 1.676464e-38
0.026370132 0.11042492 0.94 1.658061e-38
0.029666398 0.111249 0.94 1.6211116e-38
-0.00082406664 0.11454526 0.94 1.5290232e-38
0.0016457955 0.11438163 0.93866676 1.5657582e-38
0.0057561928 0.11430156 0.93800002 1.5843407e-38
0.0098677594 0.11430155 0.93800008 1.6120355e-38
0.013773748 0.11409597 0.93800008 1.6211834e-38
0.018090893 0.11347924 0.93800002 1.6303665e-38
0.022613617 0.11306808 0.93800002 1.6210399e-38
0.026314026 0.11347924 0.93800002 1.6025651e-38
0.029634841 0.11359934 0.93900001 1.5933816e-38
0.033714846 0.11539797 0.93800008 1.4918942e-38
-0.0052176276 0.11834854 0.93966669 1.5106911e-38
-0.0016466721 0.117715 0.93900007 1.5198395e-38
0.0016446267 0.11841312 0.93800002 1.5198755e-38
0.0057561933 0.11759081 0.93800008 1.5658297e-38
0.0090454463 0.11759081 0.93800002 1.6120351e-38
0.034537159 0.11841312 0.93800002 1.3630357e-38
0.037694212 0.11801932 0.93880004 1.3255462e-38
0.041662704 0.11872872 0.93920004 1.3257249e-38
-0.0090647331 0.12278593 0.94 1.3631044e-38
-0.0057634986 0.12183183 0.93900007 1.4738839e-38
-0.0019187311 0.12142827 0.93800008 1.4738493e-38
0.038100522 0.12142827 0.93800008 1.3814027e-38
0.041953471 0.12174533 0.93833339 1.3076823e-38
0.045873046 0.12223655 0.94 1.215486e-38
0.04861993 0.12278593 0.94 1.2245262e-38
-0.012360999 0.12773032 0.94 1.1877182e-38
-0.0098855859 0.1260369 0.93966669 1.2892764e-38
-0.0057561928 0.12581393 0.93800002 1.4184228e-38
-0.0024669401 0.12581395 0.93800008 1.455337e-38
0.042172931 0.12534404 0.93800008 1.3077891e-38
0.046049546 0.12581395 0.93800008 1.2154856e-38
0.049006101 0.12642628 0.93950003 1.1693522e-38
-0.012360999 0.13020253 0.94 1.1602023e-38
-0.0098734573 0.12999432 0.93849999 1.1878611e-38
-0.0060851178 0.12976104 0.93800002 1.2800578e-38
0.043582607 0.1299255 0.93800002 1.2155217e-38
0.046049543 0.1299255 0.93800002 1.1417652e-38
0.049875673 0.13020077 0.93879998 1.1417288e-38
-0.013020252 0.1346525 0.94 1.0221602e-38
-0.0098677594 0.13403708 0.93800008 1.1141766e-38
-0.00740082 0.13321476 0.93800002 1.1786419e-38
0.046049546 0.13403708 0.93800008 1.1233973e-38
0.050197937 0.13413234 0.93866676 1.0774787e-38
-0.013185066 0.1384432 0.94 9.2081606e-39
-0.0098677594 0.13814864 0.93800002 1.0036126e-38
0.046049543 0.13814865 0.93800002 1.0682587e-38
0.050268065 0.1384432 0.94 1.0130846e-38
-0.013009734 0.14211188 0.93920004 8.8372243e-39
-0.0098677594 0.14226021 0.93800008 9.1141727e-39
0.043582607 0.14061558 0.93800002 9.8539196e-39
0.046049546 0.14226019 0.93800008 9.9443089e-39
0.049701449 0.14196302 0.93966669 9.3929232e-39
-0.012360999 0.14668386 0.94 8.011051e-39
-0.0098677594 0.14637178 0.93800002 8.4702354e-39
-0.00740082 0.14637178 0.93800002 8.7453874e-39
0.043582607 0.14719409 0.93800002 8.9326667e-39
0.046049546 0.14637178 0.93800002 9.1152601e-39
0.050253291 0.14581546 0.93971431 8.65607e-39
-0.012360999 0.14998013 0.94 7.550063e-39
-0.0098734582 0.14974123 0.93850005 7.6415482e-39
-0.006852611 0.14993513 0.93800008 7.9170687e-39
0.043582607 0.14966103 0.93800002 8.380565e-39
0.046049543 0.14966103 0.93800002 8.1958066e-39
0.04861993 0.14998013 0.94 8.195438e-39
-0.0096141119 0.1530017 0.94 7.1802015e-39
-0.0062323487 0.15414906 0.93885726 7.3649557e-39
0.042924758 0.15410152 0.93800002 8.1043284e-39
0.045944344 0.15364039 0.93920004 7.643702e-39
0.04861993 0.15245232 0.94 7.8273702e-39
-0.0046638665 0.15772168 0.9386667 6.9039663e-39
-0.0024669401 0.15870647 0.93800002 7.0883618e-39
0.038648728 0.15788415 0.93800002 7.8259422e-39
0.041968957 0.15799637 0.93866676 7.4596638e-39
-0.0041203331 0.16151705 0.94 5.4309844e-39
-0.0016455033 0.16205387 0.93833339 5.891957e-39
0.0012334699 0.16240688 0.93800002 5.9837981e-39
0.0041115666 0.16364035 0.93800002 5.7068581e-39
0.03404377 0.16298251 0.93800002 6.9961634e-39
0.037867032 0.16216959 0.93900007 6.8135728e-39
0.040769819 0.16184361 0.93949997 6.7228121e-39
-0.00082406664 0.16563739 0.94 4.6048041e-39
0.0016468184 0.16637336 0.93949997 5.1551066e-39
0.0054272674 0.16627176 0.93800002 5.15618e-39
0.023847086 0.1669296 0.93800002 5.8001229e-39
0.026588131 0.1663814 0.93800008 5.8923241e-39
0.02960328 0.1661073 0.93800002 5.9845254e-39
0.033763357 0.16634399 0.93933338 5.9848771e-39
0.037082996 0.16563739 0.94 6.3540001e-39
0.0024721997 0.16893366 0.94 4.3299954e-39
0.0057632066 0.16881387 0.93933338 4.6058719e-39
0.0098725818 0.16948727 0.93849999 4.8806665e-39
0.013979326 0.16939655 0.93800008 4.8795945e-39
0.018090893 0.16939655 0.93800002 4.8799546e-39
0.02220246 0.16939655 0.93800008 5.1572534e-39
0.026342079 0.16957802 0.93900001 5.1579779e-39
0.029666398 0.16893366 0.94 5.1583422e-39
0.032138597 0.16893366 0.94 4.9750285e-39
0.046147734 0.16975772 0.94 2.9474001e-39
0.014009133 0.17222993 0.94 4.0534043e-39
0.018129466 0.17305399 0.94 2.394948e-39
0.021920172 0.17288919 0.94 2.7637403e-39
0.018187325 0.10664387 0.94300002 1.750327e-38
0.021494113 0.10664387 0.94300002 1.7318523e-38
0.0016533933 0.11160404 0.94300002 1.6302945e-38
0.0057868771 0.11160405 0.94300002 1.6394784e-38
0.0096447943 0.11050179 0.94300002 1.6947594e-38
0.014053843 0.10884839 0.94300002 1.7040864e-38
0.018187325 0.10829727 0.94300002 1.7225611e-38
0.026454292 0.10829727 0.94300002 1.722597e-38
0.02976108 0.10995065 0.94300002 1.6488416e-38
0.0327923 0.11105292 0.94300002 1.4367206e-38
-0.0049601803 0.11491083 0.94300002 1.5750844e-38
-0.0019289588 0.11380857 0.94300002 1.55661e-38
0.033894565 0.11408413 0.94300002 1.7406034e-38
0.038028046 0.11491083 0.94300002 2.3509886e-38
-0.0090936627 0.11904432 0.94300002 1.4462611e-38
-0.0068891393 0.11711535 0.94300002 1.5198386e-38
0.038854741 0.11656422 0.94300002 2.3508092e-38
0.042161528 0.11739092 0.94300002 1.9908571e-38
0.046019446 0.11931989 0.94300002 1.1419834e-38
-0.010195926 0.12207554 0.94300002 1.3630691e-38
0.047121707 0.12152441 0.94300002 1.2155586e-38
0.048775103 0.12152441 0.94300002 1.2247782e-38
-0.01240045 0.12565789 0.94300002 1.2523624e-38
0.050428499 0.12565789 0.94300002 1.1785713e-38
-0.014053843 0.13061807 0.94300002 1.1417627e-38
0.052081887 0.12896469 0.94300002 1.1417288e-38
-0.014053843 0.13309816 0.94300002 1.0681138e-38
0.052081887 0.14301853 0.94300002 9.1181244e-39
-0.014053843 0.14632532 0.94300002 7.8277233e-39
0.053321935 0.14673865 0.94300002 7.7369696e-39
-0.014053843 0.15045878 0.94300002 7.275253e-39
0.050428499 0.15045878 0.94300002 7.6433348e-39
0.052081887 0.15045878 0.94300002 6.537346e-39
-0.01240045 0.15293887 0.94300002 6.9961634e-39
-0.010747056 0.15459228 0.94300002 6.7199338e-39
0.048775103 0.15459228 0.94300002 7.0908799e-39
-0.0099203596 0.15624566 0.94300002 6.3507855e-39
-0.0066135731 0.15872577 0.94300002 6.442984e-39
0.046019446 0.15789907 0.94300002 6.9064845e-39
-0.0057868767 0.16203254 0.94300002 5.3384301e-39
0.043263793 0.16230811 0.94300002 6.6324031e-39
0.045468315 0.16120586 0.94300002 6.2632646e-39
-0.0046846149 0.16506377 0.94300002 4.7898988e-39
-0.0019289588 0.16726828 0.94300002 4.8802994e-39
0.03830361 0.16726828 0.94300002 5.2497979e-39
0.041500174 0.16649669 0.94300002 3.9583487e-39
0.050428499 0.16533932 0.94300002 4.7016282e-39
0.052081887 0.16533932 0.94300002 7.2827471e-39
0.00082669663 0.16947281 0.94300002 4.3299954e-39
0.0066135731 0.1711262 0.94300002 3.7753909e-39
0.02976108 0.1711262 0.94300002 3.8675908e-39
0.033894565 0.17002395 0.94300002 4.0537771e-39
0.03830361 0.17002395 0.94300002 2.2116427e-39
0.042161532 0.17029952 0.94300002 1.1056301e-39
0.010747056 0.17360631 0.94300002 1.7506492e-39
0.014053843 0.17443299 0.94300002 9.1838299e-41
0.023974203 0.17443299 0.94300002 0
0.026178729 0.17333075 0.94300002 2.4875108e-39
0.028934384 0.1727796 0.94300002 2.487522e-39
0.01488054 0.1760864 0.94300002 2.8025969e-45
0.018187325 0.1760864 0.94300002 0
0.021494113 0.1760864 0.94300002 0
0.01495944 0.10388499 0.94800001 1.7686224e-38
0.01828376 0.10388499 0.94800001 1.7872047e-38
0.021608081 0.10388499 0.94800001 1.7501835e-38
0.024101319 0.10388499 0.94800001 1.7594388e-38
0.0016621599 0.10720932 0.94800001 1.685432e-38
0.0058175605 0.10637824 0.94800007 1.7131623e-38
0.009967261 0.10632169 0.94749999 1.7685148e-38
0.014102936 0.10619092 0.94633341 1.7502911e-38
0.018245187 0.10532448 0.94599998 1.7595464e-38
0.021562491 0.10532448 0.94599998 1.7410717e-38
0.025727829 0.10622804 0.94666666 1.7410359e-38
0.029621396 0.10657987 0.94733334 1.7040864e-38
0.032412119 0.10720932 0.94800001 1.3813309e-38
-0.0041554002 0.11053363 0.94800001 1.6119629e-38
-0.0014945413 0.11077138 0.9472 1.6302943e-38
0.0016608449 0.10964426 0.94749999 1.6394427e-38
0.0058067474 0.10950939 0.94633335 1.6762488e-38
0.0099519193 0.10864178 0.94599998 1.7408565e-38
0.012439899 0.10864178 0.94599998 1.7593312e-38
0.029855758 0.10864178 0.94599998 1.6672446e-38
0.03459239 0.10986298 0.94700003 1.8617125e-38
0.037952654 0.10997958 0.94800007 2.3509886e-38
-0.0096895052 0.11488482 0.94733334 1.5289146e-38
-0.0060497513 0.11327961 0.9471429 1.5842681e-38
0.035661042 0.11361774 0.94599998 2.3505581e-38
0.038189352 0.11290677 0.94699997 2.3509886e-38
0.041352715 0.11409291 0.9472 2.3509886e-38
0.045709398 0.11552012 0.94800007 1.7140887e-38
-0.0124662 0.11801335 0.94800001 1.3261201e-38
-0.01023596 0.11757036 0.94666666 1.4644855e-38
0.043124985 0.11693506 0.94599998 2.3509886e-38
0.046784192 0.11765276 0.94733334 1.2433199e-38
0.049033716 0.11884443 0.94800001 1.2704788e-38
-0.013642185 0.12229575 0.9471429 1.2615826e-38
-0.010781245 0.12025236 0.94599998 1.4367187e-38
0.050200995 0.12155991 0.94650006 1.2155931e-38
0.052358039 0.12299983 0.94800001 1.1786066e-38
-0.014944536 0.1261909 0.94700003 1.1877895e-38
0.053643584 0.12638377 0.9472 1.141872e-38
-0.01745268 0.13047956 0.94800001 1.0774406e-38
-0.015350871 0.12985756 0.94649994 1.1141046e-38
0.054639477 0.13003632 0.9472 1.095845e-38
-0.017859016 0.13414797 0.94749999 1.0037195e-38
-0.015757205 0.13435091 0.94599998 1.0036129e-38
0.054971911 0.1340227 0.9472 1.0314152e-38
0.057344519 0.13380387 0.94800007 9.3028534e-39
-0.01826535 0.13781375 0.94700003 9.2099445e-39
-0.015757205 0.13766822 0.94599998 9.485465e-39
0.054794297 0.13781375 0.94700003 9.3021527e-39
0.058175597 0.13795927 0.94800001 8.8422339e-39
-0.018277625 0.14206529 0.94766665 8.1043116e-39
-0.015757207 0.14181486 0.94599998 8.7468209e-39
0.054735556 0.14181486 0.94600004 8.0139236e-39
0.058009382 0.14178225 0.94800007 8.5706777e-39
-0.01828376 0.14627008 0.94800001 7.5504119e-39
-0.015757205 0.14596149 0.94599998 7.8277261e-39
0.055564884 0.14596149 0.94599998 7.64549e-39
0.05722354 0.14596149 0.94599998 7.6504969e-39
-0.024655372 0.14987142 0.94800007 9.1269932e-39
-0.022439159 0.1495944 0.94800001 8.2936802e-39
-0.01828376 0.1495944 0.94800001 6.906832e-39
-0.015757207 0.15010813 0.94599998 7.3674514e-39
0.054901421 0.15043984 0.94600004 8.2926265e-39
0.05722354 0.14927879 0.94599998 8.2972676e-39
-0.024655372 0.1526417 0.94800007 8.667443e-39
-0.021441864 0.15341738 0.94800007 6.5444478e-39
-0.018258044 0.15353239 0.94666672 6.171034e-39
-0.014430282 0.15442061 0.94600004 6.537325e-39
0.050588921 0.15425475 0.94599998 6.5387823e-39
0.053983383 0.15447217 0.94733334 7.833442e-39
0.057344519 0.15374981 0.94800007 9.9571084e-39
-0.01828376 0.15790519 0.94800001 4.146274e-39
-0.014119009 0.15779474 0.94733334 5.6167728e-39
-0.0099519193 0.15840137 0.94599998 6.3518491e-39
0.047271617 0.15840137 0.94599998 6.9997381e-39
0.049759597 0.15757205 0.94599998 6.5394802e-39
0.05400179 0.15784939 0.94766665 8.2961998e-39
0.057344519 0.15790519 0.94800001 9.1280876e-39
-0.013020254 0.16095249 0.94800007 5.0635906e-39
-0.0099665308 0.16194722 0.94733334 5.432034e-39
-0.0074639395 0.1617187 0.94599998 5.615719e-39
0.046856955 0.16213337 0.94599998 5.5274694e-39
0.049759597 0.16171871 0.94600004 5.1593932e-39
0.053698901 0.16151136 0.94600004 8.0195947e-39
-0.0091418801 0.166216 0.94800001 2.2994929e-39
-0.0069163158 0.16625924 0.94666672 4.1444901e-39
0.043954313 0.16586533 0.94599998 4.050896e-39
0.046442289 0.16586533 0.94599998 3.5920703e-39
0.048930269 0.16586533 0.94599998 4.1481153e-39
0.053906228 0.16503599 0.94599998 7.4681739e-39
-0.0091290222 0.1701306 0.94666672 7.3468817e-40
-0.0058070398 0.17005152 0.94622231 1.2874962e-39
-0.0016586531 0.17084128 0.94599998 2.1172709e-39
0.0016586533 0.1716706 0.94599998 9.2054519e-40
0.0041466332 0.1716706 0.94599998 2.667963e-39
0.034831718 0.1716706 0.94599998 3.6808327e-40
0.037319697 0.1716706 0.94599998 0
0.043954313 0.1683533 0.94599998 1.6562941e-39
0.046442293 0.1683533 0.94599998 2.9484749e-39
0.04948315 0.1689062 0.94599998 4.4246812e-39
-0.0049759597 0.17332925 0.94599998 9.1849509e-41
-0.0016612833 0.17351249 0.94700003 0
0.0016586533 0.17332925 0.94599998 1.836752e-40
0.005808793 0.1742819 0.94666672 1.1049182e-39
0.0091225933 0.17415859 0.94599998 1.5662677e-39
0.027367778 0.17498793 0.94599998 0
0.030132201 0.17443505 0.94599998 8.2904461e-40
0.034002393 0.1741586 0.94600004 3.6806786e-40
0.038149022 0.17415859 0.94599998 8.2976067e-40
0.041880995 0.17374392 0.94599998 2.0261445e-39
0.0099729598 0.17702003 0.94800001 0
0.014098553 0.17775235 0.94599998 2.8025969e-45
0.018245187 0.17830522 0.94599998 4.2038954e-45
0.021562491 0.17830522 0.94599998 0
0.025727829 0.17760156 0.94666672 9.8090893e-45
0.029903539 0.17775775 0.94749999 3.6735179e-40
0.03407428 0.17785111 0.94800007 1.1963964e-39
0.037398599 0.17702003 0.94800001 1.751717e-39
0.010838229 0.10254633 0.95099998 1.7870612e-38
0.01417307 0.10254633 0.95099998 1.7686224e-38
0.01834162 0.10254633 0.95099998 1.8147554e-38
0.021676458 0.10171261 0.95099998 1.7594747e-38
0.025011297 0.10254633 0.95099998 1.7869895e-38
-0.0013895165 0.10699278 0.95099998 1.6762845e-38
0.0016674199 0.10504746 0.95099998 1.7316729e-38
0.0058359699 0.10421374 0.95099998 1.7316729e-38
0.010004519 0.10421374 0.95099998 1.7962448e-38
0.012505649 0.10421374 0.95099998 1.7686224e-38
0.026678719 0.10421374 0.95099998 1.7502553e-38
0.030847268 0.10588117 0.95099998 1.7318882e-38
0.034182109 0.10699278 0.95099998 1.7324243e-38
0.037516948 0.10754858 0.95099998 2.3509886e-38
-0.0091708088 0.11088342 0.95099998 1.5379546e-38
-0.0066696797 0.11088342 0.95099998 1.593344e-38
-0.0025011299 0.109216 0.95099998 1.6302947e-38
0.039184365 0.109216 0.95099998 2.3509886e-38
0.040851787 0.11088342 0.95099998 2.3509886e-38
-0.012505649 0.11588568 0.95099998 1.4275344e-38
-0.010282422 0.11310665 0.95099998 1.4920715e-38
0.045020338 0.11421826 0.95099998 2.0006452e-38
0.049188886 0.11588568 0.95099998 1.1963652e-38
-0.014173069 0.11838682 0.95099998 1.3261191e-38
0.050300501 0.11810892 0.95099998 1.2429999e-38
-0.015840489 0.12172165 0.95099998 1.215377e-38
0.053357437 0.12172165 0.95099998 1.160383e-38
-0.017507909 0.12672392 0.95099998 1.1418698e-38
0.055302761 0.12477859 0.95099998 1.0959901e-38
0.057525985 0.12755762 0.95099998 1.0316652e-38
-0.01834162 0.13005875 0.95099998 1.0682212e-38
0.057525985 0.13005875 0.95099998 1.0132976e-38
-0.02084275 0.13506101 0.95099998 9.4868817e-39
-0.019175328 0.13339359 0.95099998 1.0312705e-38
0.059193403 0.13422731 0.95099998 9.9485829e-39
-0.02084275 0.13839585 0.95099998 8.7478845e-39
-0.02084275 0.14089698 0.95099998 7.9206378e-39
-0.024177589 0.14756666 0.95099998 7.9295304e-39
-0.021259606 0.14631611 0.95099998 7.1848538e-39
-0.02084275 0.15006778 0.95099998 5.9887909e-39
-0.022510169 0.15590376 0.95099998 7.6518645e-39
-0.02084275 0.15840489 0.95099998 4.2413423e-39
-0.02084275 0.16090602 0.95099998 4.1480593e-39
-0.01834162 0.16173974 0.95099998 3.5923729e-39
-0.015284683 0.16201764 0.95099998 3.2200297e-39
-0.017507909 0.16507457 0.95099998 2.3956374e-39
-0.014173069 0.16507457 0.95099998 2.5757407e-39
-0.010838229 0.166742 0.95099998 1.6545005e-39
-0.010838229 0.17007682 0.95099998 5.5138432e-40
0.0016674199 0.1759128 0.95099998 4.2038954e-45
0.0075033898 0.17758021 0.95099998 0
0.030847268 0.18091506 0.95099998 8.2724394e-40
0.032514688 0.18091506 0.95099998 1.1038294e-39
0.025980892 0.094704546 0.95599997 1.7041935e-38
0.0050285598 0.099733099 0.95599997 1.7594388e-38
0.014247585 0.099733099 0.95600003 1.7686224e-38
0.018438052 0.098895013 0.95599997 1.7409641e-38
0.021775229 0.097987369 0.95533323 1.7686941e-38
0.025765011 0.098240361 0.95574993 1.7318522e-38
0.030171357 0.099733099 0.95599997 1.6765358e-38
-0.0050285598 0.10308547 0.95599997 1.6764273e-38
-0.0013968222 0.10252675 0.95600003 1.7407484e-38
0.0016744332 0.10213955 0.95499998 1.75004e-38
0.0058605163 0.10213955 0.95499992 1.7595106e-38
0.0097637288 0.10182542 0.95466661 1.7779494e-38
0.014217779 0.10119714 0.954 1.7778418e-38
0.018399481 0.10119713 0.954 1.77777e-38
0.026344709 0.1016153 0.954 1.7685506e-38
0.030139798 0.10213955 0.95499998 1.722597e-38
0.033523731 0.10224737 0.95599997 1.4463341e-38
0.037714198 0.10308548 0.95600003 2.3509886e-38
0.041904662 0.10308547 0.95599997 2.3509886e-38
-0.0092190262 0.10643785 0.95599997 1.5657925e-38
-0.005625946 0.10592663 0.95571429 1.6488401e-38
-0.0019514598 0.10510006 0.954 1.7040505e-38
0.03010824 0.10454249 0.954 1.731924e-38
0.034307912 0.10543363 0.95449996 1.6771441e-38
0.038246043 0.10580432 0.95533323 2.3509886e-38
0.041904662 0.10559976 0.95599997 2.3509886e-38
-0.013409492 0.11146641 0.95599997 1.4736318e-38
-0.010051422 0.10973192 0.95550001 1.5473534e-38
-0.0061945259 0.10898193 0.95479995 1.6118546e-38
0.042019334 0.10931647 0.95480007 2.3509886e-38
0.045676086 0.11104736 0.95599997 1.9542639e-38
-0.020952333 0.11481878 0.95599997 1.124359e-38
-0.018158689 0.11426006 0.95600003 1.2526833e-38
-0.014238234 0.11390062 0.95533335 1.3815446e-38
0.042653337 0.11290589 0.954 2.3509886e-38
0.046441853 0.11338324 0.95449996 1.7045844e-38
0.050285596 0.1139807 0.95599997 1.1415866e-38
-0.024304705 0.11900924 0.95599997 1.0598551e-38
-0.021622807 0.11850639 0.95599997 1.1422267e-38
-0.018438052 0.11817116 0.95599997 1.234066e-38
-0.015472289 0.11750577 0.954 1.3077518e-38
0.051016737 0.11625126 0.954 1.1971898e-38
0.053600565 0.11808758 0.95533323 1.1790014e-38
0.056671821 0.11920503 0.95533335 1.1055298e-38
-0.021790426 0.12236162 0.95599997 1.0865878e-38
-0.018134143 0.12247033 0.95466661 1.1786405e-38
0.054362096 0.12126929 0.954 1.1513788e-38
0.056931607 0.12223363 0.95499992 1.1146058e-38
-0.020952333 0.12655209 0.95599997 1.1142112e-38
-0.018705145 0.12534755 0.95533335 1.1694924e-38
0.057767943 0.12558162 0.95499998 1.0225891e-38
-0.021614039 0.13018464 0.95559996 1.0223024e-38
-0.019255983 0.12893048 0.95499998 1.0958441e-38
0.059421636 0.12972212 0.95466661 1.0778346e-38
-0.024304705 0.13409492 0.95599997 9.02873e-39
-0.022023618 0.13353562 0.954 9.4872488e-39
0.061116807 0.13395378 0.95499998 1.0415608e-38
-0.024287757 0.1381878 0.95533335 7.648671e-39
-0.022581181 0.13799608 0.954 8.287984e-39
0.061052814 0.13799608 0.954 9.6791272e-39
-0.02425386 0.14217779 0.954 6.5437387e-39
-0.022023618 0.14245658 0.954 7.460017e-39
0.061052814 0.14134145 0.954 8.9444236e-39
-0.02425386 0.14552315 0.954 7.0990537e-39
-0.022581179 0.14552315 0.954 6.9990374e-39
-0.01923582 0.16475898 0.954 3.8707675e-39
-0.01421778 0.16559532 0.954 2.4846185e-39
-0.01756314 0.16810434 0.954 2.6722257e-39
-0.014217779 0.16894069 0.954 1.8410441e-39
-0.00083633995 0.17646773 0.954 0
0.0016761866 0.17851387 0.95599997 1.4012985e-44
0.0050224233 0.17832714 0.95499998 0
0.0067047463 0.18019006 0.95599997 2.8025969e-45
0.027599219 0.18148577 0.954 3.6734198e-40
0.029271899 0.18148577 0.954 7.3504691e-40
0.01513302 0.094161004 0.95899999 1.7224894e-38
0.018495914 0.094161004 0.95899999 1.7132339e-38
0.021858806 0.095001727 0.95899999 1.722597e-38
0.026062422 0.095001727 0.95899999 1.7041575e-38
0.029425314 0.095001727 0.95899999 1.6211452e-38
-0.00084072328 0.098364621 0.95899999 1.6947594e-38
0.0019616876 0.097804144 0.95899999 1.7317088e-38
0.0058850627 0.097523898 0.95900005 1.750255e-38
0.0098084388 0.097804144 0.95899999 1.7502194e-38
0.014292298 0.097523898 0.95900005 1.7501835e-38
0.018495914 0.096683174 0.95899999 1.7501118e-38
0.027743869 0.096683174 0.95899999 1.7409282e-38
0.030266037 0.097523898 0.95899999 1.6489125e-38
0.033628933 0.098364621 0.95899999 1.7783784e-38
-0.0019616876 0.10060656 0.95899999 1.7222381e-38
0.0016814466 0.10004608 0.95899999 1.7684789e-38
0.0075665093 0.10004608 0.95899999 1.7778777e-38
0.010088679 0.10004608 0.95899999 1.7686582e-38
0.033628933 0.10004608 0.95899999 1.4370798e-38
0.037832551 0.10172753 0.95899999 2.3509886e-38
0.042036165 0.10172752 0.95899999 2.3509886e-38
0.044558335 0.10340896 0.95899999 2.3509886e-38
-0.013171332 0.10621138 0.95899999 1.4922502e-38
-0.010368921 0.10565089 0.95899999 1.5382413e-38
0.045399059 0.10593113 0.95899999 1.8439126e-38
-0.018495914 0.11097547 0.95899999 1.2803765e-38
-0.014292298 0.1098545 0.95900005 1.4644833e-38
-0.010929403 0.1084533 0.95899999 1.5474616e-38
0.046239782 0.10929403 0.95899999 1.7238107e-38
0.049602676 0.11097547 0.95899999 1.0592234e-38
-0.019336635 0.11349764 0.95899999 1.243571e-38
0.052965567 0.11517908 0.95899999 1.2065537e-38
-0.024380974 0.1227456 0.95899999 9.6755371e-39
-0.019336635 0.12190487 0.95899999 1.2062276e-38
-0.022139048 0.12582825 0.95899999 1.0773681e-38
0.059691351 0.12694922 0.95899999 1.0686877e-38
-0.024380974 0.13199356 0.95899999 9.3989572e-39
-0.022699529 0.12863067 0.95899999 1.0220866e-38
-0.026622904 0.13479598 0.95899999 8.939037e-39
-0.026622904 0.1375984 0.95899999 9.2167071e-39
0.0025221698 0.18075551 0.95899999 4.3440252e-44
0.0042036166 0.18075551 0.95899999 7.0064923e-45
0.01014128 0.095497049 0.96399999 1.7501835e-38
0.0126503 0.09445557 0.96200001 1.7410357e-38
0.010963594 0.096985631 0.96200001 1.7501477e-38
0.033804268 0.097187266 0.96399999 1.9720236e-38
0.037107546 0.098672338 0.96200001 2.3509886e-38
0.037950899 0.10035904 0.96200007 2.3509886e-38
-0.016023712 0.10879257 0.96200001 1.4829569e-38
0.048071139 0.10879257 0.96200001 1.1232558e-38
-0.026143953 0.12397294 0.96200001 1.0965201e-38
0.060002569 0.12169535 0.96399999 1.2163044e-38
-0.02640971 0.12625353 0.96285713 1.0230853e-38
0.060002569 0.12507579 0.96399999 1.0871251e-38
-0.026181359 0.13005643 0.96333331 1.0042522e-38
-0.02957873 0.13437195 0.96399999 1.0600687e-38
-0.027287712 0.13306046 0.96266669 9.3085286e-39
-0.02957873 0.13606216 0.96399999 1.0418094e-38
-0.026143953 0.14168337 0.96200001 9.6769622e-39
-0.026143953 0.14421341 0.96200001 9.5876252e-39
0.00084335334 0.18132097 0.96200001 4.6242849e-44
0.037300412 0.097489715 0.96700001 2.3509886e-38
-0.029670782 0.1297037 0.96700001 1.0600694e-38
-0.030801099 0.13365981 0.96700001 1.0324832e-38
-0.031463563 0.13095647 0.97000003 1.0048609e-38
