# .PCD v0.7 - Point Cloud Data file format
VERSION 0.7
FIELDS x y z rgb
SIZE 4 4 4 4
TYPE F F F F
COUNT 1 1 1 1
WIDTH 664
HEIGHT 1
VIEWPOINT 0 0 0 1 0 0 0
POINTS 664
DATA ascii
0.14750792 0.11948966 0.94 1.5477134e-38
0.14998013 0.11948966 0.94 1.5110873e-38
0.15362957 0.11807699 0.94000006 1.5661894e-38
0.1582208 0.11948966 0.94 1.6214339e-38
0.14173946 0.12196186 0.94 1.4000216e-38
0.14585979 0.12196186 0.94 1.4553739e-38
0.14998013 0.12196186 0.94 1.510691e-38
0.15410048 0.12196185 0.94 1.5476058e-38
0.1582208 0.12196186 0.94 1.5200189e-38
0.16234112 0.12196186 0.94 1.5200905e-38
0.16618678 0.12223655 0.94 1.4371154e-38
0.16975772 0.12278593 0.94 1.2987129e-38
0.17222993 0.12278593 0.94 1.2616561e-38
0.13871789 0.12718093 0.94 1.3078611e-38
0.14173946 0.1260822 0.94 1.3077545e-38
0.14585979 0.12608218 0.94 1.3445607e-38
0.14998013 0.1260822 0.94 1.3998774e-38
0.15410046 0.12608218 0.94 1.3723626e-38
0.1582208 0.1260822 0.94 1.3724352e-38
0.16234112 0.1260822 0.94 1.3080418e-38
0.16646145 0.12608218 0.94 1.280382e-38
0.16975772 0.12608218 0.94 1.2341046e-38
0.17387804 0.1260822 0.94 1.1878998e-38
0.1384432 0.13020253 0.94 1.234212e-38
0.14173946 0.13020253 0.94 1.2434677e-38
0.14585979 0.13020253 0.94 1.2894935e-38
0.1498197 0.13006401 0.93900001 1.3078967e-38
0.15377259 0.1299255 0.93800008 1.317081e-38
0.15788415 0.1299255 0.93800002 1.2894586e-38
0.16199572 0.1299255 0.93800008 1.2155947e-38
0.16637334 0.13013284 0.93950003 1.2155579e-38
0.16975772 0.13020253 0.94 1.1786079e-38
0.17387806 0.13020253 0.94 1.1509854e-38
0.17799839 0.13020253 0.94 1.0958472e-38
0.13926727 0.13432287 0.94 1.1416932e-38
0.14173946 0.13432287 0.94 1.1509848e-38
0.14585979 0.13432285 0.94 1.1787874e-38
0.14981972 0.13417998 0.93900007 1.1882582e-38
0.15377259 0.13403709 0.93800002 1.1973347e-38
0.15788417 0.13403708 0.93800008 1.1973703e-38
0.16199572 0.13403709 0.93800002 1.1511289e-38
0.1661073 0.13403708 0.93800008 1.0959187e-38
0.16995536 0.13443433 0.93914294 1.07748e-38
0.17408407 0.13411684 0.94 1.0774795e-38
0.17799839 0.13432287 0.94 1.0498566e-38
0.13926727 0.1384432 0.94 1.0587533e-38
0.14173946 0.1384432 0.94 1.0864479e-38
0.14585979 0.1384432 0.94 1.0866631e-38
0.1498197 0.13829592 0.93900001 1.0774802e-38
0.15377259 0.13814865 0.93800008 1.1143582e-38
0.15788415 0.13814864 0.93800002 1.1235771e-38
0.16199572 0.13814865 0.93800008 1.0681884e-38
0.1661073 0.13814865 0.93800002 1.049821e-38
0.16988993 0.13798419 0.93800002 1.022198e-38
0.17420769 0.13860802 0.94 1.0037588e-38
0.17799839 0.1384432 0.94 9.8531951e-39
0.13926727 0.14173946 0.94 1.0034719e-38
0.14173946 0.14173946 0.94 1.0036157e-38
0.14585979 0.14173946 0.94 1.0130145e-38
0.14976683 0.14236075 0.9386667 9.8539168e-39
0.15397817 0.14205462 0.93800008 9.7613638e-39
0.15788417 0.14226022 0.93800008 9.8539126e-39
0.16199572 0.14226019 0.93800002 9.8539126e-39
0.1661073 0.14226021 0.93800008 9.5773327e-39
0.16923209 0.14193128 0.93800002 9.6691668e-39
0.17399116 0.14228079 0.93950003 9.3940106e-39
0.17799839 0.14173946 0.94 9.210697e-39
0.13926727 0.14421166 0.94 9.1163517e-39
0.14173946 0.14585979 0.94 9.3007346e-39
0.14582492 0.14582494 0.93977779 9.1167035e-39
0.14966102 0.14637178 0.93800002 8.9294424e-39
0.15367666 0.14615236 0.93885726 9.3914995e-39
0.15788417 0.14637178 0.93800002 9.1163532e-39
0.16211145 0.14647639 0.93866676 9.1170692e-39
0.16628437 0.14652869 0.93900001 9.2085432e-39
0.16992252 0.14618942 0.94 9.1177839e-39
0.17343019 0.14615236 0.93885726 8.8415473e-39
0.17783359 0.14553016 0.94 8.5653178e-39
0.14256352 0.14998013 0.94 8.3794986e-39
0.14580749 0.14992723 0.93966669 8.1947542e-39
0.14982057 0.14982145 0.93900001 8.4709865e-39
0.15410048 0.14998013 0.94 8.6546519e-39
0.1582208 0.14998013 0.94 8.7468448e-39
0.16234112 0.14998013 0.94 8.6560841e-39
0.16646145 0.14998013 0.94 8.5649618e-39
0.16975772 0.14998013 0.94 8.2887309e-39
0.17354845 0.15014493 0.94 7.8259577e-39
0.14651905 0.15344121 0.94 7.9177988e-39
0.14998013 0.15410046 0.94 7.8263276e-39
0.15410046 0.15410046 0.94 7.918512e-39
0.1582208 0.15410046 0.94 7.9188693e-39
0.16234112 0.15410046 0.94 7.6426412e-39
0.16646145 0.15410046 0.94 7.5507987e-39
0.16948304 0.15300171 0.94 7.8263052e-39
0.17387806 0.15245232 0.94 7.2734929e-39
0.15451249 0.15780875 0.94 6.9054279e-39
0.1582208 0.1582208 0.94 6.9047034e-39
0.16234112 0.1582208 0.94 6.812505e-39
0.16646145 0.1582208 0.94 6.7210226e-39
0.16234112 0.16069299 0.94 6.2593228e-39
0.14797869 0.11491083 0.94300002 1.5752292e-38
0.15045878 0.11491083 0.94300002 1.5476781e-38
0.15376557 0.11408413 0.94300002 1.5568263e-38
0.15707237 0.11408414 0.94300002 1.5477866e-38
0.14246741 0.11931988 0.94300002 1.4369359e-38
0.14611864 0.11801094 0.94299996 1.5198754e-38
0.15045878 0.11739092 0.94300002 1.5753008e-38
0.15789907 0.11739092 0.94300002 1.5846282e-38
0.16186722 0.1185483 0.94300002 1.6398732e-38
0.16575268 0.11945767 0.94300002 1.5016157e-38
0.1391606 0.12262668 0.94300002 1.3447042e-38
0.16781941 0.12152441 0.94300002 1.3909451e-38
0.1702995 0.12152441 0.94300002 1.3171868e-38
0.17360631 0.12235111 0.94300002 1.2524366e-38
0.17691308 0.1231778 0.94300002 1.1879347e-38
0.13475154 0.12648459 0.94300002 1.252795e-38
0.13772766 0.12549256 0.94300002 1.2987137e-38
0.17856649 0.12565789 0.94300002 1.1141786e-38
0.18104656 0.12648459 0.94300002 1.0589336e-38
0.13392487 0.12979138 0.94300002 1.2433229e-38
0.13640496 0.12979138 0.94300002 1.2618702e-38
0.17856649 0.12813799 0.94300002 1.0866283e-38
0.18104658 0.12979138 0.94300002 1.0405661e-38
0.13475154 0.13392484 0.94300002 1.1235052e-38
0.13723163 0.13392484 0.94300002 1.151164e-38
0.18159769 0.13420042 0.94300002 9.9457537e-39
0.13475154 0.13805833 0.94300002 1.0404212e-38
0.13723165 0.13805833 0.94300002 1.0680082e-38
0.18187326 0.13805833 0.94300002 9.4851287e-39
0.13475154 0.14136513 0.94300002 9.4851315e-39
0.13723165 0.14219183 0.94300002 9.9428768e-39
0.18187325 0.14219183 0.94300002 9.0262987e-39
0.13785166 0.14653198 0.94299996 8.9323108e-39
0.18187325 0.14549862 0.94300002 8.196531e-39
0.13888504 0.15045878 0.94300002 8.5631654e-39
0.14136513 0.15045878 0.94300002 8.4709697e-39
0.1760864 0.1496321 0.94300002 8.2872917e-39
0.14246741 0.15349001 0.94300002 8.0096356e-39
0.14549862 0.15459228 0.94300002 7.8263206e-39
0.1711262 0.15459228 0.94300002 7.1827224e-39
0.17360631 0.15459228 0.94300002 7.0894548e-39
0.14715201 0.15707237 0.94300002 7.2738489e-39
0.15073435 0.15845022 0.94300002 6.9976165e-39
0.15376557 0.15955245 0.94300002 6.814663e-39
0.17013417 0.15756838 0.94300002 6.7213785e-39
0.17333075 0.1567968 0.94300002 6.2621996e-39
0.15128548 0.16120586 0.94300002 5.5242801e-39
0.15376557 0.16120586 0.94300002 5.6161198e-39
0.15789907 0.16120586 0.94300002 6.1671328e-39
0.16699272 0.16120586 0.94300002 5.7090189e-39
0.1495944 0.10720932 0.94800001 1.5936682e-38
0.15374981 0.10720932 0.94800007 1.5567179e-38
0.15707411 0.10720932 0.94800001 1.5657944e-38
0.14377683 0.11053363 0.94800001 1.5381711e-38
0.14654711 0.10997958 0.94800007 1.5290953e-38
0.14981456 0.11066965 0.9471429 1.5475708e-38
0.15379451 0.11020838 0.94700003 1.5383868e-38
0.1576831 0.110377 0.94666666 1.5199847e-38
0.16177481 0.11002491 0.94771433 1.4738514e-38
0.166216 0.10970255 0.94800001 1.4368291e-38
0.16954032 0.11053363 0.94800001 1.3723638e-38
0.13795927 0.11552012 0.94800001 1.4369354e-38
0.14228451 0.11403527 0.94775003 1.4829618e-38
0.1461155 0.11373668 0.94700003 1.5014728e-38
0.15010813 0.11361774 0.94599998 1.5476065e-38
0.16201194 0.11388426 0.94650006 1.5109447e-38
0.16604096 0.11373669 0.94699997 1.4279688e-38
0.16948101 0.11381735 0.94766676 1.3633603e-38
0.17369571 0.11385796 0.94800007 1.3078267e-38
0.17785111 0.11468904 0.94800001 1.2525812e-38
0.18034436 0.11552012 0.94800001 1.2157356e-38
0.13546604 0.11801335 0.94800001 1.4093479e-38
0.13788608 0.11795067 0.94749999 1.4369712e-38
0.14148311 0.11759853 0.94600004 1.4461553e-38
0.16337734 0.11693506 0.94599998 1.4926494e-38
0.16614178 0.11748795 0.94599998 1.4740652e-38
0.16968022 0.11793025 0.94600004 1.3540671e-38
0.17388086 0.11774684 0.9472 1.2708763e-38
0.17775775 0.11795067 0.94749999 1.2157388e-38
0.18117544 0.11801335 0.94800001 1.1419809e-38
0.13047956 0.12383091 0.94800001 1.24318e-38
0.13397592 0.12234387 0.94775003 1.3632137e-38
0.13756022 0.12163013 0.94640011 1.3723984e-38
0.14015619 0.12025236 0.94599998 1.4000575e-38
0.17084128 0.12025236 0.94599998 1.3447746e-38
0.17443505 0.12080525 0.94599998 1.2616919e-38
0.1774759 0.12108169 0.94599998 1.1971905e-38
0.18200651 0.12216876 0.94800007 1.1325817e-38
0.13009137 0.12643671 0.94760001 1.2155573e-38
0.13359128 0.12570916 0.94650006 1.2802379e-38
0.18285748 0.12586945 0.94666672 1.0681525e-38
0.18533084 0.12632415 0.94800001 1.0406012e-38
0.13059753 0.12988669 0.94714284 1.1694594e-38
0.18328118 0.13020429 0.94599998 9.9464754e-39
0.18576109 0.12998198 0.94679993 9.7624386e-39
0.1302021 0.13394064 0.94749999 1.0957383e-38
0.13352159 0.13435091 0.94599998 1.1142496e-38
0.18328118 0.13352159 0.94599998 1.0037232e-38
0.18617173 0.1340227 0.9472 9.4858475e-39
0.18865517 0.13380387 0.94800007 9.0259442e-39
0.13117126 0.13781375 0.94700003 9.9464655e-39
0.13407448 0.13794467 0.94599998 1.0588242e-38
0.1859664 0.13781375 0.94700003 8.9330297e-39
0.18865515 0.13795927 0.94800001 8.5646045e-39
0.13038662 0.14201473 0.94733334 9.1177755e-39
0.13393626 0.1422295 0.94599998 9.3925757e-39
0.18616192 0.14211467 0.94800007 8.1036221e-39
0.18865515 0.14211467 0.94800001 7.9181547e-39
0.13040987 0.14577784 0.94749999 8.6567959e-39
0.13390908 0.14618944 0.94639999 8.6560869e-39
0.18616191 0.14627008 0.94800001 6.997269e-39
0.18865515 0.145439 0.94800001 7.2720692e-39
0.13047956 0.1495944 0.94800001 7.9185162e-39
0.13391884 0.14981455 0.9471429 8.3798503e-39
0.1368389 0.15093744 0.94599998 8.379493e-39
0.17930041 0.15043984 0.94600004 7.549368e-39
0.18264472 0.14943747 0.94700003 7.1812987e-39
0.18533084 0.14876331 0.94800001 6.8117973e-39
0.13047956 0.15208764 0.94800001 7.9195854e-39
0.13380387 0.15374981 0.94800007 7.8277373e-39
0.13774054 0.15433672 0.94650006 8.0096244e-39
0.14070909 0.1545312 0.94599998 7.9181589e-39
0.17787801 0.1546405 0.94666672 6.9057726e-39
0.18221428 0.15395758 0.94800001 6.352596e-39
0.13546604 0.15790519 0.94800001 6.8139315e-39
0.13795927 0.15790519 0.94800001 6.9054181e-39
0.1419142 0.15768367 0.94666672 7.2727615e-39
0.14568506 0.15784849 0.94599998 7.2734845e-39
0.17498793 0.15840137 0.94599998 5.9852498e-39
0.17785111 0.15790519 0.94800001 5.7100895e-39
0.18200652 0.15790519 0.94800007 4.7895485e-39
0.13795927 0.16122952 0.94800001 6.0756392e-39
0.14235213 0.16158572 0.94800007 5.891971e-39
0.14621836 0.1620042 0.94766665 5.8916137e-39
0.14967905 0.16200499 0.94628584 5.8001383e-39
0.15425475 0.16337734 0.94599998 5.6143065e-39
0.15757205 0.16337734 0.94599998 5.8908892e-39
0.1617187 0.16337734 0.94599998 5.5239017e-39
0.166216 0.16372275 0.94800001 5.6182596e-39
0.17028064 0.16239154 0.94749999 5.3420188e-39
0.1736041 0.16114491 0.94749999 5.433497e-39
0.17785111 0.16039844 0.94800001 4.6966494e-39
0.18311462 0.1631687 0.94800007 3.871513e-39
0.18533084 0.16289167 0.94800001 4.5168824e-39
0.14710116 0.16538492 0.94800001 4.6048041e-39
0.15034527 0.16571322 0.94749999 4.420417e-39
0.15395179 0.16624264 0.9472 4.4193366e-39
0.15773863 0.16604154 0.94699997 4.6955634e-39
0.16188964 0.16604154 0.94699997 4.9728663e-39
0.16538492 0.16538492 0.94800001 4.6966522e-39
0.18283759 0.16538492 0.94800001 2.491461e-39
0.15458088 0.16954032 0.94800001 2.9456303e-39
0.15762816 0.16926329 0.94800007 3.0385406e-39
0.16122952 0.16870923 0.94800001 1.9304077e-39
0.15458088 0.17203356 0.94800001 0
0.15818223 0.17258762 0.94800007 1.4012985e-45
0.16122952 0.17286465 0.94800001 2.7588624e-40
0.16590828 0.10254633 0.95099998 1.4923242e-38
0.16924311 0.10254633 0.95099998 1.4369354e-38
0.1425644 0.10754858 0.95099998 1.5935604e-38
0.14623274 0.10688161 0.95100003 1.6120713e-38
0.15923859 0.10754858 0.95099998 1.5657944e-38
0.1621566 0.10629801 0.95099998 1.5106575e-38
0.16590828 0.10588116 0.95100009 1.492253e-38
0.17007683 0.10588117 0.95100009 1.4185326e-38
0.13589473 0.11088342 0.95099998 1.483033e-38
0.13839585 0.11088342 0.95099998 1.4922528e-38
0.1417307 0.11004971 0.95099998 1.5197682e-38
0.14506555 0.109216 0.95099998 1.5381714e-38
0.17007682 0.109216 0.95099998 1.3724356e-38
0.1739119 0.11021645 0.95100003 1.3355211e-38
0.17758021 0.11088342 0.95099998 1.2710559e-38
0.13547787 0.11463512 0.95099998 1.4277159e-38
0.13839585 0.11338455 0.95099998 1.4553027e-38
0.14089698 0.11255084 0.95099998 1.4736708e-38
0.17841393 0.11255084 0.95099998 1.2250654e-38
0.18174878 0.11421826 0.95099998 1.1696027e-38
0.18424989 0.11588568 0.95099998 1.132581e-38
0.13339359 0.11838682 0.95099998 1.4277869e-38
0.18480569 0.11866473 0.95099998 1.1140711e-38
0.13089246 0.12172165 0.95099998 1.317116e-38
0.13255988 0.12088794 0.95099998 1.4001281e-38
0.18647313 0.12199955 0.95099998 1.0588968e-38
0.12755762 0.1258902 0.95099998 1.1878981e-38
0.12922505 0.12422278 0.95099998 1.243215e-38
0.18716788 0.12547335 0.95099998 1.0130501e-38
0.18925217 0.12755762 0.95099998 9.3943708e-39
0.12755762 0.13005875 0.95099998 1.1326166e-38
0.18925217 0.13005875 0.95099998 9.3936477e-39
0.12755762 0.13422731 0.95099998 1.068187e-38
0.19091958 0.13506101 0.95099998 8.5671142e-39
0.12755762 0.13839585 0.95099998 9.854616e-39
0.12922505 0.13839585 0.95099998 9.9468117e-39
0.19091958 0.13839585 0.95099998 8.0139404e-39
0.12755762 0.1417307 0.95099998 9.2096054e-39
0.19036376 0.1420086 0.95099998 7.5533028e-39
0.12755762 0.14589925 0.95099998 8.286933e-39
0.12922505 0.14756666 0.95099998 8.655354e-39
0.19050272 0.1463161 0.95099998 6.6309626e-39
0.12755762 0.15006778 0.95099998 7.9177861e-39
0.12922505 0.15006778 0.95099998 8.0099818e-39
0.18702893 0.15034568 0.95099998 6.3543925e-39
0.19008587 0.15006778 0.95099998 5.9881015e-39
0.13005875 0.15423635 0.95099998 6.9054209e-39
0.13255988 0.15590376 0.95099998 7.9174204e-39
0.18675101 0.15423635 0.95100009 5.6186001e-39
0.19008589 0.15423635 0.95100009 6.2686106e-39
0.13089246 0.15757118 0.95099998 5.7061518e-39
0.13339359 0.15840489 0.95099998 6.9057698e-39
0.18675102 0.15840489 0.95099998 4.9760781e-39
0.18925217 0.15840489 0.95099998 5.1618959e-39
0.13506101 0.16173974 0.95099998 6.0752832e-39
0.1759128 0.16257344 0.95099998 4.4200583e-39
0.17841393 0.16257344 0.95099998 4.3278599e-39
0.18174878 0.16173974 0.95099998 4.2377928e-39
0.18591732 0.16090602 0.95099998 4.7019981e-39
0.13589473 0.16424087 0.95099998 5.4309522e-39
0.1385626 0.1655748 0.95100003 4.6044383e-39
0.1417307 0.16590828 0.95100009 4.8803078e-39
0.14556576 0.16690873 0.95100003 4.6033593e-39
0.14923407 0.1675757 0.95099998 3.9590815e-39
0.1670199 0.16701989 0.95099998 4.1452637e-39
0.16924311 0.16590828 0.95099998 3.591741e-39
0.17341167 0.16424087 0.95099998 4.2385355e-39
0.17924763 0.16424087 0.95099998 3.3179861e-39
0.18133192 0.16632514 0.95099998 2.3070628e-39
0.14673296 0.16924311 0.95099998 2.8537822e-39
0.15034568 0.16979891 0.95099998 3.3154904e-39
0.15256892 0.17007682 0.95099998 2.3946075e-39
0.15923859 0.17091054 0.95099998 1.1020596e-39
0.16173974 0.17091054 0.95099998 2.7553171e-40
0.16424087 0.17007682 0.95099998 5.51034e-40
0.1509015 0.17257796 0.95099998 0
0.15256892 0.17257796 0.95099998 0
0.15757118 0.17424537 0.95099998 0
0.16424087 0.17341167 0.95099998 4.5989775e-40
0.16594246 0.099733099 0.95599997 1.4277159e-38
0.16929483 0.099733099 0.95599997 1.4554462e-38
0.15169488 0.10224738 0.95599997 1.4829252e-38
0.15420917 0.10224737 0.95599997 1.5656845e-38
0.15799741 0.10237187 0.95559996 1.8795419e-38
0.16195118 0.10199349 0.9551999 1.5665463e-38
0.16559532 0.10119713 0.954 1.4372226e-38
0.17028505 0.10166834 0.95449996 1.400058e-38
0.17348531 0.10224738 0.95599997 1.3723638e-38
0.13493302 0.10643785 0.95599997 1.5381711e-38
0.13850419 0.10701785 0.9551999 1.5566459e-38
0.14225274 0.10626997 0.95449996 1.5843048e-38
0.14544776 0.10524617 0.95533335 1.6396578e-38
0.1500394 0.10521157 0.954 1.6305461e-38
0.15388656 0.10537884 0.954 1.5843767e-38
0.15806825 0.10537884 0.954 1.5659736e-38
0.16141361 0.10537884 0.954 1.5106935e-38
0.1740198 0.10625171 0.95433331 1.363287e-38
0.1766527 0.10716285 0.95499998 1.2342127e-38
0.13451397 0.11020926 0.95599997 1.482961e-38
0.13772081 0.10925633 0.95499998 1.5197676e-38
0.17832714 0.1096745 0.95499992 1.2618e-38
0.18102816 0.11062831 0.95599997 1.1974065e-38
0.13158065 0.11398069 0.95599997 1.4185669e-38
0.13395378 0.11386146 0.95499992 1.4277511e-38
0.18315844 0.11290589 0.954 1.1326173e-38
0.18551902 0.11410108 0.95466661 1.1234335e-38
0.12655209 0.11984733 0.95599997 1.2617612e-38
0.13037144 0.11864689 0.95533335 1.3448106e-38
0.13297805 0.11625126 0.954 1.4001278e-38
0.18650381 0.1170876 0.954 1.1048864e-38
0.18933928 0.11869188 0.95480007 1.0038663e-38
0.12725607 0.12223363 0.95499992 1.2433231e-38
0.1296327 0.12210564 0.954 1.3355184e-38
0.19034432 0.12204076 0.95479995 9.7606422e-39
0.12572277 0.12605801 0.95480007 1.169459e-38
0.19093309 0.12600505 0.9544 9.301815e-39
0.19443765 0.125714 0.95599997 8.5671142e-39
0.19779 0.12655209 0.95599997 7.2806199e-39
0.12319972 0.12990445 0.95600003 1.0864823e-38
0.12544048 0.13013029 0.9551999 1.1141412e-38
0.19152185 0.13046904 0.954 8.4742123e-39
0.19416647 0.12972212 0.95466661 8.1068535e-39
0.19779001 0.12990445 0.95599997 7.2809871e-39
0.12319972 0.13409492 0.95599997 1.0220173e-38
0.12558162 0.13395467 0.95499998 1.0222325e-38
0.19152185 0.13297805 0.954 8.566052e-39
0.19403087 0.13381439 0.954 7.9228056e-39
0.19737622 0.13381439 0.954 7.3738862e-39
0.12278067 0.13870443 0.95599997 9.209248e-39
0.12558162 0.13814074 0.95500004 9.3947141e-39
0.19416705 0.13809311 0.95466661 7.2788529e-39
0.19737622 0.13632341 0.954 7.3745868e-39
0.12229719 0.14240089 0.95550001 8.3809083e-39
0.125451 0.14217779 0.954 8.7493363e-39
0.19423512 0.14232682 0.95499992 6.9111326e-39
0.12229718 0.1457524 0.95550001 7.8273688e-39
0.125451 0.14552315 0.954 8.1028921e-39
0.19388828 0.14534548 0.95466661 7.4628574e-39
0.12252923 0.14968346 0.95599997 7.3678185e-39
0.12558162 0.14986178 0.95500004 7.6426244e-39
0.19319454 0.14970486 0.954 6.8192831e-39
0.12672709 0.15384834 0.95479995 6.9972578e-39
0.12655209 0.15672344 0.95599997 6.9072089e-39
0.12944333 0.15817814 0.95466661 6.0760021e-39
0.13067374 0.16250549 0.95550001 5.1572436e-39
0.13297805 0.16224995 0.954 5.4342046e-39
0.13158065 0.16510437 0.95599997 3.8639698e-39
0.13395378 0.16576889 0.95499998 4.0497876e-39
0.13632341 0.16643165 0.954 4.6050941e-39
0.17144969 0.16643165 0.954 2.4857521e-39
0.17414194 0.1666061 0.95499998 1.4712233e-39
0.17795455 0.16590215 0.95480007 1.7510177e-39
0.13493302 0.17013294 0.95600003 3.6806505e-40
0.137787 0.16998611 0.954 8.2940614e-40
0.14217779 0.17061335 0.954 1.1052686e-39
0.14524436 0.17089212 0.954 1.8406854e-39
0.14886852 0.17144969 0.954 1.6577683e-39
0.16643165 0.17061335 0.954 8.2690482e-40
0.17006245 0.16972652 0.95559996 1.1063798e-39
0.17404406 0.16901547 0.95600003 1.1060211e-39
0.17838822 0.16833928 0.95533335 1.2903787e-39
0.13966876 0.17312238 0.954 1.4012985e-45
0.14217779 0.17312238 0.954 0
0.14552315 0.17312238 0.954 0
0.14886852 0.17312238 0.954 0
0.16643165 0.17312238 0.954 1.0112751e-39
0.16845675 0.17348531 0.95599997 7.3650846e-40
0.15301163 0.098364621 0.95899999 2.3509886e-38
0.16646321 0.098364621 0.95899999 1.4738134e-38
0.16898538 0.098364621 0.95899999 1.4830686e-38
0.13787863 0.10340896 0.95899999 1.5752283e-38
0.14241852 0.10273639 0.95900005 1.6120348e-38
0.14645399 0.10206381 0.95900005 1.5565391e-38
0.14964874 0.10172753 0.95900005 1.5103691e-38
0.15385237 0.10004608 0.95899999 2.0180835e-38
0.15805598 0.10004608 0.95899999 2.3509886e-38
0.16225961 0.10004608 0.95899999 1.8435906e-38
0.17402974 0.10116704 0.95899999 1.3447055e-38
0.13199356 0.10677186 0.95899999 1.4644865e-38
0.1342355 0.10565089 0.95899999 1.5198396e-38
0.13787863 0.10509041 0.95899999 1.5566816e-38
0.14124152 0.10509041 0.95899999 1.5934521e-38
0.17851359 0.10565089 0.95899999 1.2525085e-38
0.1315732 0.11055511 0.95899999 1.4368633e-38
0.13367501 0.10929403 0.95899999 1.5013286e-38
0.18187648 0.10901379 0.95899999 1.1972271e-38
0.18479098 0.11047103 0.95900005 1.1236137e-38
0.12947139 0.11433837 0.95899999 1.3724335e-38
0.18748128 0.11349764 0.95899999 1.1235775e-38
0.18916273 0.11517908 0.95899999 1.0500716e-38
0.12694922 0.11770125 0.95899999 1.3262629e-38
0.12919116 0.11742102 0.95899999 1.3171163e-38
0.19084418 0.11770125 0.95899999 9.7617128e-39
0.19378671 0.11812162 0.95899999 8.6596616e-39
0.12358632 0.1227456 0.95899999 1.178678e-38
0.12526777 0.12190487 0.95899999 1.2064447e-38
0.1950478 0.12190487 0.95900005 8.3834306e-39
0.19813047 0.12302583 0.95899999 7.3735414e-39
0.1227456 0.1261085 0.95899999 1.1326879e-38
0.1984107 0.12526776 0.95899999 7.5575656e-39
0.11517908 0.13199356 0.95899999 8.842248e-39
0.11770125 0.13199356 0.95899999 9.485465e-39
0.12148451 0.13073248 0.95899999 1.0404201e-38
0.11517908 0.13367501 0.95899999 8.3798405e-39
0.11770125 0.13451573 0.95899999 8.7471867e-39
0.12106415 0.13451573 0.95899999 9.2982123e-39
0.11770125 0.13787863 0.95899999 8.4713102e-39
0.12106415 0.13787863 0.95899999 8.8397452e-39
0.1984107 0.13871935 0.95899999 7.4667838e-39
0.11770125 0.14208224 0.95900005 7.7362535e-39
0.12022343 0.14208224 0.95899999 8.0124859e-39
0.19813047 0.14096127 0.95899999 7.4667894e-39
0.12022343 0.14628585 0.95899999 7.4614463e-39
0.12022343 0.14964874 0.95899999 7.2777627e-39
0.12169468 0.15406254 0.95900005 6.3554294e-39
0.12526776 0.15553381 0.95899999 6.5355579e-39
0.12190487 0.15805598 0.95900005 3.9600975e-39
0.12582825 0.15833622 0.95899999 5.8941206e-39
0.12238529 0.1620194 0.95900011 1.0116254e-39
0.12694922 0.16225961 0.95899999 3.7742881e-39
0.12863067 0.16225961 0.95899999 4.6026293e-39
0.1227456 0.16562249 0.95899999 5.6051939e-45
0.1261085 0.16646321 0.95899999 1.4012985e-45
0.13031211 0.16646321 0.95899999 9.187235e-40
0.13115284 0.16898538 0.95899999 7.0064923e-45
0.13367501 0.16982611 0.95899999 9.1835496e-41
0.17066683 0.17066683 0.95899999 6.4501908e-40
0.17571117 0.17066683 0.95899999 1.8435623e-39
0.17823334 0.17066683 0.95899999 2.3967347e-39
0.18075551 0.17066683 0.95899999 3.3186895e-39
0.13367501 0.17234828 0.95899999 0
0.16730393 0.17571117 0.95899999 9.219563e-40
0.17024647 0.17445008 0.95899999 1.0130953e-39
0.17346925 0.17346925 0.95900005 1.2918332e-39
0.17823334 0.17234828 0.95899999 2.2155748e-39
0.15042898 0.095497049 0.96399999 2.3509886e-38
0.1538094 0.095497049 0.96399999 2.3509886e-38
0.14197791 0.098877475 0.96399999 1.5564652e-38
0.14635949 0.09807831 0.96279997 2.036487e-38
0.15011688 0.097828984 0.96200001 2.3414104e-38
0.1534903 0.096985631 0.96200001 2.3509886e-38
0.15770707 0.097828984 0.96200001 2.3509886e-38
0.16175434 0.098177314 0.96266669 2.3509886e-38
0.16445389 0.098672338 0.96200001 1.6595213e-38
0.17120072 0.098672338 0.96200001 1.3908729e-38
0.17373079 0.098672338 0.96200001 1.3814751e-38
0.17662728 0.098877475 0.96399999 1.252581e-38
0.13500622 0.10294215 0.96249998 1.5844839e-38
0.13791755 0.10111719 0.96279997 1.6121419e-38
0.14140224 0.10092129 0.96200007 1.6028151e-38
0.14505675 0.10035904 0.96200001 1.4734197e-38
0.17778975 0.10211589 0.96266669 1.2617284e-38
0.18169793 0.10253961 0.96399993 1.224957e-38
0.18553773 0.10373246 0.96200001 1.1145014e-38
0.13071977 0.10710587 0.96200001 1.4827812e-38
0.13240646 0.10541916 0.96200001 1.4921809e-38
0.18216431 0.10626252 0.96200001 1.2341768e-38
0.18553773 0.10626252 0.96200001 1.1236853e-38
0.18863003 0.10654365 0.96200007 1.0409239e-38
0.13001055 0.1097499 0.963 1.4183884e-38
0.18638109 0.10879257 0.96200001 1.1327971e-38
0.18941715 0.10980461 0.96200001 1.0316324e-38
0.12600067 0.11418144 0.96299994 1.3354114e-38
0.12903306 0.11216599 0.96200001 1.3724338e-38
0.19031674 0.11329046 0.96200001 1.003938e-38
0.19332866 0.1148144 0.963 8.8447829e-39
0.1232567 0.1181922 0.96299994 1.2338171e-38
0.12565964 0.11806946 0.96200001 1.3078236e-38
0.19481461 0.11722611 0.96200001 8.4738536e-39
0.19650131 0.11722611 0.96200001 7.2824038e-39
0.12204691 0.1223286 0.96233338 1.1786781e-38
0.1157796 0.1276111 0.96399999 1.0036488e-38
0.1181513 0.12574556 0.96266669 1.0497472e-38
0.12059952 0.12650299 0.96200001 1.1142485e-38
0.11565951 0.13001055 0.963 9.1184789e-39
0.11806946 0.12987641 0.96200001 9.5773047e-39
0.12059952 0.12987641 0.96200001 1.0220522e-38
0.11364931 0.13418552 0.96266663 8.197582e-39
0.11475522 0.13838227 0.96249998 7.9209923e-39
0.11505607 0.14149985 0.96266669 7.3685346e-39
0.1157796 0.14704855 0.96399999 6.9082739e-39
0.11806947 0.14674348 0.96200001 7.4614463e-39
0.1157796 0.14958386 0.96399999 5.986993e-39
0.11806946 0.15011689 0.96200001 7.2777319e-39
0.1157796 0.1538094 0.96399999 2.6679364e-39
0.11813039 0.15356964 0.96249998 4.6033187e-39
0.11849114 0.15728539 0.96200001 1.8417602e-39
0.12059952 0.16276719 0.96200001 4.5917748e-40
0.12565964 0.16192383 0.96200001 3.9572486e-39
0.12565964 0.16445389 0.96200001 0
0.12903306 0.16782731 0.96200001 1.8368781e-40
0.12734635 0.16951402 0.96200001 1.821688e-44
0.12987641 0.17035738 0.96200001 1.6815582e-44
0.13240646 0.17120072 0.96200001 0
0.14665844 0.095794246 0.96700001 2.3509886e-38
0.15004939 0.094098762 0.96700001 2.3509886e-38
0.1540055 0.093533605 0.96700001 2.3509886e-38
0.15767902 0.094946504 0.96700001 2.3509886e-38
0.16078739 0.095229089 0.96700001 2.3509886e-38
0.13818108 0.099185191 0.96700001 1.3720392e-38
0.1432675 0.097489715 0.96700001 1.7600845e-38
0.14496297 0.097489715 0.96700001 2.138045e-38
0.16361317 0.097489715 0.96700001 2.3509886e-38
0.16615638 0.097489715 0.96700001 1.6680651e-38
0.16954732 0.097489715 0.96700001 1.4461546e-38
0.13479012 0.10088066 0.96700001 1.5937762e-38
0.1297037 0.10766255 0.96700001 1.4459388e-38
0.12631276 0.1110535 0.96700001 1.3447028e-38
0.12800823 0.11020576 0.96700001 1.4000199e-38
0.12292181 0.11444444 0.96700001 1.2894208e-38
0.12461729 0.11274898 0.96700001 1.2894572e-38
0.12207408 0.11783539 0.96700001 1.2339239e-38
0.11868312 0.12207408 0.96700001 1.1049209e-38
0.12122634 0.12122634 0.96700001 1.1786065e-38
0.11613992 0.12546502 0.96700001 1.0036846e-38
0.11444445 0.1297037 0.96700001 8.7521949e-39
0.11274898 0.13818108 0.96700001 7.7376702e-39
0.11331414 0.14270234 0.96700001 7.0015163e-39
0.11359671 0.14581069 0.96700001 6.7259776e-39
0.11613992 0.14496297 0.96700001 7.3678241e-39
0.11376625 0.1497103 0.96700001 5.4341682e-39
0.11613992 0.15174486 0.96700001 4.5117999e-39
0.11444444 0.15344034 0.96700001 3.3140232e-39
0.14966452 0.090989232 0.97000003 2.3509886e-38
0.15357623 0.090308942 0.97000009 1.954299e-38
0.1581682 0.090989232 0.97000003 1.8991259e-38
0.14654653 0.093823791 0.97000003 2.3509886e-38
0.14966452 0.092689969 0.97000003 2.3509886e-38
0.1556171 0.092689969 0.97000003 2.3509886e-38
0.1581682 0.092689969 0.97000003 2.341769e-38
0.16185312 0.093256883 0.97000003 1.7705919e-38
0.16412076 0.094390698 0.97000003 2.3509886e-38
0.13180684 0.0994929 0.97000003 1.3630338e-38
0.13464139 0.098925993 0.97000003 1.2799882e-38
0.13804285 0.097225249 0.97000003 1.7416788e-38
0.14167109 0.096771725 0.97000009 2.055644e-38
0.1454127 0.096091427 0.97000003 2.3509886e-38
0.16582151 0.096091434 0.97000003 1.8434502e-38
0.17347479 0.097792163 0.97000003 1.3632141e-38
0.17687628 0.096941799 0.97000003 1.3264802e-38
0.13180684 0.10119363 0.97000003 1.5198024e-38
0.13350756 0.10119363 0.97000003 1.483178e-38
0.13044624 0.10595568 0.97000009 1.4644857e-38
0.13350756 0.1045951 0.97000003 1.4922525e-38
0.12585427 0.11054766 0.97000003 1.3539578e-38
0.11905134 0.11479949 0.97000003 1.2158068e-38
0.1224528 0.11394913 0.97000003 1.2894924e-38
0.11905134 0.11820096 0.97000015 1.1602747e-38
0.12160243 0.11735059 0.97000003 1.2247405e-38
0.11423259 0.12273626 0.97000003 9.8574649e-39
0.11650023 0.1224528 0.97000003 1.0958081e-38
0.11394913 0.12585427 0.97000003 9.3039324e-39
0.11139803 0.13095647 0.97000003 8.2954781e-39
0.11309877 0.13010611 0.97000003 8.7521963e-39
0.11139803 0.13435793 0.97000003 7.6497374e-39
0.11054766 0.13775939 0.97000003 8.0195919e-39
0.11071774 0.14167109 0.97000009 7.2823842e-39
0.11139803 0.14626306 0.97000003 6.1763841e-39
0.11139803 0.14966452 0.97000003 5.4391568e-39
0.14671542 0.090417646 0.97299999 2.1295411e-38
0.15012741 0.089564644 0.97299999 1.6222528e-38
0.16206935 0.09127064 0.97299999 1.0784571e-38
0.1656523 0.091364443 0.97399998 1.2992905e-38
0.16974632 0.091270648 0.97299999 1.3360939e-38
0.17315832 0.09127064 0.97299999 1.188652e-38
0.13477346 0.094682626 0.97299999 2.3509886e-38
0.13818544 0.094682626 0.97299999 2.3509886e-38
0.14159745 0.094682626 0.97299999 2.3509886e-38
0.14482388 0.093608998 0.97366667 2.3509886e-38
0.16576569 0.093545303 0.97299999 1.3453136e-38
0.16974632 0.093829632 0.97299999 1.464558e-38
0.17315832 0.093829632 0.97299999 1.4461533e-38
0.13021612 0.098621055 0.97399998 1.4459364e-38
0.13357928 0.097071014 0.97299999 1.9997154e-38
0.13733245 0.096388616 0.97299999 2.3509886e-38
0.17059931 0.096388616 0.97299999 1.4646303e-38
0.17401132 0.096388616 0.97299999 1.4001641e-38
0.12246682 0.10283913 0.97350001 1.252899e-38
0.1262435 0.10235959 0.97299999 1.4001267e-38
0.12965548 0.10235959 0.97299999 1.4276783e-38
0.13306749 0.10321259 0.97299999 1.5106195e-38
0.12214509 0.10591712 0.97433341 1.2620491e-38
0.12637237 0.10588029 0.97399998 1.3909078e-38
0.12880249 0.10577159 0.97299999 1.4001274e-38
0.11856653 0.11174256 0.97299999 1.2530426e-38
0.12197851 0.11003655 0.97299999 1.2987835e-38
0.12595919 0.10889924 0.97299999 1.3908717e-38
0.11539125 0.11539125 0.97500002 1.0874806e-38
0.11758934 0.11417385 0.97433329 1.1883629e-38
0.12112552 0.11344855 0.97299999 1.2529373e-38
0.11197225 0.11881025 0.97500002 9.5876252e-39
0.11441815 0.11783452 0.97399998 1.0411329e-38
0.11686053 0.11771353 0.97299999 1.141907e-38
0.11189568 0.12214451 0.97433329 9.218491e-39
0.11401721 0.12084119 0.97299999 1.0318077e-38
0.11686053 0.12027252 0.97299999 1.1050647e-38
0.11174256 0.12539051 0.97299999 8.9412007e-39
0.11003657 0.13562647 0.97299999 8.663525e-39
0.11003657 0.14415643 0.97299999 7.3753001e-39
0.14489721 0.091739655 0.97799999 2.3509886e-38
0.14232507 0.093454413 0.97799999 2.3509886e-38
0.1157463 0.11060201 0.97799999 1.0416681e-38
0.11860423 0.11003044 0.97800004 1.1794654e-38
0.1157463 0.11317416 0.97799999 1.0968077e-38
0.11746105 0.11231677 0.97799999 1.1700305e-38
0.11231677 0.11746105 0.97799999 9.4950737e-39
0.14018163 0.093741089 0.98100001 2.3509886e-38
