# .PCD v0.7 - Point Cloud Data file format
VERSION 0.7
FIELDS x y z rgb
SIZE 4 4 4 4
TYPE F F F F
COUNT 1 1 1 1
WIDTH 1076
HEIGHT 1
VIEWPOINT 0 0 0 1 0 0 0
POINTS 1076
DATA ascii
0.0079688998 0.033646464 1.01 1.5060841e-38
0.0079688998 0.036302764 1.01 1.5611841e-38
0.0097397659 0.038959064 1.01 1.570366e-38
0.06552206 0.036302764 1.01 2.0754724e-38
0.069063798 0.038073633 1.01 2.2407813e-38
0.078803562 0.038073633 1.01 2.3326205e-38
0.080574423 0.038073633 1.01 2.3326205e-38
0.087657891 0.039844498 1.01 2.2683352e-38
0.090314195 0.039844498 1.01 2.0754755e-38
0.11067916 0.038959064 1.01 2.0846596e-38
0.1142209 0.038959064 1.0100001 1.9097698e-38
0.11864807 0.038959064 1.01 1.1377603e-38
0.0097397659 0.042500798 1.01 1.561183e-38
0.094151072 0.042205654 1.01 1.919347e-38
0.10713743 0.042500798 1.01 2.1305779e-38
0.10949858 0.042205654 1.01 2.1397613e-38
0.1142209 0.041615367 1.01 1.8636985e-38
0.0097397659 0.045157097 1.01 1.5795504e-38
0.09769281 0.045747384 1.01 2.1305773e-38
0.10147065 0.045865446 1.0100001 2.1948642e-38
0.10536657 0.045157097 1.01 2.1764966e-38
0.0073786108 0.049879409 1.01 1.4693455e-38
0.0061980328 0.054011434 1.01 1.6071027e-38
0.0061980328 0.058438599 1.01 1.6897548e-38
0.0061980328 0.061980329 1.01 1.5336325e-38
0.0061980328 0.06552206 1.01 1.4968981e-38
0.005489686 0.069595061 1.0100001 1.5428146e-38
0.0070834663 0.074376397 1.01 1.5060794e-38
0.0097397659 0.075261831 1.01 1.4142439e-38
0.0079688998 0.0770327 1.01 1.4417951e-38
0.010330055 0.078213274 1.01 1.3958763e-38
0.013281499 0.078803562 1.01 1.3591417e-38
0.011510633 0.080574423 1.01 1.3866933e-38
0.014462078 0.081164718 1.01 1.3499588e-38
0.017708667 0.082345299 1.01 1.3040406e-38
0.021250401 0.082345299 1.01 1.2488302e-38
0.018594099 0.084116161 1.01 1.2856728e-38
0.022490008 0.08482451 1.0100001 1.349957e-38
0.026385913 0.086241201 1.0100001 1.3131517e-38
0.03010473 0.086772464 1.01 1.2947482e-38
0.033351321 0.087067604 1.01 1.2486166e-38
0.036302764 0.087657891 1.01 1.2761334e-38
0.030990165 0.089428768 1.01 1.3223343e-38
0.033941612 0.090019047 1.01 1.2762387e-38
0.038073633 0.090314202 1.0100001 1.2393248e-38
0.042500798 0.091199629 1.01 1.147166e-38
0.046042532 0.089428768 1.01 1.2116296e-38
0.049584262 0.090314195 1.01 1.2208126e-38
0.053568717 0.089871481 1.01 1.2024098e-38
0.058438599 0.089428768 1.01 1.0919554e-38
0.061980329 0.089428768 1.01 9.9075221e-39
0.065817207 0.090019062 1.01 1.0454247e-38
0.068178363 0.091199629 1.01 9.9014741e-39
0.069063798 0.093855925 1.01 1.0083716e-38
0.071720093 0.097397663 1.01 9.5308881e-39
0.074376397 0.098283097 1.01 9.3475926e-39
0.077918127 0.098283097 1.01 1.0727982e-38
0.080574423 0.098283097 1.01 9.4357889e-39
0.071720093 0.10005396 1.01 9.1660614e-39
0.074376397 0.10005396 1.01 9.6255934e-39
0.077918127 0.10005396 1.01 1.0451753e-38
0.081459865 0.10005396 1.01 9.252146e-39
0.08588703 0.10005396 1.01 7.5961951e-39
0.089428768 0.10005396 1.01 8.0574886e-39
-0.054011434 0.11599176 1.01 2.0846582e-38
-0.049584262 0.11599176 1.01 2.0571064e-38
-0.046042532 0.11510632 1.01 2.0295547e-38
-0.042500798 0.11599176 1.01 2.011187e-38
-0.037719458 0.11528342 1.0100001 2.0387374e-38
-0.033941612 0.11540147 1.01 2.0479219e-38
-0.029809587 0.11540147 1.01 2.0571061e-38
-0.026563 0.11510633 1.01 2.0479229e-38
-0.022135835 0.11599176 1.01 2.0295554e-38
-0.057553165 0.11864807 1.01 2.047923e-38
-0.054011434 0.11864807 1.0100001 2.0295545e-38
-0.049879409 0.11835292 1.01 2.0387392e-38
-0.041615367 0.11776263 1.01 2.0295547e-38
-0.038073633 0.11776264 1.01 2.0295535e-38
-0.033351321 0.11835292 1.01 2.0387374e-38
-0.03010473 0.11864807 1.01 2.0020027e-38
-0.026858144 0.11835292 1.01 2.0111867e-38
-0.021781659 0.11847098 1.0100001 1.9836354e-38
-0.017708667 0.1195335 1.01 1.9377165e-38
-0.0097397659 0.1195335 1.01 1.8826128e-38
-0.0079688998 0.1195335 1.01 1.8826128e-38
-0.06552206 0.12307522 1.01 2.3326096e-38
-0.061980329 0.12218979 1.01 2.0846586e-38
-0.058733743 0.12189465 1.01 2.0479232e-38
-0.052240565 0.12130436 1.01 2.0387392e-38
-0.030990165 0.12130436 1.01 1.9836349e-38
-0.014166933 0.12130436 1.01 1.9009819e-38
-0.010625199 0.12130436 1.01 1.8826132e-38
-0.0057553165 0.12174708 1.01 1.8550613e-38
-0.0026562999 0.12218979 1.01 1.8275096e-38
-0.06552206 0.12573153 1.01 2.0842131e-38
-0.061980329 0.1248461 1.01 2.1122087e-38
-0.0044271667 0.1248461 1.01 1.8275096e-38
-0.0017708666 0.12573153 1.01 1.7999575e-38
-0.065344974 0.12980452 1.0100001 2.5922396e-39
-0.00088543328 0.12838782 1.01 1.7724064e-38
0.0017708666 0.12927327 1.01 1.7724057e-38
0.0061980328 0.13104415 1.0100001 1.7081212e-38
0.010625199 0.13192956 1.01 1.7173042e-38
-0.064636625 0.13370042 1.01 0
0.0070834663 0.13370042 1.01 1.7173047e-38
0.010625198 0.13458586 1.01 1.6713859e-38
0.014166933 0.1354713 1.01 1.662202e-38
0.014166933 0.1381276 1.01 1.6346515e-38
0.017708667 0.1381276 1.01 1.5979168e-38
0.020364966 0.13901302 1.01 1.6346501e-38
0.014166933 0.14166933 1.01 1.6071e-38
0.017708667 0.14166933 1.01 1.5887325e-38
0.020364966 0.14166933 1.01 1.6070993e-38
0.014609649 0.14565377 1.01 1.5795497e-38
0.017708667 0.14521106 1.01 1.5887332e-38
0.021914475 0.14631784 1.0100001 1.5795498e-38
0.013320949 0.0079925703 1.013 1.9377119e-38
0.017761268 0.0062164431 1.013 2.2958829e-38
0.023977708 0.0079925703 1.013 2.3509881e-38
0.025753837 0.0079925703 1.013 2.3050691e-38
0.011544824 0.011544824 1.013 1.8550598e-38
0.027529962 0.0097686956 1.013 2.3142525e-38
0.02930609 0.0097686956 1.013 2.2683338e-38
0.011544824 0.014209013 1.013 1.7999567e-38
0.0079925703 0.01864933 1.013 1.6989359e-38
0.0097686956 0.016873203 1.013 1.6897532e-38
0.0056244014 0.022201583 1.013 1.6622015e-38
0.0044403165 0.0266419 1.013 1.496898e-38
0.0044403165 0.030194152 1.013 1.377509e-38
0.059500244 0.031082217 1.013 2.1948615e-38
0.0053283796 0.033746406 1.013 1.4509767e-38
0.10745566 0.034634467 1.013 2.0754756e-38
0.11011985 0.034634467 1.013 2.0662914e-38
0.11367211 0.034634467 1.013 2.093842e-38
0.11722436 0.033746406 1.013 1.9744476e-38
0.0065124645 0.038186722 1.013 1.4693454e-38
0.070157006 0.037002638 1.013 2.2591489e-38
0.074597321 0.038186725 1.013 2.3326196e-38
0.077261508 0.038186725 1.013 2.3509873e-38
0.082589887 0.038186725 1.013 2.3234368e-38
0.086142145 0.038186725 1.013 2.3142534e-38
0.094134711 0.039962847 1.013 1.9836366e-38
0.097686961 0.039962847 1.013 2.0846583e-38
0.10390341 0.039962847 1.013 2.1581291e-38
0.10701163 0.038630754 1.013 2.1213942e-38
0.10967581 0.037742693 1.013 2.1030266e-38
0.11367211 0.036410596 1.013 2.0754734e-38
0.11811243 0.036410596 1.013 1.5055062e-38
0.12166467 0.037298661 1.013 8.8951806e-39
0.0071045067 0.042627037 1.013 1.5336319e-38
0.097686961 0.042627037 1.013 2.1030261e-38
0.10212728 0.042627037 1.013 2.1673128e-38
0.10567953 0.042627037 1.013 2.1581294e-38
0.0062164431 0.046179295 1.013 1.5244488e-38
0.00266419 0.05061961 1.013 1.643837e-38
0.0050323587 0.049435526 1.013 1.5152659e-38
0.0026641903 0.05417186 1.013 1.6622048e-38
0.0044403165 0.05417186 1.013 1.6071028e-38
0.00266419 0.058612179 1.013 1.6346536e-38
0.0044403165 0.058612179 1.013 1.6989383e-38
0.00266419 0.062164433 1.013 1.5611833e-38
0.0044403165 0.062164433 1.013 1.542816e-38
0.00266419 0.065716684 1.013 1.5428164e-38
0.0044403165 0.065716684 1.013 1.496898e-38
0.0017761267 0.070156999 1.013 1.5060821e-38
0.0044403165 0.071933128 1.013 1.5611816e-38
0.0017761267 0.074597321 1.013 1.5336319e-38
0.0044403165 0.074597321 1.013 1.5703648e-38
0.00266419 0.078149572 1.013 1.4601614e-38
0.0058612176 0.078327179 1.013 1.4234271e-38
0.0065716687 0.081524216 1.013 1.4601611e-38
0.010360738 0.081997842 1.013 1.3958757e-38
0.013320949 0.082589887 1.013 1.3866933e-38
0.010656759 0.084366016 1.013 1.3866922e-38
0.014386627 0.085786916 1.013 1.3499581e-38
0.017583655 0.086497366 1.013 1.2856375e-38
0.021757551 0.087474227 1.013 1.3131868e-38
0.01805729 0.090286434 1.013 1.2397569e-38
0.022201583 0.09058246 1.013 1.2579798e-38
0.026641902 0.09058246 1.013 1.2670899e-38
0.029898133 0.090878487 1.013 1.2579058e-38
0.032858342 0.091470525 1.013 1.2762385e-38
0.046179295 0.091470525 1.013 1.1379464e-38
0.055059925 0.091470525 1.013 1.2944277e-38
0.058612179 0.091470525 1.013 1.1563478e-38
0.062164433 0.091470525 1.013 1.174607e-38
0.064828619 0.091470525 1.013 1.1376213e-38
0.031082217 0.093246646 1.013 1.2396068e-38
0.034042429 0.093838692 1.013 1.2947485e-38
0.038186725 0.094134711 1.013 1.2210651e-38
0.042627037 0.094134711 1.013 1.1564207e-38
0.046179295 0.094134711 1.013 1.1470914e-38
0.049731545 0.094134711 1.013 1.2483615e-38
0.053816635 0.093957096 1.013 1.3313389e-38
0.058612179 0.093246646 1.013 1.165569e-38
0.063052498 0.093246646 1.013 1.183827e-38
0.065716684 0.094134711 1.013 1.0639026e-38
0.06838087 0.095022775 1.013 1.0084439e-38
0.042627037 0.096798897 1.013 1.1933346e-38
0.046179295 0.096798897 1.013 1.1379082e-38
0.048843481 0.096798897 1.013 1.1837891e-38
0.066604748 0.097686961 1.013 1.0731914e-38
0.069268934 0.097686961 1.013 1.0913081e-38
0.070156999 0.10035115 1.013 1.1097494e-38
0.074597321 0.10212728 1.013 9.6259437e-39
0.078149572 0.10212728 1.013 9.9918452e-39
0.081701823 0.10212728 1.013 8.9766297e-39
0.086142145 0.10212728 1.013 8.5185214e-39
0.089694396 0.10212728 1.013 1.0914497e-38
-0.052395735 0.11100791 1.013 2.1122098e-38
-0.049731545 0.11100791 1.013 2.1030257e-38
-0.037298661 0.11100791 1.013 2.0846576e-38
-0.033746406 0.11100791 1.013 2.0938413e-38
-0.030194154 0.11011985 1.013 2.0846576e-38
-0.026641902 0.11011985 1.013 2.0662905e-38
-0.022645613 0.11056389 1.013 2.0387381e-38
-0.057724115 0.11456016 1.013 2.0754741e-38
-0.05417186 0.1136721 1.013 2.1030253e-38
-0.049731545 0.11367211 1.013 2.0754742e-38
-0.046179295 0.11278404 1.013 2.0662907e-38
-0.042627037 0.1136721 1.013 2.0754744e-38
-0.038630754 0.11322808 1.013 2.0662908e-38
-0.033450387 0.11337608 1.013 2.0662898e-38
-0.030490175 0.11337608 1.013 2.0754739e-38
-0.0266419 0.11278404 1.013 2.0846588e-38
-0.022201583 0.1136721 1.013 2.0111867e-38
-0.01864933 0.11367211 1.013 1.9928175e-38
-0.064828619 0.11988855 1.013 2.1213931e-38
-0.061868411 0.11929651 1.013 2.0662911e-38
-0.059056211 0.11766839 1.013 2.0662904e-38
-0.017761268 0.11722436 1.013 1.9928198e-38
-0.014209013 0.11811243 1.013 1.9469e-38
-0.011100791 0.11811242 1.013 1.9285321e-38
-0.0058612186 0.11882287 1.013 1.882613e-38
-0.0017761266 0.11900049 1.013 1.855061e-38
0.0017761267 0.11988855 1.013 1.818326e-38
0.0044403165 0.11988855 1.013 1.8091415e-38
-0.069268934 0.12255274 1.013 2.1393859e-38
-0.065716684 0.12166467 1.013 2.1122077e-38
-0.00088806328 0.12255274 1.013 1.8183259e-38
0.0017761266 0.12255274 1.013 1.7999582e-38
0.0062164431 0.12255275 1.013 1.78159e-38
0.010952781 0.12284876 1.013 1.7540386e-38
0.013320949 0.12255274 1.013 1.7448548e-38
-0.069268934 0.126105 1.013 3.522088e-39
0.0017761267 0.126105 1.013 1.7815896e-38
0.0062164436 0.126105 1.013 1.7632219e-38
0.010656759 0.126105 1.013 1.7448545e-38
0.014209013 0.126105 1.013 1.7081208e-38
0.017761268 0.126105 1.013 1.6897539e-38
-0.06838087 0.12965724 1.013 1.793662e-42
0.0062164431 0.12876919 1.013 1.7540395e-38
0.010656759 0.12965724 1.013 1.7173044e-38
0.014209013 0.12965724 1.013 1.6989371e-38
0.017761268 0.12965724 1.013 1.7173046e-38
0.020425456 0.12965724 1.013 1.717304e-38
-0.066604748 0.1332095 1.013 1.0761972e-42
0.014209013 0.1332095 1.013 1.689753e-38
0.017761268 0.13409756 1.013 1.6805697e-38
0.021491131 0.134808 1.013 1.6438349e-38
0.022556808 0.13836026 1.013 1.6438337e-38
0.026345879 0.1388339 1.013 1.5979163e-38
0.023089647 0.14209013 1.013 1.6162826e-38
0.0266419 0.14209013 1.013 1.5979155e-38
0.030194152 0.14209013 1.013 1.561182e-38
0.023977708 0.14475432 1.013 1.6254661e-38
0.0266419 0.14564238 1.013 1.570364e-38
0.030194152 0.14564238 1.013 1.5611817e-38
0.032858342 0.14564238 1.013 1.6071016e-38
0.011017656 0.0020844212 1.0190001 1.9377112e-38
0.014272133 0.0017827016 1.0175 2.2132261e-38
0.017533626 0.0020791611 1.0170001 2.3142521e-38
0.020546436 0.0026799701 1.0190001 2.3234368e-38
0.010702785 0.0053520501 1.0175 1.8458753e-38
0.014251093 0.0053441599 1.016 2.0754692e-38
0.017813867 0.0044534663 1.016 2.3234353e-38
0.02137664 0.0044534663 1.016 2.3326202e-38
0.0095874462 0.0095887603 1.0175 1.8091415e-38
0.027611492 0.0080162399 1.016 2.2958854e-38
0.0062532634 0.014293174 1.0190001 1.7632239e-38
0.0089128511 0.014260955 1.0167501 1.7540393e-38
0.0056454418 0.018129176 1.0170001 1.7356734e-38
0.0080162399 0.016923174 1.016 1.6989371e-38
0.0026799701 0.021439761 1.0190001 1.7173042e-38
0.0044534663 0.02137664 1.016 1.680569e-38
0.0019605772 0.026217943 1.0172001 1.5520004e-38
0.10588451 0.026962057 1.0184001 1.9744485e-38
0.11010566 0.026588425 1.0178001 2.0662875e-38
0.11417706 0.026758935 1.0175 2.1581262e-38
0.11768724 0.025853779 1.0170001 2.2224145e-38
0.1212423 0.026247401 1.0184001 2.1213893e-38
0.0017827016 0.030328283 1.0175 1.5244485e-38
0.057953805 0.029421812 1.0170001 2.2683327e-38
0.098563343 0.030670768 1.0190001 1.7632242e-38
0.10168895 0.03032697 1.0175 1.7356727e-38
0.1059925 0.030283576 1.016 1.7815927e-38
0.11044598 0.030283572 1.016 1.9193488e-38
0.11400874 0.030283572 1.016 2.0479219e-38
0.11757152 0.030283572 1.016 2.0203697e-38
0.1211343 0.030283572 1.016 1.7540393e-38
-0.00089332333 0.033946287 1.0190001 1.6346519e-38
0.0017827016 0.03389632 1.0175 1.6438363e-38
0.066009931 0.034788325 1.0175 2.0387332e-38
0.069679223 0.034839608 1.0190001 2.2315972e-38
0.0955856 0.033946287 1.0190001 2.1397631e-38
0.098119602 0.03389632 1.0175 2.0020084e-38
0.10153905 0.033846345 1.016 1.9101688e-38
0.10563623 0.033668209 1.016 1.956087e-38
0.11044598 0.032955654 1.016 2.0295551e-38
0.11400874 0.032955654 1.016 2.0662901e-38
0.1211343 0.033846349 1.016 1.220124e-38
-0.00089332333 0.037519582 1.0190001 1.5703654e-38
0.0017827016 0.03746435 1.0175 1.6254692e-38
0.0044534663 0.03829981 1.016 1.4601635e-38
0.073927544 0.036518432 1.016 2.3418033e-38
0.078495413 0.036572345 1.0175 2.3509874e-38
0.082066081 0.036572345 1.0175 2.3509881e-38
0.085759044 0.036626257 1.0190001 2.3418049e-38
0.089541569 0.037184108 1.0180001 2.2591501e-38
0.093798958 0.037519582 1.0190001 2.1856795e-38
0.098047927 0.037436076 1.0167501 2.1397602e-38
0.10153905 0.037409119 1.016 2.1397616e-38
0.10510182 0.037409119 1.016 2.1213941e-38
0.12417194 0.037519582 1.0190001 1.101531e-38
-0.00089332339 0.041986197 1.0190001 1.5979158e-38
0.0017818252 0.041882314 1.0165 1.597917e-38
0.0044534663 0.041862588 1.016 1.5244482e-38
0.10153905 0.040081199 1.016 2.1581291e-38
0.1223853 0.040199552 1.0190001 1.1286869e-38
-0.00089332333 0.046452813 1.0190001 1.5795512e-38
0.0017813867 0.046316054 1.016 1.5795499e-38
-0.0014888722 0.050323885 1.0190001 1.6346515e-38
0.001484489 0.04958193 1.016 1.6438359e-38
-0.0017853318 0.053520501 1.0175 1.7173036e-38
0.00089069334 0.053441599 1.016 1.6438374e-38
-0.0017853318 0.057980545 1.0175002 1.5979179e-38
0.00089069334 0.057895064 1.016 1.6622047e-38
-0.0017853318 0.062440582 1.0175 1.5979169e-38
0.00089069334 0.062348533 1.016 1.5611833e-38
-0.0017853318 0.066008613 1.0175 1.5979168e-38
0.00089069334 0.065911308 1.016 1.5336327e-38
-0.0044666165 0.069679223 1.0190001 1.6622017e-38
-0.0017813867 0.069474079 1.016 1.6162839e-38
-0.0044666165 0.074145839 1.0190001 1.6346496e-38
-0.0017813867 0.073927552 1.016 1.6070992e-38
-0.0044666165 0.078612447 1.0190001 1.4693437e-38
-0.0017813867 0.078381017 1.016 1.4142428e-38
0.00089069334 0.078381017 1.016 1.4785286e-38
-0.0044666165 0.082185745 1.0190001 1.8642438e-38
-0.0017833592 0.082004935 1.0167501 1.4968973e-38
0.0017813867 0.081943788 1.016 1.4785289e-38
0.0044534663 0.082834482 1.016 1.4785288e-38
-0.0017866467 0.085759036 1.0190001 2.0479143e-38
0.0017820442 0.085570335 1.0167501 1.5336316e-38
0.0053441599 0.085506558 1.016 1.4142393e-38
0.0093522798 0.085951902 1.016 1.405059e-38
-0.0014888722 0.089034557 1.0190001 2.0479026e-38
0.0017827016 0.089200832 1.0175 2.0662854e-38
0.0055222991 0.089603744 1.016 1.781588e-38
0.0097976271 0.089960016 1.0159999 1.4877101e-38
0.014072955 0.090316303 1.016 1.3866916e-38
0.016923174 0.091741413 1.016 1.4050583e-38
-0.00089332333 0.092012309 1.0190001 1.2764793e-38
0.0017866468 0.09379895 1.0190001 1.4414996e-38
0.0051812753 0.09415628 1.0190001 1.8457603e-38
0.0097976271 0.094413489 1.016 1.9009732e-38
0.014251093 0.094413489 1.016 1.6254667e-38
0.017813867 0.094413489 1.016 1.4509773e-38
0.02137664 0.094413489 1.016 1.3866906e-38
0.025830105 0.094413489 1.016 1.331554e-38
0.029986676 0.094710395 1.016 1.2671241e-38
0.032955654 0.095304191 1.016 1.2947838e-38
0.057895064 0.095304191 1.016 1.2392517e-38
0.062051635 0.094710395 1.016 1.0825563e-38
0.0026799701 0.097372249 1.0190001 7.1549179e-39
0.0053599402 0.098265566 1.0190001 7.8867698e-39
0.0098055173 0.0980727 1.0170001 1.4137313e-38
0.014251092 0.09797626 1.016 1.8274986e-38
0.017813867 0.097976267 1.016 1.8091349e-38
0.02137664 0.097976267 1.016 1.5979151e-38
0.025869995 0.098120473 1.0175002 1.4968928e-38
0.029479671 0.097372249 1.0190001 1.4601608e-38
0.03420987 0.097872242 1.0180001 1.3315522e-38
0.037409119 0.09797626 1.016 1.3039671e-38
0.041417241 0.098421611 1.016 1.2302484e-38
0.046316054 0.098866954 1.016 1.1103592e-38
0.050175726 0.098273158 1.016 1.1378018e-38
0.053441599 0.09797626 1.016 1.211594e-38
0.057895064 0.097976267 1.016 1.2393249e-38
0.062348533 0.097976267 1.016 1.0918831e-38
0.065020613 0.097976267 1.016 1.0455326e-38
0.0062532634 0.10183886 1.0190001 1.276022e-38
0.0098103387 0.10168939 1.0175002 1.0001165e-38
0.014251092 0.10153904 1.016 1.0457431e-38
0.017813867 0.10153904 1.016 1.3675986e-38
0.02137664 0.10153905 1.016 1.6438268e-38
0.025830109 0.10153905 1.016 1.6897472e-38
0.034839608 0.10094553 1.0190001 1.3315889e-38
0.037519582 0.10183886 1.0190001 1.2948564e-38
0.041862588 0.10153905 1.016 1.2855658e-38
0.046316054 0.10153905 1.016 1.1473107e-38
0.049916305 0.10161465 1.0167501 1.0458604e-38
0.053560607 0.10176456 1.01825 1.1656062e-38
0.056874923 0.10154109 1.0190001 1.2669843e-38
0.063239224 0.10064835 1.016 1.2301412e-38
0.065911308 0.10064835 1.016 1.0918124e-38
0.069577962 0.10169026 1.0175 1.0362456e-38
0.072146162 0.10242973 1.016 8.8901738e-39
-0.036590315 0.10619941 1.0180001 2.1305773e-38
-0.033912972 0.10619941 1.0180001 2.1397616e-38
-0.030328725 0.10614724 1.0175002 2.1122098e-38
-0.02585553 0.10609508 1.017 2.0938417e-38
-0.021407764 0.10614724 1.0175002 2.0938415e-38
-0.01874138 0.10619941 1.0180001 2.0938415e-38
0.01071988 0.10541216 1.0190001 1.52445e-38
0.014281997 0.10533523 1.01825 1.2116977e-38
0.018002002 0.10569882 1.0166 1.1565935e-38
0.02137664 0.10599251 1.016 1.0091158e-38
0.024976235 0.1052583 1.0175 1.1377952e-38
0.037519582 0.10451883 1.0190001 1.4142397e-38
0.041628867 0.10523349 1.0190001 1.4601589e-38
0.046750586 0.10511439 1.0190001 1.2762743e-38
0.049728334 0.10511439 1.0190001 1.101138e-38
0.052706078 0.10451883 1.0190001 1.1565254e-38
0.070572548 0.10451883 1.0190001 1.0088389e-38
0.074072205 0.10530959 1.0180001 1.0455703e-38
0.078438215 0.10518005 1.0167501 9.1617034e-39
0.082004935 0.10518005 1.0167501 8.9783757e-39
0.08529295 0.10490924 1.0170001 9.1634956e-39
0.089960024 0.10421111 1.016 1.0734756e-38
-0.061639313 0.11166542 1.0190001 2.0938408e-38
-0.057953801 0.11144625 1.0170001 2.0938416e-38
-0.053559296 0.10979658 1.01825 2.1213932e-38
-0.050323885 0.10928322 1.0190001 2.1213937e-38
-0.046384435 0.11060772 1.0175 2.1030259e-38
-0.041966476 0.11071731 1.0185001 2.1030261e-38
-0.037743714 0.10906756 1.0170001 2.0938417e-38
-0.033846349 0.10955527 1.016 2.1030254e-38
-0.02137664 0.10955527 1.016 2.0571056e-38
-0.017655717 0.1100399 1.0172001 2.0479223e-38
-0.014279148 0.10976919 1.0180001 2.0387395e-38
-0.0095989518 0.110061 1.018625 1.9928196e-38
-0.0053520501 0.11060772 1.0175 1.9193493e-38
-0.0017840167 0.11060772 1.0175 1.8734295e-38
0.0017866467 0.1107721 1.0190001 1.8183277e-38
0.0053599398 0.1107721 1.0190001 1.7815904e-38
0.010183886 0.1102361 1.0190001 1.6805702e-38
0.014293173 0.10987877 1.0190001 1.5887346e-38
0.017676756 0.1101714 1.0184001 1.5795511e-38
0.0214082 0.11061034 1.0175 1.6346512e-38
0.025683047 0.10965544 1.0190001 1.1103565e-38
0.029926334 0.11032543 1.0190001 9.537271e-39
0.038412903 0.11166542 1.0190001 9.7187826e-39
0.040199552 0.11166542 1.0190001 1.5786737e-38
0.075932488 0.10809212 1.0190001 1.1558109e-38
0.078612447 0.10898545 1.0190001 7.5979986e-39
0.081292421 0.10809212 1.0190001 9.6255149e-39
-0.072359189 0.11523871 1.0190001 2.1856764e-38
-0.069679223 0.11523871 1.0190001 2.1397617e-38
-0.066105925 0.11523871 1.0190001 2.1030267e-38
-0.0624419 0.11417706 1.0175 2.0662897e-38
-0.059082657 0.11371185 1.016 2.0754739e-38
-0.016923174 0.11400874 1.016 2.0203704e-38
-0.014251093 0.11400874 1.016 2.0020029e-38
-0.0097976271 0.11400875 1.016 1.9744513e-38
-0.0053441599 0.11400875 1.016 1.9285317e-38
-0.0017813867 0.11400875 1.016 1.882613e-38
0.0017813867 0.11400875 1.016 1.8458796e-38
0.0053441599 0.11400874 1.016 1.7999583e-38
0.0098265568 0.11434539 1.0190001 1.7356722e-38
0.014293173 0.11434539 1.0190001 1.6713874e-38
0.017866466 0.11434539 1.0190001 1.6071004e-38
0.021439761 0.11434539 1.0190001 1.5519963e-38
0.024119729 0.11434539 1.0190001 1.5703632e-38
0.030372994 0.11345207 1.0190001 1.6805674e-38
0.038412903 0.11345207 1.0190001 4.8393688e-39
0.040199552 0.11345207 1.0190001 6.7743028e-39
-0.078496732 0.11774378 1.0175 3.0495842e-39
-0.074145846 0.11791869 1.0190001 2.185347e-38
-0.069576651 0.11774378 1.0175 2.1948621e-38
-0.066008613 0.11774378 1.0175 2.1213932e-38
-0.062645435 0.11727463 1.016 2.0938422e-38
-0.0089069335 0.11668083 1.016 1.9377157e-38
-0.0053441599 0.11668083 1.016 1.9009799e-38
-0.0017813867 0.11668083 1.016 1.8734286e-38
0.0017813867 0.11757153 1.016 1.8366934e-38
0.0053441599 0.11757153 1.016 1.7999578e-38
0.0098081473 0.11768638 1.0170001 1.7540379e-38
0.014272134 0.11774379 1.0175 1.6897531e-38
0.01782636 0.11765765 1.0167501 1.6713861e-38
0.02137664 0.11757152 1.016 1.6071004e-38
0.024119729 0.11791869 1.0190001 1.5611823e-38
-0.07816039 0.12095751 1.0170001 7.1746481e-43
-0.073952384 0.12206443 1.0163332 6.0934679e-39
-0.069474079 0.1202436 1.016 2.3326115e-38
-0.066802002 0.1202436 1.016 2.1397606e-38
0.0062348535 0.1202436 1.016 1.7907741e-38
0.0097976271 0.12068895 1.016 1.763222e-38
0.01469644 0.12157963 1.016 1.6713871e-38
0.017813867 0.12202498 1.016 1.6438356e-38
0.02137664 0.12202498 1.016 1.625468e-38
0.024791783 0.12181177 1.0172001 1.5795501e-38
-0.072739959 0.12618157 1.016 7.1746481e-43
0.02137664 0.12647846 1.016 1.6346529e-38
0.026092887 0.1259952 1.0175 1.6071007e-38
0.029479671 0.12685192 1.0190001 1.5519977e-38
-0.070364773 0.13004123 1.016 1.0761972e-42
0.022267334 0.13004123 1.016 1.5887343e-38
0.025830105 0.13004123 1.016 1.6071003e-38
0.030351296 0.13032855 1.01825 1.5703654e-38
0.033052966 0.13131854 1.0190001 1.5336313e-38
-0.068785898 0.13310517 1.0190001 1.4349296e-42
0.022267334 0.13360399 1.016 1.671386e-38
0.025830105 0.133604 1.016 1.6162833e-38
0.030283572 0.133604 1.016 1.5611817e-38
0.033946287 0.1339985 1.0190001 1.5611813e-38
0.036626257 0.13489182 1.0190001 1.4968963e-38
0.027017698 0.13686988 1.016 1.5887324e-38
0.030283574 0.13805747 1.016 1.5703648e-38
0.033863444 0.13812454 1.0165 1.5336304e-38
0.037045959 0.1383619 1.01825 1.4968969e-38
0.033846349 0.14251092 1.016 1.5060814e-38
0.037632491 0.14214273 1.0172001 1.5336319e-38
0.010751439 -0.00089595327 1.022 2.0571026e-38
0.014335252 -0.00089595327 1.022 2.2683321e-38
0.0089595327 0.0017919065 1.022 1.7999572e-38
0.018815018 0.00089595327 1.022 2.323436e-38
0.022398831 0.0026878598 1.022 2.2958852e-38
0.0080635799 0.0053757196 1.022 1.7724067e-38
0.024788041 0.005674371 1.0220001 2.305069e-38
0.0058236965 0.010303462 1.022 1.7356735e-38
0.0044797664 0.014335252 1.022 1.7724077e-38
0.031358361 0.013439299 1.022 2.2958849e-38
0.0026878598 0.017919065 1.022 1.763224e-38
0.0044797664 0.017023113 1.022 1.7815924e-38
0.11826582 0.022398831 1.022 2.3326203e-38
0.12095369 0.022398831 1.022 2.3234365e-38
-0.00089595327 0.027774552 1.022 1.5520011e-38
0.00089595327 0.024190737 1.022 1.6438358e-38
0.057341009 0.027774552 1.022 2.3142521e-38
0.099450812 0.027774552 1.022 1.8458757e-38
0.10213867 0.026878599 1.022 1.9468984e-38
0.11020225 0.024190737 1.0220001 2.2958852e-38
0.11468202 0.024190737 1.022 2.3142528e-38
0.1227456 0.024190737 1.022 2.1122072e-38
0.12453751 0.027774552 1.022 1.5969019e-38
-0.00089595327 0.03046241 1.022 1.5887346e-38
0.062716722 0.031358361 1.022 2.148943e-38
0.095269702 0.030761061 1.0220001 1.900984e-38
0.097658902 0.029566457 1.022 1.772408e-38
0.12453751 0.03046241 1.022 1.0911624e-38
-0.0026878598 0.034942176 1.022 1.5795504e-38
0.063612677 0.033150271 1.022 2.0295555e-38
0.066300541 0.033150271 1.022 2.07547e-38
0.06988436 0.033150271 1.022 2.2591486e-38
0.073468164 0.034942176 1.022 2.3326196e-38
0.07794793 0.034942176 1.0220001 2.3509879e-38
0.082427703 0.034942176 1.022 2.3509886e-38
0.086011514 0.034942176 1.022 2.341805e-38
0.089595318 0.034046225 1.022 2.2775185e-38
0.093179137 0.034046225 1.022 2.2132325e-38
0.12453751 0.034046225 1.022 1.0641093e-38
-0.0026878598 0.036734082 1.022 1.4968956e-38
-0.0026878598 0.042109802 1.0220001 1.5887322e-38
-0.0026878598 0.046589568 1.022 1.5703676e-38
-0.0044797664 0.051069334 1.022 1.616284e-38
-0.0026878598 0.049277429 1.022 1.6438358e-38
-0.0044797664 0.053757194 1.022 1.6346521e-38
-0.0044797664 0.057341009 1.022 1.5703661e-38
-0.0044797668 0.061820775 1.0220001 1.6254678e-38
-0.0044797664 0.066300541 1.022 1.597917e-38
-0.0062716729 0.070780307 1.022 1.671385e-38
-0.0062716729 0.073468164 1.022 1.6622005e-38
-0.0062716729 0.077947937 1.0220001 1.5336294e-38
-0.0062716729 0.082427703 1.022 2.0111828e-38
-0.0080635799 0.086011514 1.022 1.5519872e-38
-0.0053757196 0.086011514 1.022 2.1581087e-38
-0.0080635799 0.088699371 1.022 7.9789262e-39
-0.0050770687 0.089296669 1.0220001 1.2854512e-38
-0.0026878598 0.090491273 1.022 1.7999399e-38
-0.0019710974 0.094433479 1.022 9.176424e-39
-0.036734082 0.099450812 1.022 2.1581286e-38
-0.034046225 0.099450812 1.022 2.1764961e-38
-0.03046241 0.099450812 1.022 2.2224156e-38
-0.025982644 0.099450812 1.0220001 2.1673129e-38
-0.021502879 0.099450812 1.022 2.1397619e-38
-0.00089595327 0.097658902 1.022 1.2764227e-38
0.0014932555 0.098853514 1.0220001 1.1936906e-38
0.030761061 0.098853514 1.0220001 1.4326089e-38
0.033150271 0.099450812 1.022 1.4326081e-38
-0.040317897 0.10303462 1.022 2.1581288e-38
-0.037331387 0.10243732 1.0220001 2.1397616e-38
-0.034046225 0.10213867 1.022 2.1581288e-38
-0.03046241 0.10213867 1.022 2.1856799e-38
-0.025982646 0.10213867 1.022 2.1489446e-38
-0.021502879 0.10213867 1.022 2.1305772e-38
-0.018815018 0.10213867 1.022 2.1122098e-38
0.0017919065 0.10213867 1.022 1.6805747e-38
0.0044797664 0.10213867 1.022 1.4785296e-38
0.03046241 0.10213867 1.022 1.5336263e-38
0.033747576 0.10243732 1.0220001 1.4601547e-38
0.058236964 0.10303462 1.022 1.3589631e-38
0.061372798 0.10213867 1.022 1.3221551e-38
0.065404586 0.10303462 1.022 1.1931551e-38
0.068988405 0.10303462 1.022 1.0088036e-38
-0.05286124 0.10661844 1.022 2.1305769e-38
-0.050173379 0.10661844 1.022 2.1305766e-38
-0.046589568 0.10661844 1.022 2.1397602e-38
-0.042109802 0.1057225 1.022 2.1489444e-38
-0.038525991 0.10572249 1.022 2.1305776e-38
-0.017023113 0.10572249 1.022 2.0938426e-38
-0.014335252 0.10572249 1.022 2.0846593e-38
-0.010303463 0.10617046 1.022 2.0295565e-38
-0.0053757196 0.10661844 1.022 1.9009823e-38
-0.0014932555 0.10602114 1.0220001 1.8366955e-38
0.0017919065 0.10572249 1.022 1.7724098e-38
0.0053757196 0.10572249 1.022 1.6989372e-38
0.0080635799 0.10572249 1.022 1.643838e-38
0.027774552 0.10572249 1.022 1.4047342e-38
0.03046241 0.10572249 1.022 1.6161702e-38
0.034046225 0.10572249 1.022 1.7172997e-38
0.037630036 0.10661844 1.022 1.7632132e-38
0.043901712 0.10661844 1.022 1.3775088e-38
0.045693617 0.10661844 1.022 1.3499577e-38
0.051069334 0.10661844 1.022 1.1841788e-38
0.054055847 0.10602114 1.0220001 1.1471968e-38
0.057042357 0.10542384 1.0220001 1.2300681e-38
0.070780307 0.10661844 1.022 1.0732291e-38
0.086907469 0.10661844 1.022 1.1284323e-38
-0.065404586 0.11199415 1.022 2.0938426e-38
-0.062268749 0.11065023 1.022 2.1030249e-38
-0.057042357 0.10960495 1.0220001 2.1122093e-38
-0.054653149 0.10841034 1.022 2.1305766e-38
-0.049277429 0.10841034 1.022 2.1122095e-38
-0.046589568 0.10841034 1.022 2.1213932e-38
-0.042109802 0.10841034 1.0220001 2.1305772e-38
-0.011647392 0.10841034 1.022 2.047924e-38
-0.0053757196 0.10841034 1.022 1.9469002e-38
-0.0017919065 0.10841034 1.022 1.8734294e-38
0.0017919065 0.10841034 1.022 1.8366945e-38
0.0053757196 0.10841034 1.022 1.7173044e-38
0.00940751 0.10975428 1.022 1.6346505e-38
0.027774552 0.11199415 1.022 1.2213876e-38
0.031358361 0.1093063 1.022 9.5361878e-39
0.034046225 0.11020225 1.022 1.0731155e-38
0.037450846 0.10984387 1.022 1.3583496e-38
0.04181115 0.10960495 1.022 1.7081156e-38
0.046888225 0.10900765 1.0220001 1.4417928e-38
0.04987473 0.10900765 1.0220001 1.331483e-38
0.053757194 0.10841034 1.022 1.1104981e-38
0.073468164 0.10841034 1.022 8.9848651e-39
0.076156028 0.11020225 1.022 8.7047484e-39
0.082427703 0.1093063 1.022 1.0458916e-38
-0.081531748 0.11557797 1.022 1.4349296e-42
-0.077947937 0.11557798 1.0220001 1.9642584e-38
-0.07376682 0.11438337 1.0220001 2.2040446e-38
-0.06988436 0.11378606 1.022 2.1489451e-38
-0.066300541 0.11378606 1.022 2.1030263e-38
0.026878599 0.11468202 1.022 1.5979148e-38
0.03046241 0.11557797 1.022 1.5703675e-38
0.034046225 0.11468202 1.022 1.496823e-38
0.037331387 0.11498067 1.0220001 9.4494824e-39
0.041213848 0.11468202 1.022 8.0643045e-39
-0.081531748 0.11826582 1.022 1.0761972e-42
0.026878599 0.11826582 1.022 1.5428139e-38
0.03046241 0.11826582 1.022 1.5060792e-38
0.034046225 0.11826582 1.022 1.5611833e-38
0.037630036 0.11826582 1.022 1.6071013e-38
0.041213848 0.11826582 1.022 1.5979191e-38
0.027774552 0.12184964 1.022 1.5428149e-38
0.03046241 0.12184965 1.022 1.5244461e-38
0.038525991 0.12095369 1.022 1.5428139e-38
0.040317897 0.12095369 1.022 1.4785303e-38
-0.076156028 0.12632941 1.022 3.685415e-43
0.030761061 0.12513481 1.0220001 1.5611821e-38
0.033150271 0.12632941 1.022 1.5336323e-38
-0.073468164 0.12901726 1.022 1.0761972e-42
0.031358361 0.12812132 1.022 1.5887321e-38
0.034225415 0.12955485 1.022 1.4877137e-38
0.037450846 0.1302716 1.022 1.5060796e-38
0.041213848 0.13170514 1.022 1.4877116e-38
0.037928689 0.13409434 1.0220001 1.4968964e-38
0.041213848 0.13439299 1.022 1.4785285e-38
0.038525991 0.13708085 1.022 1.4968969e-38
0.041751422 0.138156 1.022 1.4601618e-38
0.011715773 -0.0045060664 1.028 2.3050683e-38
0.013518199 -0.0045060664 1.028 2.314252e-38
0.0057076844 -0.0015020221 1.0280001 1.6346535e-38
0.0094410423 -0.0022484306 1.02575 2.0479187e-38
0.014377332 -0.0026957497 1.025 2.2867004e-38
0.017997965 -0.0018011116 1.0265 2.2775171e-38
0.0053980746 0.0017997965 1.0265 1.7264911e-38
0.0080872495 0.00089858327 1.025 1.7724062e-38
0.021598874 0.00089989824 1.0265 2.2775175e-38
0.024261748 0.0026957497 1.025 2.2867015e-38
0.0053980746 0.0053993897 1.0265 1.7540407e-38
0.027309626 0.0051007387 1.027 2.2683341e-38
0.029740039 0.0063084932 1.028 2.2683335e-38
0.0018011115 0.009907648 1.0274999 1.6438373e-38
0.0044929166 0.0089858323 1.025 1.7081229e-38
0.031070162 0.0094568226 1.0272499 2.2683337e-38
-0.00090121327 0.014419412 1.028 1.7173063e-38
0.0017971664 0.014377332 1.025 1.7632244e-38
0.033879071 0.01469001 1.026 2.2683333e-38
0.036949743 0.015320626 1.028 2.2683338e-38
-0.0045060664 0.018925479 1.028 1.717305e-38
-0.0015020221 0.018324671 1.0280001 1.6897542e-38
0.00089858327 0.017971667 1.025 1.7448566e-38
0.035044748 0.017073084 1.025 2.2499653e-38
0.038151365 0.017723862 1.0280001 2.2499657e-38
0.11896016 0.018925479 1.028 2.3326205e-38
-0.0045060664 0.021629117 1.028 1.7173058e-38
-0.0018017691 0.02161268 1.0272499 1.6713881e-38
0.00089858327 0.021566 1.025 1.7173042e-38
0.1018371 0.022530332 1.0280001 2.3418019e-38
0.10724438 0.022530332 1.028 2.3326191e-38
0.1097876 0.021596244 1.0265 2.3326201e-38
0.1138932 0.021769911 1.0261999 2.3326202e-38
0.1178275 0.020687578 1.026 2.332621e-38
0.12262696 0.021286635 1.026 2.249967e-38
0.12526865 0.022530332 1.028 2.1581286e-38
-0.0045060664 0.025233973 1.028 1.7264894e-38
-0.0019800393 0.025728939 1.0262001 1.6438367e-38
0.051269218 0.026082586 1.026 2.2867006e-38
0.053967603 0.026082586 1.026 2.305068e-38
0.057593491 0.025195837 1.0265 2.3509877e-38
0.061689056 0.027466623 1.0272499 2.3326199e-38
0.066689782 0.027937612 1.028 2.2683323e-38
0.070294634 0.027937612 1.028 2.3234357e-38
0.072998278 0.027937612 1.028 2.3509881e-38
0.078405552 0.027937612 1.028 2.3050708e-38
0.082010411 0.027937612 1.0280001 2.1305797e-38
0.090421736 0.027336804 1.0280001 1.8642484e-38
0.093851194 0.026479367 1.0274 1.8550615e-38
0.09779194 0.025852021 1.0257499 1.9652655e-38
0.10243849 0.024261748 1.025 2.2499666e-38
0.10603283 0.024261748 1.025 2.268334e-38
0.126277 0.025759447 1.0274 1.6803903e-38
-0.0045060664 0.031542465 1.028 1.7081205e-38
-0.0026957497 0.030551832 1.025 1.5887346e-38
0.062900834 0.029653249 1.025 2.268332e-38
0.06659247 0.030595228 1.0265 2.1856765e-38
0.070192069 0.030595228 1.0265 2.2867005e-38
0.07379166 0.030595228 1.0265 2.3509879e-38
0.077907786 0.030766267 1.0262001 2.3509884e-38
0.08232303 0.030442601 1.0274 2.2867027e-38
0.086516485 0.03064125 1.028 2.1764982e-38
0.089989834 0.030595228 1.0265 2.0754763e-38
0.093153141 0.030252306 1.025 1.9469028e-38
0.12688565 0.030595228 1.0265 1.017975e-38
-0.0054007047 0.034196135 1.0265 1.6071023e-38
-0.0026957497 0.033247583 1.025 1.5887329e-38
0.073683828 0.033247583 1.025 2.3509873e-38
0.078176752 0.033247583 1.025 2.3509883e-38
0.08266966 0.033247583 1.025 2.3509886e-38
0.086263999 0.033247583 1.025 2.3142535e-38
0.12670024 0.034146167 1.025 1.0365967e-38
-0.0054007052 0.037795726 1.0265 1.6346521e-38
-0.0026957497 0.038639084 1.025 1.5887329e-38
0.12670024 0.036841914 1.025 1.0734749e-38
-0.00811092 0.041455813 1.028 1.6622037e-38
-0.0053961026 0.041364416 1.02575 1.6162846e-38
-0.00811092 0.045961879 1.0280001 1.6530178e-38
-0.0053915 0.045827746 1.0250001 1.6254681e-38
-0.00811092 0.050467946 1.028 1.5979168e-38
-0.0056910273 0.050021138 1.025 1.6162846e-38
-0.00811092 0.054072797 1.028 1.5703651e-38
-0.0062900828 0.053914994 1.025 1.6162847e-38
-0.00811092 0.057677649 1.028 1.5795506e-38
-0.0062900828 0.057509329 1.025 1.5887333e-38
-0.0085615264 0.062634319 1.028 1.6254703e-38
-0.0062900833 0.062002249 1.025 1.6254678e-38
-0.0090002976 0.06659247 1.0265 1.5979186e-38
-0.0062900828 0.066495165 1.025 1.6162844e-38
-0.0090002976 0.070192069 1.0265 1.5611845e-38
-0.0062900828 0.069190912 1.025 1.6346512e-38
-0.0095433919 0.073993467 1.0268 1.6254675e-38
0.10994802 0.0748007 1.028 1.1009519e-38
0.11355287 0.073899493 1.028 1.3957328e-38
0.11685732 0.0741999 1.0280001 1.5703647e-38
-0.013518199 0.077504337 1.028 2.1213858e-38
-0.0096755503 0.078065187 1.0265 1.8642443e-38
0.10724438 0.078405552 1.028 8.0615285e-39
0.10994802 0.077504344 1.028 9.0756286e-39
0.11355287 0.077504337 1.028 1.1745284e-38
0.11805894 0.077504344 1.028 1.2849904e-38
0.12166379 0.077504337 1.028 1.4233573e-38
-0.013518199 0.082010411 1.0280001 1.6436441e-38
-0.010150923 0.082352191 1.0258572 2.1121922e-38
0.10652341 0.082370892 1.028 1.0179821e-38
0.10994803 0.082010403 1.028 1.0547183e-38
0.11355288 0.082010403 1.028 1.0823741e-38
0.11805895 0.082010411 1.028 1.0641138e-38
0.12166379 0.082010411 1.0280001 1.0458169e-38
-0.013518199 0.086516477 1.028 9.6413889e-39
-0.010783 0.086263999 1.025 9.6363007e-39
0.11355288 0.085615262 1.028 1.2392851e-38
0.11805894 0.085615262 1.0280001 1.3589986e-38
0.12166379 0.085615262 1.028 1.2668024e-38
-0.025233973 0.091022544 1.028 2.1948644e-38
-0.021629117 0.091022544 1.028 2.1489461e-38
-0.018925479 0.091022544 1.028 2.1305786e-38
-0.013518199 0.090121329 1.028 1.698945e-38
-0.010250688 0.090091169 1.0256001 1.1936581e-38
-0.0062900828 0.090756908 1.025 8.3466269e-39
-0.036949743 0.094627395 1.028 2.2040474e-38
-0.034246102 0.094627395 1.028 2.2224151e-38
-0.030641252 0.09372618 1.028 2.2132317e-38
-0.02611064 0.093634143 1.027 2.2040481e-38
-0.021597559 0.093588106 1.0265 2.1489457e-38
-0.018306261 0.093934536 1.027 2.130578e-38
-0.014419412 0.093726188 1.028 2.0111902e-38
-0.0099054566 0.093635008 1.027 1.7540451e-38
-0.0053915 0.093452662 1.025 9.6370743e-39
-0.044095017 0.098987497 1.0265 2.1581281e-38
-0.041395321 0.098987505 1.0265 2.1489449e-38
-0.0379644 0.097698711 1.0262001 2.1673125e-38
-0.034146167 0.097046994 1.025 2.1856802e-38
-0.030551832 0.097046994 1.025 2.1948646e-38
-0.026058916 0.097046994 1.0250001 2.1856809e-38
-0.021566 0.097046994 1.025 2.1397616e-38
-0.01817137 0.097699761 1.0262001 2.1122108e-38
-0.014419412 0.09733104 1.028 2.047925e-38
-0.0099094026 0.097284138 1.0274999 1.9193523e-38
-0.0053915 0.097945571 1.0250001 1.7081265e-38
-0.0020966944 0.099143684 1.025 1.6805742e-38
-0.053171586 0.10363953 1.028 2.1489437e-38
-0.050467946 0.10363953 1.028 2.121392e-38
-0.046120774 0.10191183 1.0265 2.1489446e-38
-0.041634358 0.10213897 1.025 2.1489449e-38
-0.038639084 0.10153991 1.025 2.1581286e-38
-0.017089739 0.10163723 1.026 2.1030268e-38
-0.014391359 0.10163721 1.026 2.0662917e-38
-0.009899904 0.10170326 1.0266666 1.9744539e-38
-0.0053914995 0.10243849 1.025 1.8275135e-38
-0.0017971664 0.10243849 1.025 1.7815946e-38
0.062002245 0.10333708 1.025 1.432604e-38
0.06739375 0.10333708 1.025 9.6270199e-39
0.096429825 0.10363953 1.028 1.3499231e-38
-0.061689056 0.10671553 1.0272499 2.1397605e-38
-0.057593491 0.10618669 1.0265 2.1305765e-38
-0.054268003 0.10583588 1.026 2.1305765e-38
-0.050320663 0.10513424 1.025 2.1305762e-38
-0.046726331 0.10513424 1.025 2.1489436e-38
-0.0089858323 0.10513424 1.025 1.9744535e-38
-0.0053915 0.10513424 1.025 1.9009823e-38
-0.0026957497 0.10513424 1.025 1.818328e-38
0.058407914 0.10693141 1.025 1.1472747e-38
0.062002249 0.10603283 1.0250001 1.3313758e-38
0.066495165 0.10603283 1.025 1.2301413e-38
0.069190912 0.10603283 1.025 1.1839013e-38
0.089220122 0.10724438 1.028 1.3312986e-38
0.094627395 0.10544196 1.028 1.1750712e-38
-0.081109196 0.11084924 1.028 2.167289e-38
-0.077129424 0.11014061 1.027 2.2132294e-38
-0.073738411 0.10970671 1.02575 2.1305769e-38
-0.070089497 0.10962716 1.025 2.1305773e-38
-0.06659247 0.10978627 1.0265 2.103026e-38
-0.062002249 0.10872857 1.025 2.1581273e-38
-0.058407914 0.10872857 1.025 2.1489435e-38
0.044929162 0.11052574 1.025 1.7632138e-38
0.051219247 0.11052574 1.025 1.322411e-38
0.053914994 0.11052574 1.025 1.1566341e-38
0.057509329 0.10962716 1.025 1.1289724e-38
0.062063616 0.109735 1.026 1.2946748e-38
0.06659247 0.10978891 1.0265 1.2393602e-38
0.070140123 0.10970804 1.02575 1.1285479e-38
0.073683828 0.11052574 1.025 8.7072469e-39
0.083568245 0.11052574 1.025 1.2391441e-38
0.086132787 0.10954154 1.027 1.1102835e-38
-0.08232303 0.11330583 1.0273999 9.4149713e-39
-0.077817313 0.11340121 1.025 2.2315908e-38
-0.073683828 0.11232291 1.025 2.1397601e-38
-0.070089497 0.11232291 1.025 2.1489446e-38
-0.06739375 0.11232291 1.025 2.1122101e-38
0.042233415 0.11591724 1.025 8.8933351e-39
0.045827746 0.11412007 1.025 1.4043351e-38
0.050320666 0.11412008 1.0250001 1.6897458e-38
0.053914994 0.11412009 1.0250001 1.5794743e-38
0.057509329 0.11412008 1.0250001 1.4141694e-38
0.062154349 0.11349808 1.0274999 1.3037874e-38
0.066689782 0.11355287 1.028 1.2117029e-38
0.070294634 0.11355288 1.028 1.0548626e-38
0.073844917 0.11347069 1.0272499 8.706507e-39
0.077907786 0.11317539 1.0262001 8.2480021e-39
0.082010403 0.11325248 1.0280001 1.2210944e-38
0.045827746 0.11861299 1.0250001 9.9990044e-39
0.050320663 0.11861299 1.025 4.9404627e-39
0.053993896 0.11878788 1.0265 7.7898742e-39
0.057636227 0.11887402 1.0272501 1.4502869e-38
0.062183719 0.11805895 1.028 1.505932e-38
0.066689782 0.11715773 1.028 1.3127911e-38
0.069393419 0.11625651 1.028 1.0092254e-38
0.034146167 0.12220733 1.025 1.50608e-38
0.037440971 0.12250686 1.025 1.5060794e-38
0.041634362 0.12250686 1.025 1.4877133e-38
0.045827746 0.12220734 1.0250001 1.5336311e-38
0.050320663 0.12220733 1.025 1.5060815e-38
0.054072801 0.12256502 1.028 9.8164559e-39
0.057677649 0.12256502 1.028 3.6450982e-39
0.061733112 0.1221144 1.028 5.7633991e-39
0.034445696 0.12550214 1.025 1.5336316e-38
0.037740499 0.12580165 1.025 1.4785293e-38
0.041334834 0.12580165 1.025 1.4693458e-38
0.045850977 0.12586346 1.0255001 1.4509779e-38
0.050467946 0.12616986 1.028 1.4509786e-38
0.054072797 0.12616986 1.028 1.4877135e-38
0.057377245 0.12586945 1.0280001 1.5428153e-38
0.038639084 0.12849741 1.025 1.5060799e-38
0.04133483 0.12939599 1.025 1.4877125e-38
0.045827746 0.12939599 1.0250001 1.4509783e-38
0.050467946 0.12977472 1.028 1.4326109e-38
0.053171586 0.12977472 1.028 1.4142444e-38
0.045827746 0.13388892 1.025 1.4601627e-38
0.050200909 0.13368517 1.0262001 1.4509791e-38
0.0063269031 -0.0045192167 1.031 1.7081245e-38
0.0090384334 -0.0045192167 1.031 2.1397559e-38
0.015365336 -0.0045192167 1.031 2.3050686e-38
0.020788398 -0.00090384332 1.031 2.268333e-38
0.025307612 0.0018076866 1.031 2.25915e-38
0.0027115298 0.0063269031 1.031 1.6713885e-38
-0.00090384332 0.011749962 1.031 1.6530203e-38
0.034346044 0.011749962 1.031 2.249966e-38
-0.0027115298 0.015365336 1.031 1.7173058e-38
0.035249889 0.013557649 1.031 2.2683338e-38
0.038262703 0.014160212 1.031 2.2775178e-38
-0.0027115298 0.017173024 1.031 1.7448564e-38
0.04067295 0.018076867 1.031 2.2591497e-38
0.11026888 0.01898071 1.031 2.3142528e-38
0.11388426 0.01898071 1.031 2.3050691e-38
0.11659579 0.01898071 1.031 2.3509879e-38
0.12292269 0.01898071 1.031 2.2958857e-38
0.094903551 0.022596082 1.031 2.2499631e-38
0.096711233 0.022596082 1.031 2.2775143e-38
0.10303813 0.020788398 1.031 2.3234365e-38
0.10665351 0.021692239 1.031 2.3326195e-38
0.12653807 0.021692239 1.031 2.1673117e-38
0.13015343 0.022596082 1.031 1.5147254e-38
0.061762627 0.025006332 1.031 2.3142525e-38
0.065980569 0.026211455 1.031 2.3326198e-38
0.070499778 0.026211455 1.031 2.3418036e-38
0.073211305 0.026211455 1.031 2.3326208e-38
0.0876728 0.026211455 1.031 1.827514e-38
0.090384334 0.025307612 1.031 1.8917968e-38
0.093095861 0.02440377 1.031 1.9836305e-38
0.13015343 0.025307612 1.031 9.0748901e-39
0.13286497 0.025307612 1.031 8.7140221e-39
0.075018995 0.028019143 1.031 2.3509886e-38
0.076826684 0.028019143 1.031 2.3509886e-38
0.086768955 0.028019143 1.031 2.0020061e-38
0.13015343 0.028922986 1.031 1.0917735e-38
0.11117273 0.071403623 1.031 1.506085e-38
0.11388426 0.070499778 1.031 1.4785292e-38
0.11749963 0.071403623 1.031 1.570371e-38
0.121115 0.071403623 1.031 1.6438346e-38
-0.013557649 0.075018995 1.031 1.9560836e-38
-0.011749962 0.073211305 1.031 1.7173078e-38
0.11117273 0.073211305 1.031 1.5244486e-38
0.11840347 0.073211305 1.031 1.5611854e-38
0.12201884 0.074115157 1.0310001 1.6162844e-38
-0.017173024 0.078634366 1.031 1.5244334e-38
-0.015365336 0.077730522 1.031 2.1305524e-38
0.12382654 0.077730522 1.031 1.4416912e-38
0.12653807 0.077730522 1.031 1.4968988e-38
-0.017173024 0.081345901 1.031 1.1017428e-38
-0.015365336 0.081345901 1.031 1.2303493e-38
0.12382654 0.081345901 1.031 1.2299223e-38
0.12653807 0.081345901 1.031 1.4417932e-38
0.13015343 0.081345901 1.031 1.5428143e-38
-0.020788398 0.086768955 1.031 1.9928226e-38
-0.017896099 0.08622665 1.031 1.7356774e-38
-0.015365336 0.08586511 1.031 1.349782e-38
0.10665351 0.08586511 1.031 1.0733007e-38
0.11057016 0.086467676 1.031 1.1194348e-38
0.11388426 0.0876728 1.031 1.2118425e-38
0.11749963 0.0876728 1.031 1.2947116e-38
0.12274193 0.086588189 1.031 1.1841809e-38
0.12653807 0.08586511 1.0310001 1.1933992e-38
0.13015343 0.084961265 1.031 1.4141702e-38
-0.028922986 0.091288179 1.031 2.2224154e-38
-0.025307612 0.089480489 1.031 2.2040478e-38
-0.021692239 0.089480489 1.031 2.1581301e-38
-0.017775586 0.090083055 1.031 1.9744548e-38
-0.015365336 0.090384334 1.031 1.9377189e-38
0.11117273 0.089480489 1.031 1.3039347e-38
0.11388426 0.089480489 1.031 1.3866917e-38
0.11749963 0.089480489 1.031 1.3591417e-38
0.121115 0.089480489 1.031 1.5060733e-38
0.12653807 0.089480489 1.031 1.6713837e-38
-0.037961416 0.093999706 1.031 2.2132313e-38
-0.034346044 0.093095861 1.031 2.2315991e-38
-0.017173024 0.093095861 1.031 2.0846609e-38
-0.046096008 0.098518923 1.031 2.1581283e-38
-0.041576795 0.096711233 1.031 2.1764966e-38
-0.057845972 0.10394198 1.031 2.1122086e-38
-0.053929321 0.10213429 1.031 2.1489444e-38
-0.050615229 0.10123044 1.031 2.1764966e-38
-0.070499778 0.10755736 1.031 2.1122104e-38
-0.066342108 0.10647275 1.031 2.1305775e-38
-0.062365185 0.10574967 1.031 2.1581286e-38
-0.084057428 0.11117273 1.031 1.0899531e-38
-0.080442056 0.10936504 1.031 2.2499629e-38
-0.078634366 0.10936504 1.031 2.1397606e-38
0.121115 0.11117273 1.031 1.6989382e-38
0.082249738 0.11478809 1.031 1.4877028e-38
0.084057428 0.11478809 1.031 1.4877118e-38
0.121115 0.11298041 1.031 1.7356829e-38
-0.084057428 0.11659579 1.031 0
0.070801064 0.11780091 1.031 1.0734727e-38
0.074416429 0.11719835 1.031 1.0457054e-38
0.077730522 0.11749963 1.031 1.3036774e-38
0.080442056 0.11659579 1.031 1.3131498e-38
0.062365185 0.12382654 1.031 5.8527192e-39
0.06649705 0.1222771 1.0310001 1.247783e-38
0.070198499 0.12081373 1.031 1.4048061e-38
0.058749814 0.12744191 1.031 1.542818e-38
0.060557503 0.12653807 1.031 1.5520004e-38
0.060557503 0.12924959 1.031 1.6622057e-38
0.009971207 -0.006345314 1.0340002 2.2775148e-38
0.014503574 -0.0063453135 1.034 2.3234362e-38
0.017222993 -0.0045323665 1.034 2.2958849e-38
0.0045323665 -0.00271942 1.034 1.4326105e-38
0.020848887 -0.00271942 1.034 2.2683335e-38
0.00271942 0.00271942 1.034 1.7173016e-38
0.028100673 0.00271942 1.034 2.25915e-38
0.0018129466 0.00543884 1.034 1.6805711e-38
-0.00090647332 0.009971207 1.034 1.7081212e-38
0.034445986 0.009971207 1.034 2.2407819e-38
0.037165407 0.011784153 1.034 2.2683335e-38
-0.00271942 0.0135971 1.034 1.6805721e-38
0.11149622 0.017222993 1.034 2.3142525e-38
0.11421564 0.017222993 1.034 2.314252e-38
0.11874801 0.017222993 1.034 2.3326205e-38
0.12146743 0.017222993 1.034 2.3050697e-38
0.12599979 0.018431624 1.0340002 2.2224154e-38
0.046230137 0.02175536 1.034 2.259149e-38
0.049402796 0.022208596 1.034 2.2958842e-38
0.054388396 0.022661833 1.034 2.3509877e-38
0.058014292 0.022661833 1.034 2.3509883e-38
0.061640181 0.022661833 1.034 2.2775178e-38
0.066172555 0.022661833 1.0340002 2.2591508e-38
0.090647332 0.022661833 1.034 2.1673101e-38
0.093366757 0.022661833 1.034 2.1673101e-38
0.098805591 0.022661833 1.034 2.3326171e-38
0.10605738 0.020848887 1.034 2.3234362e-38
0.12781274 0.020848887 1.034 2.1305738e-38
0.13053215 0.020848887 1.034 1.616219e-38
0.13325158 0.022661833 1.034 9.5333347e-39
0.048949562 0.024474779 1.034 2.2315968e-38
0.066172555 0.024474781 1.0340002 2.3326206e-38
0.070704922 0.024474779 1.034 2.3234374e-38
0.074632972 0.025079098 1.0340002 2.2958861e-38
0.077654555 0.02568341 1.0340002 2.167315e-38
0.081582598 0.026287727 1.034 1.9560886e-38
0.086114965 0.025381252 1.034 1.8917965e-38
0.089740857 0.024474779 1.034 1.9560788e-38
-0.0045323665 0.029007148 1.034 1.6071021e-38
0.13053215 0.031726569 1.034 1.1655996e-38
0.13325158 0.029007148 1.034 1.2761334e-38
-0.00815826 0.038071878 1.034 1.6346521e-38
-0.009971207 0.041697774 1.034 1.6805711e-38
-0.009971207 0.045323662 1.034 1.6897525e-38
-0.009971207 0.049856033 1.0340002 1.579549e-38
-0.009971207 0.054388396 1.034 1.5244465e-38
-0.009971207 0.058014292 1.034 1.5795506e-38
-0.01087768 0.061640181 1.034 1.6438367e-38
-0.011784154 0.066172555 1.0340002 1.6162855e-38
0.11149622 0.067985497 1.034 1.3866967e-38
0.11421564 0.067985497 1.034 1.4326158e-38
0.11784153 0.067985497 1.034 1.4693497e-38
0.12056095 0.067985497 1.034 1.5152661e-38
-0.014201416 0.071007088 1.0340002 1.7632242e-38
-0.011784153 0.070704922 1.034 1.6346507e-38
0.11149622 0.069798447 1.034 1.3683307e-38
0.11784153 0.069798447 1.034 1.4693506e-38
0.12146743 0.069798447 1.034 1.5244498e-38
