# .PCD v0.7 - Point Cloud Data file format
VERSION 0.7
FIELDS x y z rgb
SIZE 4 4 4 4
TYPE F F F F
COUNT 1 1 1 1
WIDTH 1079
HEIGHT 1
VIEWPOINT 0 0 0 1 0 0 0
POINTS 1079
DATA ascii
0.052987777 0.023385666 1.013 1.8826097e-38
0.053283796 0.0266419 1.013 1.8550596e-38
0.053283796 0.030194154 1.013 1.8550612e-38
0.053816635 0.033924021 1.013 2.0020034e-38
0.013912993 0.038186725 1.013 1.8642463e-38
0.055059925 0.038186725 1.013 2.1213938e-38
0.057724115 0.038186725 1.013 2.1856796e-38
0.011544824 0.043515101 1.013 1.5887349e-38
0.013320949 0.041738976 1.013 1.5795529e-38
0.055947989 0.041738976 1.013 2.1673124e-38
0.058908202 0.042331018 1.013 2.1856795e-38
0.011544824 0.046179295 1.013 1.4693452e-38
0.061276369 0.046179295 1.013 2.1489437e-38
0.0097686956 0.049731545 1.013 1.5703637e-38
0.063052498 0.048843481 1.013 2.1030254e-38
0.065716684 0.048843481 1.013 2.1213935e-38
0.06838087 0.05061961 1.013 2.1948637e-38
0.010656759 0.05417186 1.013 1.4785288e-38
0.071045063 0.053283796 1.013 2.3142527e-38
0.074597321 0.05417186 1.013 2.3418042e-38
0.079037629 0.055947989 1.013 2.3509883e-38
0.010656759 0.058612179 1.013 1.4417946e-38
0.081701823 0.057724115 1.013 2.3509877e-38
0.086142145 0.058316156 1.013 2.3234358e-38
0.011544824 0.061276369 1.013 1.3958767e-38
0.094134711 0.061276369 1.013 2.3326208e-38
0.013320949 0.064828619 1.013 1.4142437e-38
0.10212728 0.066604748 1.013 2.3509886e-38
0.11900049 0.066604748 1.013 1.9193452e-38
0.12255274 0.066604748 1.013 1.8550577e-38
0.12521693 0.066604748 1.013 1.873428e-38
0.015097077 0.069268934 1.013 1.4142432e-38
0.016873203 0.071933128 1.013 1.4326109e-38
0.10390341 0.06838087 1.013 2.3509884e-38
0.10686362 0.070157006 1.013 2.3509886e-38
0.11041588 0.07134109 1.013 2.2958861e-38
0.11367211 0.071045063 1.013 2.1397623e-38
0.11811243 0.070156999 1.0130001 1.8826169e-38
0.12255275 0.070156999 1.013 1.8458786e-38
0.12521693 0.070157006 1.013 1.8550639e-38
0.14209013 0.071933128 1.013 1.8275112e-38
0.14593841 0.069564961 1.013 1.974451e-38
0.14982899 0.070664465 1.013 1.9377178e-38
0.15470062 0.070512228 1.013 2.0111814e-38
0.15763122 0.070601031 1.013 1.3019599e-38
0.017761268 0.074597321 1.013 1.395876e-38
0.11396813 0.074301302 1.013 2.3418049e-38
0.11811243 0.074597321 1.013 2.2591512e-38
0.12255274 0.074597321 1.013 2.0938423e-38
0.126105 0.074597321 1.013 2.0479237e-38
0.12965724 0.074597321 1.013 2.0571084e-38
0.13291347 0.074893348 1.013 1.9928216e-38
0.15452302 0.073709257 1.013 1.9928156e-38
0.15807526 0.073709257 1.013 8.5020225e-39
0.01864933 0.078149572 1.013 1.3958761e-38
0.11988855 0.077261508 1.013 2.2499671e-38
0.12255274 0.077261508 1.013 2.2224159e-38
0.126105 0.078149572 1.013 2.1489435e-38
0.12965724 0.077261508 1.013 2.15813e-38
0.13409756 0.077853553 1.013 2.1397615e-38
0.01864933 0.081701823 1.013 1.405059e-38
0.020425456 0.081701823 1.013 1.3866915e-38
0.022201583 0.086586177 1.013 1.32237e-38
0.023977708 0.089694396 1.013 1.3591407e-38
0.026345879 0.090878487 1.013 1.3498515e-38
0.0266419 0.093246646 1.013 1.3313398e-38
0.029898133 0.094430737 1.013 1.184044e-38
0.033746406 0.096798897 1.013 1.2025904e-38
0.036410596 0.098575026 1.013 1.4601606e-38
0.036410596 0.10035115 1.013 1.3958764e-38
0.039962847 0.10745566 1.013 1.2303166e-38
0.043515101 0.12876917 1.013 5.204131e-39
0.048843481 0.1305453 1.013 7.692334e-39
0.05061961 0.13232143 1.013 8.9837357e-39
0.055059925 0.13409756 1.013 1.469344e-38
0.058612179 0.13498563 1.013 1.4142439e-38
0.062164433 0.13587368 1.013 1.4142456e-38
0.062460452 0.13824186 1.013 1.533634e-38
0.059500244 0.14297819 1.013 1.5887356e-38
0.062460452 0.14238615 1.013 1.4693485e-38
0.058612179 0.14564238 1.013 1.75404e-38
0.061276369 0.14475432 1.013 1.5520004e-38
0.03829981 0.00089069334 1.016 2.3509886e-38
0.040755652 0.0020817912 1.0180001 2.3234371e-38
0.030580472 0.0056410581 1.016 2.3509814e-38
0.041884065 0.0053463518 1.0165 2.1581276e-38
0.027611492 0.0097976271 1.016 2.1673099e-38
0.04364397 0.0080162399 1.016 2.1122095e-38
0.04636164 0.0098055173 1.0170001 2.1122086e-38
0.049132783 0.011613203 1.0190001 2.1213911e-38
0.022333084 0.015186498 1.0190001 2.0295552e-38
0.024939414 0.014251093 1.016 1.9652669e-38
0.047206748 0.0133604 1.016 2.0846561e-38
0.049952466 0.014270818 1.0175 2.1213917e-38
0.052550904 0.015141787 1.016 2.1581266e-38
0.018759791 0.018759791 1.0190001 2.0479205e-38
0.021439761 0.017866466 1.0190001 2.0111853e-38
0.02404872 0.016923174 1.016 1.9744513e-38
0.050175726 0.017516971 1.016 2.0571045e-38
0.053198181 0.018129176 1.0170001 2.0754713e-38
0.018759791 0.021439761 1.0190001 2.0295545e-38
0.02112007 0.021121822 1.0180001 1.9836358e-38
0.053738497 0.021079741 1.016 1.9744493e-38
0.056279372 0.022333084 1.0190001 2.0203669e-38
0.017848056 0.025880076 1.018 1.9285314e-38
0.020485945 0.02404872 1.016 1.9285322e-38
0.057117462 0.025880076 1.018 1.9101618e-38
0.015186498 0.030372994 1.0190001 1.8642445e-38
0.016923174 0.030283574 1.016 1.8642445e-38
0.057047106 0.03030527 1.0167501 1.8458785e-38
0.011613203 0.034839608 1.0190001 1.8734288e-38
0.014260955 0.033870675 1.0167501 1.8550613e-38
0.057301268 0.03354945 1.016 2.0295554e-38
0.011596108 0.037463032 1.0175 1.8917972e-38
0.0133604 0.036518428 1.016 1.8734291e-38
0.05967645 0.037409119 1.016 2.2040471e-38
0.061639313 0.038412903 1.0190001 2.213232e-38
0.010521754 0.041554701 1.0172001 1.79996e-38
0.05967645 0.040081199 1.016 2.2499652e-38
0.06234853 0.041862588 1.016 2.2132308e-38
0.065611266 0.04240064 1.01825 2.1948632e-38
0.0089187687 0.046384431 1.0175 1.5060782e-38
0.063239224 0.046316054 1.016 2.1489437e-38
0.065911308 0.046316054 1.016 2.1122097e-38
0.068684638 0.04638312 1.0175 2.1030243e-38
0.0062532634 0.050026108 1.0190001 1.5060796e-38
0.0080162399 0.049878828 1.016 1.5795474e-38
0.069840237 0.049630146 1.0170001 2.1489444e-38
0.073702246 0.050144803 1.0178 2.2315989e-38
0.07771913 0.050919432 1.0190001 2.1030291e-38
0.08307907 0.050919432 1.0190001 1.726497e-38
0.084865719 0.050919432 1.0190001 1.6805785e-38
0.0053553376 0.053559292 1.01825 1.5520004e-38
0.0080162399 0.053441599 1.016 1.5060803e-38
0.073927552 0.052550904 1.016 2.3050696e-38
0.078496732 0.053519186 1.0175 2.2958867e-38
0.082124598 0.053559292 1.01825 2.1673132e-38
0.085696578 0.053559296 1.01825 1.9928185e-38
0.08843901 0.053599402 1.0190001 2.0387343e-38
0.005350735 0.057980537 1.0175002 1.50608e-38
0.0080162399 0.057895064 1.016 1.5244465e-38
0.081943788 0.056113679 1.016 2.3418047e-38
0.085506558 0.056113679 1.016 2.3234376e-38
0.089751676 0.057951175 1.0170001 2.3234372e-38
0.093729913 0.058915284 1.01825 2.2499678e-38
0.12595859 0.059852667 1.0190001 2.332621e-38
0.13042521 0.059852663 1.0190001 2.332621e-38
0.0062532634 0.062532634 1.0190001 1.5152624e-38
0.0094460836 0.062564015 1.0166 1.4142438e-38
0.098120913 0.062439267 1.0175 2.2958859e-38
0.10176456 0.062485948 1.01825 2.1673149e-38
0.10541216 0.062532634 1.0190001 2.0111894e-38
0.1102361 0.062711298 1.0190001 2.1397602e-38
0.11434539 0.063425958 1.0190001 2.2315984e-38
0.1177451 0.06243927 1.0175 2.30507e-38
0.12214421 0.062409025 1.0170001 2.2683345e-38
0.1266665 0.062440582 1.0175 2.2499656e-38
0.13042521 0.062532634 1.0190001 2.2499655e-38
0.1339985 0.062532634 1.0190001 2.2867011e-38
0.1375718 0.062532634 1.0190001 2.2775174e-38
0.1420384 0.063425958 1.0190001 2.2132311e-38
0.14650503 0.062532634 1.0190001 2.2315982e-38
0.15007833 0.062532634 1.0190001 2.1764966e-38
0.15365161 0.062532634 1.0190001 2.1305733e-38
0.15722491 0.062532634 1.0190001 1.2741954e-38
0.0062532634 0.066105925 1.0190001 1.3683266e-38
0.0098055173 0.065976188 1.0170001 1.4417942e-38
0.0133604 0.066802002 1.016 1.4417928e-38
0.098866954 0.065020613 1.016 2.3509886e-38
0.10153905 0.065020613 1.016 2.3418049e-38
0.10518006 0.065959305 1.0167501 2.2407839e-38
0.10966136 0.065976188 1.0170001 2.0571074e-38
0.11400874 0.065911308 1.016 2.0111863e-38
0.11727463 0.065614417 1.016 2.0571063e-38
0.12202498 0.065020613 1.016 2.057106e-38
0.12677537 0.065614417 1.016 1.9469e-38
0.13004123 0.065911308 1.016 1.9469e-38
0.13360399 0.065911308 1.016 2.0020022e-38
0.13726868 0.065959305 1.0167501 2.0203704e-38
0.14175788 0.065976188 1.0170001 2.0203703e-38
0.1460737 0.065911308 1.016 2.0846572e-38
0.14963648 0.065911308 1.016 2.0846586e-38
0.15408996 0.065911308 1.016 1.9560455e-38
0.15765272 0.065911308 1.016 1.4219935e-38
0.010702785 0.069576651 1.0175 1.3683248e-38
0.0133604 0.069474079 1.016 1.3958754e-38
0.10777389 0.068583384 1.016 2.2867027e-38
0.11014908 0.069177181 1.016 2.1581309e-38
0.11400874 0.068583384 1.016 1.8550676e-38
0.12736915 0.069474079 1.016 1.7999616e-38
0.13004123 0.069474079 1.016 1.7999612e-38
0.13360399 0.069474079 1.016 1.8275105e-38
0.13805747 0.069474086 1.016 1.8458788e-38
0.14251092 0.069474079 1.016 1.9101635e-38
0.14518301 0.068583384 1.016 2.020368e-38
0.15052718 0.068583384 1.016 2.0111884e-38
0.15319926 0.068583384 1.016 2.0295519e-38
0.011166541 0.073699176 1.0190001 1.3040413e-38
0.014257669 0.073964804 1.0165 1.3591424e-38
0.12736915 0.072146162 1.016 1.9560849e-38
0.13004123 0.072146162 1.016 1.8918004e-38
0.13390091 0.072739959 1.016 1.8642484e-38
0.13783479 0.073704876 1.0159999 1.8642487e-38
0.014576046 0.078238413 1.0180001 1.3407754e-38
0.016923174 0.078381017 1.016 1.3958773e-38
0.13716677 0.077490322 1.016 2.1030275e-38
0.015186498 0.082185745 1.0190001 1.3683251e-38
0.01694816 0.082066081 1.0175 1.3775088e-38
0.017838851 0.085632801 1.0175 1.3407737e-38
0.020485945 0.086397253 1.016 1.3315542e-38
0.01785266 0.089267246 1.01825 1.2947849e-38
0.021198502 0.090316303 1.016 1.303933e-38
0.02404872 0.091741413 1.016 1.3591051e-38
0.018164242 0.092607856 1.0190001 1.2763817e-38
0.021423323 0.094623238 1.01825 1.2947855e-38
0.025402512 0.094929188 1.0167501 1.3406294e-38
0.021439761 0.098265573 1.0190001 1.2580161e-38
0.02589279 0.0982178 1.0185001 1.2762382e-38
0.030283572 0.097976267 1.016 1.1564565e-38
0.033846349 0.098866954 1.016 1.2670576e-38
0.027693022 0.10094553 1.0190001 1.1748945e-38
0.030640086 0.10144202 1.0180001 1.2577939e-38
0.033846349 0.10153905 1.016 1.2947495e-38
0.036518428 0.10242973 1.016 1.3407743e-38
0.034244061 0.10511439 1.0190001 1.3775076e-38
0.037587259 0.10563623 1.016 1.2673056e-38
0.03729568 0.11010565 1.0178 1.3131865e-38
0.040081199 0.11044598 1.016 1.3315888e-38
0.037779659 0.11393628 1.0180001 1.2854192e-38
0.040081199 0.11400874 1.016 1.2854516e-38
0.03829981 0.11757152 1.016 1.2302816e-38
0.040081199 0.11757152 1.016 1.2760944e-38
0.03763039 0.12181177 1.0172001 1.2395041e-38
0.040081199 0.12202498 1.016 1.4692711e-38
0.037491307 0.12586588 1.01825 1.0735193e-38
0.04100148 0.12657249 1.0167501 8.0600684e-39
0.042538788 0.13059412 1.0180001 9.8099665e-39
0.046316054 0.13093191 1.016 8.1504535e-39
0.043772843 0.1339985 1.0190001 1.3863717e-38
0.046384431 0.13380256 1.0175 1.2297797e-38
0.049630146 0.13403329 1.0170001 1.3494159e-38
0.052550904 0.13449469 1.016 1.5336284e-38
0.046452813 0.13667847 1.0190001 1.5795554e-38
0.050026108 0.13667847 1.0190001 1.5152662e-38
0.053559292 0.1374712 1.01825 1.5795498e-38
0.057918742 0.1381157 1.0164286 1.552001e-38
0.061457843 0.13983886 1.016 1.4877163e-38
0.053545922 0.14189814 1.018 1.7171615e-38
0.057328887 0.14198595 1.0165 1.6346529e-38
0.061457843 0.14162023 1.016 1.4877163e-38
0.04330441 0.0014932555 1.0220001 2.2499666e-38
0.046589568 0.0053757196 1.022 2.0938416e-38
0.050352573 0.0094971051 1.022 2.06629e-38
0.05286124 0.011647392 1.022 2.0846581e-38
0.053757194 0.014335252 1.022 2.1213923e-38
0.054653149 0.017023113 1.022 2.1122072e-38
0.056445051 0.018815018 1.022 2.084655e-38
0.017023113 0.022398831 1.022 2.0754727e-38
0.057639658 0.021204229 1.0220001 2.0662875e-38
0.015231205 0.025982644 1.0220001 1.9744499e-38
0.011647392 0.031358361 1.022 1.8826125e-38
0.013439299 0.03046241 1.022 1.873429e-38
0.06002887 0.031358361 1.022 1.8826145e-38
0.010751439 0.034046225 1.022 1.9377178e-38
0.060626172 0.034344874 1.0220001 2.0295561e-38
0.0098554855 0.037630036 1.022 1.9652698e-38
0.062716722 0.037630036 1.022 2.139762e-38
0.065404586 0.038525991 1.022 2.1581287e-38
0.0080635799 0.043005757 1.022 1.7632242e-38
0.067196488 0.042109802 1.022 2.2224145e-38
0.068988405 0.043901712 1.022 2.2224128e-38
0.0062716729 0.046589568 1.022 1.6162855e-38
0.070780307 0.046589568 1.022 2.1305755e-38
0.073468164 0.047485523 1.022 2.1673132e-38
0.083323658 0.047485523 1.022 2.3509859e-38
0.085115559 0.047485523 1.022 2.3509858e-38
0.0044797664 0.050173379 1.022 1.4785284e-38
0.078395911 0.049725406 1.022 1.9744538e-38
0.082129054 0.04987473 1.0220001 1.9101646e-38
0.086310171 0.04987473 1.0220001 1.9193458e-38
0.089296669 0.050472032 1.0220001 2.084654e-38
0.0020905577 0.054055847 1.0220001 1.5887336e-38
0.090491273 0.053757194 1.022 2.2224154e-38
0.093179137 0.053757194 1.022 2.268334e-38
0.14783229 0.054653149 1.022 2.0754738e-38
0.15052015 0.054653149 1.022 2.1213931e-38
0.0020905577 0.057042357 1.0220001 1.5336305e-38
0.094523072 0.056893028 1.022 2.1673124e-38
0.098554857 0.058236964 1.022 2.0938445e-38
0.10213867 0.058236964 1.022 2.2315982e-38
0.10482653 0.058236964 1.022 2.3234334e-38
0.11916178 0.058236964 1.022 2.3326213e-38
0.12184964 0.058236964 1.022 2.2867026e-38
0.12543346 0.057341006 1.022 2.259151e-38
0.1302716 0.0575202 1.022 2.2591512e-38
0.13439299 0.058236964 1.022 2.295886e-38
0.1379768 0.058236964 1.022 2.2499673e-38
0.14723498 0.057639658 1.0220001 2.1030267e-38
0.15052015 0.057341009 1.022 2.0846593e-38
0.15380532 0.057639658 1.0220001 2.1305754e-38
0.15679182 0.058236964 1.022 1.3107096e-38
0.0026878598 0.060924821 1.022 1.4142448e-38
0.0044797664 0.062716722 1.022 1.4877114e-38
0.098554857 0.06002887 1.022 2.1213938e-38
0.10213867 0.06002887 1.022 2.0479225e-38
0.10572249 0.06002887 1.022 2.1397584e-38
0.10841034 0.061820775 1.022 2.1581288e-38
0.11468202 0.061820775 1.022 2.3142523e-38
0.11916178 0.06002887 1.022 2.3509886e-38
0.12184964 0.06002887 1.022 2.3142537e-38
0.13439299 0.06002887 1.022 2.341805e-38
0.1379768 0.06002887 1.022 2.2867022e-38
0.14126197 0.061223473 1.0220001 2.2867012e-38
0.14604038 0.060626172 1.0220001 2.2867025e-38
0.15052015 0.06002887 1.022 2.2040501e-38
0.15410396 0.06002887 1.022 2.1581251e-38
0.15768778 0.06002887 1.022 1.0898422e-38
0.0044797664 0.065404586 1.022 1.3958756e-38
0.0062716729 0.06988436 1.022 1.3315912e-38
0.0080635799 0.06988436 1.022 1.3866927e-38
0.0062716729 0.073468164 1.022 1.4326096e-38
0.0086608818 0.07376682 1.0220001 1.386695e-38
0.010751439 0.07794793 1.022 1.386694e-38
0.013439299 0.079739839 1.022 1.3315912e-38
0.013439299 0.081531748 1.022 1.3775088e-38
0.015231205 0.086011514 1.022 1.3591414e-38
0.015231205 0.088699371 1.022 1.3775088e-38
0.015231205 0.095867001 1.022 1.4417925e-38
0.017620414 0.095269702 1.0220001 1.2948204e-38
0.015231205 0.097658902 1.022 1.4326108e-38
0.017919065 0.098554857 1.022 1.3132249e-38
0.018815018 0.10124271 1.022 1.3591422e-38
0.021502879 0.10124271 1.022 1.2947493e-38
0.025624264 0.10231786 1.022 1.2210305e-38
0.029566457 0.10303462 1.022 1.1105683e-38
0.03046241 0.10572249 1.022 1.3130415e-38
0.033150271 0.10661844 1.022 1.4785243e-38
0.03046241 0.10930631 1.022 1.432611e-38
0.034046225 0.11020225 1.022 1.3774342e-38
0.034344878 0.11438337 1.0220001 1.3683247e-38
0.036734082 0.11557797 1.022 1.3866927e-38
0.03046241 0.11916178 1.022 1.3775074e-38
0.034344878 0.11856448 1.0220001 1.3039334e-38
0.036734082 0.11826582 1.022 1.2026231e-38
0.03046241 0.12095369 1.022 1.3866913e-38
0.034344878 0.121551 1.0220001 1.3312668e-38
0.034942176 0.12543346 1.022 1.0735474e-38
0.034942176 0.12812132 1.022 7.2313279e-39
0.037630036 0.12991321 1.022 6.2279659e-39
0.040317897 0.13080917 1.022 9.1660222e-39
0.0415125 0.13409434 1.0220001 1.5059703e-38
0.043901712 0.1379768 1.022 1.5145521e-38
0.041675564 -0.0015002688 1.026 2.3509884e-38
0.045479055 -0.0013511624 1.0272501 2.2683333e-38
0.046794713 0.0017984814 1.0265 2.1030261e-38
0.050467946 0.0027036399 1.028 2.0387388e-38
0.050358139 0.0053947871 1.02575 2.0203701e-38
0.053094 0.0053980746 1.0265 2.0020013e-38
0.054126799 0.0095297173 1.0256001 2.0387385e-38
0.056776438 0.01081456 1.028 2.0479223e-38
0.054813579 0.013478749 1.025 2.1030246e-38
0.057322018 0.014704913 1.027 2.0938406e-38
0.057865843 0.017688796 1.026 2.093841e-38
0.060293183 0.021596244 1.0265 2.1030224e-38
0.011698678 0.026995633 1.0265 1.9744504e-38
0.01347875 0.026058916 1.025 1.9928184e-38
0.061494805 0.026697857 1.0265 2.0203655e-38
0.13752514 0.027216641 1.028 1.14563e-38
0.0098975664 0.030596543 1.0265 1.9377171e-38
0.062472668 0.030425241 1.0268 1.9285296e-38
0.0063084932 0.034246102 1.028 2.0479225e-38
0.0086941961 0.033879075 1.026 2.0111894e-38
0.063262604 0.033879071 1.026 1.9377173e-38
0.065788567 0.034246102 1.028 2.0571052e-38
0.0063084932 0.037850957 1.028 2.0203703e-38
0.0080872495 0.037740499 1.025 1.9928209e-38
0.063799419 0.036841914 1.025 2.0479248e-38
0.066860445 0.037476912 1.026 2.1213934e-38
0.069393419 0.038752172 1.028 2.2315975e-38
0.0057015475 0.041715011 1.027 1.9285307e-38
0.0080872495 0.040436249 1.025 1.9744501e-38
0.06739375 0.040436249 1.025 2.1948629e-38
0.07019338 0.041395321 1.0265 2.2775165e-38
0.072998278 0.042357024 1.028 2.3509886e-38
0.11084924 0.042357024 1.028 1.8183284e-38
0.11265166 0.042357024 1.028 1.7999532e-38
0.0019826691 0.046322364 1.028 1.7907762e-38
0.0049422081 0.045378454 1.025 1.7724087e-38
0.070988081 0.044030581 1.025 2.2407802e-38
0.073738411 0.044961382 1.02575 2.2958845e-38
0.07779251 0.046159633 1.0267143 2.1764959e-38
0.081941277 0.045407824 1.0271429 2.3142524e-38
0.086544707 0.045519862 1.0262001 2.2775176e-38
0.089990273 0.045893058 1.0265 2.2040477e-38
0.093726188 0.045961879 1.028 2.1764971e-38
0.096429825 0.047764305 1.028 2.0754784e-38
0.11039863 0.046412483 1.028 1.9193505e-38
0.11355287 0.045961883 1.028 2.0020046e-38
0.11805894 0.046863094 1.028 2.1856807e-38
0.12250495 0.045938648 1.0275 2.1581287e-38
0.12604713 0.045915417 1.027 2.0754745e-38
0.12977472 0.04686309 1.028 2.0571067e-38
0.13337956 0.046863094 1.028 2.0295558e-38
0.13743502 0.047313698 1.028 1.8917999e-38
0.1423917 0.047764305 1.028 1.7907773e-38
0.14629696 0.047163498 1.0280001 1.9101643e-38
0.15005325 0.047015458 1.0273999 2.0203704e-38
0.15329656 0.045573514 1.0274 8.8776756e-39
-0.00090121327 0.051369157 1.028 1.8458781e-38
0.0017978241 0.050356824 1.0257499 1.6070997e-38
0.090756908 0.049422082 1.025 2.2315996e-38
0.093452662 0.050320666 1.025 2.286702e-38
0.097331047 0.050467946 1.028 2.2867026e-38
0.1018371 0.05064819 1.028 2.2775186e-38
0.10604277 0.050768346 1.0280001 2.2407834e-38
0.10994802 0.050467942 1.028 2.2591512e-38
0.11355287 0.050467946 1.028 2.2775188e-38
0.11794235 0.050418854 1.027 2.2315993e-38
0.12220733 0.050320663 1.025 2.1948637e-38
0.12580165 0.050320666 1.025 2.213232e-38
0.12977472 0.050467946 1.028 2.1764972e-38
0.13368517 0.050558247 1.0262001 2.0387404e-38
0.13816564 0.05025772 1.0273999 1.9377176e-38
0.1423917 0.050467942 1.028 1.9652688e-38
0.14599654 0.050467946 1.028 2.0387402e-38
0.15020806 0.050369762 1.026 2.0662914e-38
0.15455632 0.050320666 1.025 1.4131048e-38
0.15771233 0.051369157 1.028 3.267828e-41
-0.0018017691 0.054032691 1.0272501 1.6897534e-38
0.00089858327 0.053016413 1.025 1.6713853e-38
0.097945571 0.053915001 1.0250001 2.3234357e-38
0.1025884 0.053992584 1.0265 2.3418045e-38
0.10626624 0.054032691 1.0272499 2.3050696e-38
0.10994802 0.054072797 1.028 2.3050701e-38
0.11423054 0.053966723 1.026 2.2958866e-38
0.11861299 0.053914998 1.025 2.2867027e-38
0.12220733 0.053914994 1.025 2.2591511e-38
0.12580165 0.053914994 1.025 2.2224162e-38
0.12939599 0.053914994 1.025 2.1397634e-38
0.13388892 0.053914994 1.0250001 2.093845e-38
0.13838182 0.053914994 1.025 2.0846597e-38
0.14197615 0.053914998 1.025 2.1122112e-38
0.14557049 0.053914994 1.025 2.0938426e-38
0.15006341 0.053016417 1.025 2.0938429e-38
0.15478382 0.053993899 1.0265 2.1030219e-38
0.15771233 0.054072797 1.028 6.9343283e-39
-0.0045060664 0.057677649 1.028 1.5611834e-38
-0.0018011116 0.057593491 1.0265 1.4877104e-38
0.00089858327 0.058407914 1.025 1.5887329e-38
0.098844156 0.056610744 1.025 2.2224151e-38
0.10243849 0.056610744 1.025 2.3050694e-38
0.10633235 0.057209801 1.025 2.3418033e-38
0.10962716 0.057509329 1.025 2.3509884e-38
0.11412008 0.057509329 1.0250001 2.3418047e-38
0.11831346 0.057209801 1.025 2.3234375e-38
0.12220733 0.056610744 1.025 2.2683351e-38
0.12849741 0.056610744 1.025 2.2132322e-38
0.13478749 0.056610744 1.025 2.1856809e-38
0.13838182 0.056610744 1.025 2.1948651e-38
0.14197615 0.057509329 1.025 2.1673136e-38
0.14527097 0.057209801 1.025 2.1122102e-38
0.1554549 0.056610744 1.025 2.1030191e-38
0.15725207 0.056610744 1.025 1.098876e-38
-0.0045060664 0.06038129 1.028 1.6622019e-38
-0.0018019881 0.062154349 1.0275 1.4509784e-38
0.0013478749 0.062451541 1.025 1.3407768e-38
0.10962716 0.060205076 1.025 2.295885e-38
0.11412008 0.06020508 1.025 2.3326208e-38
0.11771441 0.060205076 1.025 2.3326213e-38
0.14287473 0.060205076 1.025 2.2867019e-38
0.1446719 0.060205076 1.025 2.3050704e-38
-0.00090121327 0.066689782 1.028 1.4417944e-38
0.0017971664 0.066495165 1.025 1.423428e-38
0.0044929166 0.06739375 1.025 1.3499609e-38
-0.00090121327 0.070294634 1.028 1.4509788e-38
0.0017971664 0.070089497 1.025 1.4417956e-38
0.0044929166 0.070089497 1.025 1.3499585e-38
0.0018004541 0.073846236 1.0272499 1.3958774e-38
0.0044929166 0.073683828 1.025 1.4877118e-38
0.0021028311 0.077203944 1.0280001 1.4417947e-38
0.0053947875 0.077335365 1.02575 1.4050577e-38
0.0085365409 0.078626037 1.025 1.3958768e-38
0.0027036399 0.081109196 1.028 1.5795516e-38
0.0054072803 0.082010411 1.028 1.4234285e-38
0.0098923072 0.082750313 1.026 1.3591415e-38
0.013478749 0.083568245 1.025 1.4234273e-38
0.0063084932 0.085615262 1.028 1.5795455e-38
0.0099019501 0.086432323 1.027 1.3866943e-38
0.013478749 0.086263999 1.025 1.3775097e-38
0.0099019501 0.090033673 1.0270001 1.4234292e-38
0.014077805 0.090157852 1.025 1.3591425e-38
0.010273832 0.093545936 1.028 1.5244488e-38
0.014377332 0.093452662 1.025 1.4417946e-38
0.010814561 0.097331047 1.028 1.5703655e-38
0.014090954 0.09804114 1.026 1.506081e-38
0.01081456 0.10003468 1.028 1.5887308e-38
0.014408235 0.1017628 1.0272499 1.515264e-38
0.01767214 0.10273802 1.025 1.4326119e-38
0.021566 0.10333708 1.025 1.2948202e-38
0.015320626 0.10634317 1.028 1.524447e-38
0.018024266 0.10634317 1.028 1.5244475e-38
0.021581121 0.10611107 1.02575 1.2948571e-38
0.026058916 0.10603283 1.0250001 1.2304292e-38
0.015320626 0.10994802 1.028 1.524446e-38
0.018024266 0.10994802 1.028 1.5060803e-38
0.021596244 0.1097876 1.0265 1.3866934e-38
0.026058916 0.10962716 1.0250001 1.3040039e-38
0.011715773 0.11445409 1.028 1.4234143e-38
0.014419412 0.11355287 1.028 1.9377028e-38
0.018024266 0.11355287 1.028 1.6805666e-38
0.021783061 0.11396001 1.0268 1.515262e-38
0.026066804 0.11415718 1.0253333 1.4142424e-38
0.030551834 0.11412008 1.0250001 1.3683254e-38
0.033247583 0.11591724 1.025 1.3407747e-38
0.011715773 0.11805894 1.0280001 1.2302753e-38
0.014419413 0.11805893 1.028 1.4874175e-38
0.018015061 0.11800065 1.0275 1.8917899e-38
0.02139838 0.1181417 1.0256 1.5979161e-38
0.026058916 0.11861299 1.0250001 1.4601599e-38
0.030551832 0.11771441 1.025 1.3591408e-38
0.033247583 0.11771441 1.025 1.3040413e-38
-0.045961883 0.12346622 1.0280001 1.809143e-38
-0.041455813 0.12346622 1.028 1.7815929e-38
-0.024933569 0.12286542 1.0280001 1.7724062e-38
-0.021929523 0.12286542 1.0280001 1.7632223e-38
0.014419412 0.12256502 1.028 1.1934048e-38
0.01799665 0.12238617 1.0265 1.2024367e-38
0.021566 0.12220733 1.025 1.7907641e-38
0.026058916 0.12220733 1.0250001 1.4968948e-38
0.030551832 0.12310591 1.025 1.3315155e-38
0.033247583 0.12310591 1.025 1.5060815e-38
-0.045961883 0.12616986 1.028 1.9928164e-38
-0.041455813 0.12616986 1.028 1.82751e-38
-0.038752172 0.12616986 1.028 1.790774e-38
-0.025233973 0.12616986 1.028 1.7540395e-38
-0.021629117 0.12616986 1.028 1.7540388e-38
-0.014419412 0.12707107 1.028 1.6622022e-38
0.014419412 0.12526865 1.028 1.6071037e-38
0.018010458 0.12607846 1.0272499 1.1474163e-38
0.021565998 0.12580165 1.025 1.1472635e-38
0.026058916 0.12580165 1.0250001 1.7907658e-38
0.030551832 0.12580165 1.025 1.2670897e-38
0.033247583 0.12580165 1.025 1.1196812e-38
-0.045060668 0.1297747 1.028 1.569174e-38
-0.041455809 0.12977472 1.028 1.9009719e-38
-0.037850957 0.1297747 1.028 1.9193501e-38
-0.025233973 0.12977472 1.028 1.781591e-38
-0.021629117 0.12977472 1.028 1.7356721e-38
-0.018024266 0.12977472 1.028 1.7264894e-38
-0.014419412 0.12977472 1.028 1.7173046e-38
0.0027036399 0.13067593 1.028 1.6438349e-38
0.0054072798 0.13067593 1.028 1.7264894e-38
0.011715773 0.12977472 1.028 1.6622017e-38
0.014419412 0.12977472 1.028 1.6622015e-38
0.018024266 0.1297747 1.028 1.6346547e-38
0.021629117 0.12977472 1.028 1.1750068e-38
0.0261216 0.12971205 1.0275 1.2298862e-38
0.030573528 0.12949133 1.0257499 1.7446645e-38
0.033846639 0.12969552 1.025 1.02731e-38
0.034170493 0.13308829 1.02575 1.6067112e-38
0.037560783 0.13424833 1.025 1.4964217e-38
0.046999849 -0.0027115298 1.031 2.3326196e-38
0.049711384 0.00090384332 1.031 2.0479234e-38
0.053326756 0.0027115298 1.031 2.0111869e-38
0.055134442 0.0054230597 1.031 1.9928189e-38
0.058147252 0.0099422764 1.031 2.0295538e-38
0.058749814 0.013557649 1.031 2.057106e-38
0.061160065 0.01837815 1.031 2.0662907e-38
0.062365185 0.021692239 1.031 2.0846582e-38
0.064172879 0.022596082 1.031 2.1122095e-38
0.062365185 0.02440377 1.031 2.167312e-38
0.065619029 0.02548838 1.031 2.1948628e-38
0.0027115298 0.031634513 1.031 2.0662901e-38
0.0054230597 0.031634513 1.031 2.0387383e-38
0.0090384334 0.028922986 1.031 1.9744521e-38
0.066884406 0.029826825 1.0310001 2.2040459e-38
0.0027115298 0.034346044 1.031 2.0938419e-38
0.0045192167 0.034346044 1.031 2.0479225e-38
0.067788251 0.034346044 1.031 2.1397584e-38
0.12382654 0.035249889 1.031 1.8366968e-38
0.12563422 0.035249889 1.031 1.8734315e-38
0.0045192167 0.037961416 1.031 2.0111867e-38
0.070499778 0.037961416 1.031 2.2775162e-38
0.11117273 0.038865261 1.031 2.0387417e-38
0.11388426 0.038865261 1.031 1.8550595e-38
0.12238039 0.038142186 1.031 1.9377175e-38
0.1262368 0.038262699 1.031 2.1213949e-38
0.12924959 0.038865261 1.031 2.2315993e-38
0.0021089679 0.041878074 1.031 1.9560825e-38
0.0045192167 0.04067295 1.031 1.9744494e-38
0.074416429 0.041275516 1.031 2.3509884e-38
0.076826684 0.042480636 1.031 2.3509886e-38
0.081345901 0.042480636 1.031 2.3418045e-38
0.086768955 0.042480636 1.031 2.2040491e-38
0.090384334 0.041576792 1.031 2.130579e-38
0.093999706 0.041576795 1.031 2.1948651e-38
0.097313806 0.041878074 1.031 2.240784e-38
0.10303813 0.042480636 1.031 2.1764972e-38
0.10665351 0.042480636 1.031 1.9744497e-38
0.11026888 0.041576795 1.031 1.8917992e-38
0.11418553 0.041275512 1.031 1.8275063e-38
0.11749963 0.041576795 1.031 1.8917987e-38
0.12201886 0.041576799 1.0310001 2.1213942e-38
0.12653807 0.041576795 1.031 2.1764964e-38
0.12985216 0.041878074 1.031 2.1122091e-38
0.13376881 0.042480636 1.031 1.9928193e-38
0.13738418 0.042480636 1.031 2.0295554e-38
0.14235532 0.042028718 1.031 2.1122095e-38
0.14642262 0.041576795 1.031 2.194864e-38
0.1497367 0.041878074 1.031 1.9372497e-38
0.15274951 0.042480636 1.031 5.3797417e-39
0.00090384332 0.044288322 1.031 1.8917973e-38
0.097795844 0.045734473 1.031 2.0571059e-38
0.10265078 0.046354253 1.0310001 1.9193491e-38
0.10665351 0.046096008 1.0310001 1.855064e-38
0.10936504 0.045192167 1.031 1.79996e-38
0.11749963 0.044288322 1.031 2.0938422e-38
0.12021116 0.044288322 1.031 2.2132308e-38
0.13015343 0.044288322 1.031 1.9469034e-38
0.13376881 0.044288322 1.031 1.956087e-38
0.13768546 0.044890888 1.031 1.9744528e-38
0.1419034 0.045192163 1.0310001 1.9468985e-38
0.14612135 0.044890888 1.031 2.0020013e-38
0.15003799 0.044288322 1.031 2.1121721e-38
-0.00090384332 0.049711384 1.031 1.8550613e-38
0.10213429 0.049711384 1.031 2.1856827e-38
0.10755736 0.049711384 1.031 2.1673145e-38
-0.0027115298 0.065980561 1.031 1.4326102e-38
-0.00090384332 0.07411515 1.031 1.4601658e-38
-0.00090384332 0.077730522 1.031 1.6162853e-38
0.00090384332 0.078634366 1.031 1.4509805e-38
-0.00090384332 0.081345901 1.031 1.7540384e-38
0.00090384332 0.081345901 1.031 1.6438374e-38
-0.00090384332 0.084057428 1.031 1.7815883e-38
0.0021089679 0.084659986 1.031 1.7173065e-38
0.0051217787 0.087070242 1.031 1.6070979e-38
0.0054230597 0.090384334 1.031 1.6897513e-38
0.0063269031 0.093095861 1.031 1.6530152e-38
0.0081345895 0.094903551 1.031 1.6162844e-38
0.0081345895 0.097615078 1.031 1.570364e-38
0.0096840356 0.10265078 1.0310001 1.6070611e-38
0.013557649 0.10394198 1.031 1.5519965e-38
0.0027115298 0.10755736 1.031 8.8055409e-39
0.0057243407 0.1069548 1.031 1.7081056e-38
0.0099422764 0.10665351 1.0310001 1.7907684e-38
0.013557649 0.10665351 1.031 1.542809e-38
0.0027115298 0.11026888 1.031 1.4045605e-38
0.0054230597 0.11026888 1.031 1.0925572e-38
0.0099422764 0.11026888 1.0310001 1.8183126e-38
0.013557649 0.11026888 1.031 1.8458718e-38
-0.060557503 0.11478809 1.031 1.9652662e-38
-0.057845972 0.11388425 1.031 1.900981e-38
-0.054230601 0.11388425 1.031 1.8826139e-38
-0.050615229 0.11388426 1.031 1.8917978e-38
-0.046096008 0.11388426 1.0310001 1.8826138e-38
-0.042480636 0.11478809 1.031 1.8734286e-38
0.0063269031 0.11388426 1.031 1.294607e-38
0.0095807388 0.11370348 1.031 1.3312942e-38
-0.060557503 0.11659579 1.031 2.0295516e-38
-0.057845972 0.11749963 1.031 2.0019992e-38
-0.054230601 0.11749963 1.031 1.8917964e-38
-0.050615229 0.11749963 1.031 1.8550617e-38
-0.046096008 0.11749963 1.0310001 1.8366942e-38
-0.041878074 0.11780091 1.031 1.8275101e-38
-0.037961416 0.11840347 1.031 1.8366927e-38
-0.028922986 0.11749963 1.031 1.8275096e-38
-0.025006332 0.11780091 1.031 1.8183256e-38
-0.021692239 0.11749963 1.031 1.8183256e-38
0.0063269031 0.11749963 1.031 1.7356714e-38
0.0090384334 0.11749963 1.031 1.3772602e-38
-0.057544693 0.12081373 1.031 2.1489338e-38
-0.054230601 0.12201886 1.0310001 2.0479163e-38
-0.050615229 0.12201886 1.0310001 1.8917966e-38
-0.046096008 0.12111501 1.0310001 1.8183266e-38
-0.041576795 0.121115 1.031 1.799961e-38
-0.03796142 0.12201886 1.0310001 1.7999583e-38
-0.034346044 0.12201884 1.0310001 1.7999581e-38
-0.029826827 0.12201885 1.031 1.7815897e-38
-0.025608893 0.12081373 1.031 1.7907738e-38
-0.02139096 0.12081373 1.031 1.7907731e-38
-0.01837815 0.12322398 1.031 1.7540385e-38
-0.014461493 0.12382654 1.031 1.7173046e-38
-0.0099422764 0.12382655 1.031 1.7173044e-38
-0.0054230597 0.12382654 1.031 1.7264878e-38
-0.0018076866 0.12382654 1.031 1.7264876e-38
0.0021089679 0.12322398 1.031 1.7356701e-38
0.0051217787 0.12322398 1.031 1.7081186e-38
0.0097163152 0.12224482 1.031 1.6989379e-38
-0.053326756 0.12563422 1.031 1.7540253e-38
-0.050615229 0.12653807 1.031 2.0387284e-38
-0.037057575 0.12653807 1.031 1.7999576e-38
-0.034346044 0.12653807 1.031 1.7907741e-38
-0.029826827 0.12653807 1.0310001 1.7632242e-38
-0.018076867 0.12653807 1.031 1.6897531e-38
-0.014461493 0.12563422 1.031 1.7081206e-38
-0.0099422764 0.12653807 1.0310001 1.726488e-38
-0.0054230597 0.12653807 1.031 1.7081199e-38
-0.0018076866 0.12653807 1.031 1.7173033e-38
0.0018076866 0.12653807 1.031 1.7081189e-38
0.0054230597 0.12653807 1.031 1.6989351e-38
0.0099422773 0.12653807 1.0310001 1.6897524e-38
0.014461493 0.12744191 1.031 1.6897559e-38
0.049856033 -0.0018129466 1.034 2.1948621e-38
0.051668979 0.00090647332 1.034 2.020371e-38
0.055294871 0.00271942 1.034 1.9836352e-38
0.057712138 0.0057409978 1.0340002 1.9836349e-38
0.058920763 0.00815826 1.034 1.9928185e-38
0.060733709 0.011784153 1.034 2.0295545e-38
0.11421564 0.011784153 1.034 2.3509886e-38
0.060733709 0.014503574 1.034 2.0571061e-38
0.11421563 0.014503573 1.034 2.314253e-38
0.11784153 0.015410047 1.034 2.3509884e-38
0.12056095 0.015410047 1.034 2.3509886e-38
0.062546656 0.017222993 1.034 2.0387395e-38
0.064359605 0.019035939 1.034 2.0203722e-38
0.11421564 0.018129466 1.034 2.2407825e-38
0.11784154 0.018129466 1.034 2.2683341e-38
0.12146743 0.018129466 1.034 2.3326203e-38
0.12509331 0.019035939 1.034 2.341805e-38
0.065568238 0.021453202 1.0340002 2.0938415e-38
0.11149622 0.022661833 1.034 2.1213937e-38
0.11421564 0.022661833 1.034 2.1305762e-38
0.12176959 0.021453202 1.0340002 2.2591493e-38
0.12599981 0.02175536 1.034 2.3418042e-38
0.13053215 0.022661833 1.034 2.2224187e-38
0.067985497 0.024474779 1.034 2.2315988e-38
0.069798447 0.026287727 1.034 2.2499664e-38
0.10787033 0.025381252 1.034 2.0938417e-38
0.11058974 0.025381252 1.034 2.0846581e-38
0.11421564 0.025381252 1.034 2.057106e-38
0.11784154 0.025381252 1.034 2.0754749e-38
0.12146743 0.025381252 1.034 2.1030256e-38
0.12599979 0.025381256 1.034 2.1673111e-38
0.13022999 0.025079098 1.0340002 2.2683334e-38
0.00271942 0.029913621 1.034 2.0479226e-38
0.00543884 0.029913621 1.034 2.0203715e-38
0.00815826 0.028100673 1.034 1.9928189e-38
0.069798455 0.029913623 1.0340002 2.2867016e-38
0.097899117 0.031726569 1.034 2.0754753e-38
0.10152501 0.030820094 1.034 2.0938433e-38
0.10678256 0.030638799 1.034 2.0479247e-38
0.11058974 0.029913623 1.034 2.0203724e-38
0.11421564 0.029913623 1.034 2.0387381e-38
0.11784153 0.029913623 1.034 2.0295563e-38
0.12146743 0.029913623 1.034 1.9101649e-38
0.12599981 0.029913621 1.034 1.8734294e-38
0.12962568 0.029913623 1.0340002 1.9101644e-38
0.00090647332 0.035352457 1.034 2.1030263e-38
0.069798447 0.034445986 1.034 2.2867015e-38
0.09064734 0.034445986 1.034 2.0662907e-38
0.094273232 0.034445986 1.034 2.0662914e-38
0.097899117 0.034445986 1.034 2.0938431e-38
0.10152501 0.034445986 1.034 2.0754758e-38
0.10605739 0.034445986 1.034 2.0846597e-38
0.11058974 0.034445986 1.034 2.1397627e-38
0.11421564 0.034445986 1.034 2.093843e-38
0.11784154 0.034445986 1.034 1.9101635e-38
0.12146743 0.034445986 1.034 1.7907727e-38
0.12645304 0.033992749 1.034 1.8458807e-38
0.12962568 0.034445986 1.034 1.9744525e-38
0.0021151043 0.037769724 1.0340002 2.0479226e-38
0.071611397 0.037165407 1.034 2.323435e-38
0.074028656 0.038374037 1.0340002 2.3418047e-38
0.086477555 0.038253173 1.034 1.9836368e-38
0.090647332 0.038071878 1.034 2.057108e-38
0.094273224 0.038071878 1.034 2.1030275e-38
0.097899117 0.038071878 1.034 2.1581301e-38
0.10152501 0.038071878 1.034 2.139762e-38
0.10605739 0.038071878 1.034 2.1489451e-38
0.11028759 0.037769724 1.0340002 2.1581295e-38
0.11421564 0.037165407 1.034 1.9652681e-38
0.11784154 0.038071878 1.034 1.8091443e-38
0.12056095 0.037165407 1.034 1.7724077e-38
0.12781274 0.037165407 1.034 2.1213928e-38
0.13083431 0.037769724 1.0340002 2.1948639e-38
0.13415805 0.038978353 1.034 2.1948644e-38
0.13808611 0.038374037 1.0340002 2.1581286e-38
0.14140984 0.038071878 1.034 2.1122095e-38
0.14473358 0.038374037 1.0340002 2.1673117e-38
0.078258865 0.041395616 1.0340002 2.3509886e-38
0.081582598 0.040791299 1.034 2.2132317e-38
0.085661724 0.041244537 1.034 2.1397629e-38
0.098805591 0.040791299 1.034 2.2040485e-38
0.10122286 0.041395616 1.0340002 2.2132317e-38
0.10605739 0.040791299 1.0340002 2.1673099e-38
0.10968328 0.040791299 1.034 2.0111887e-38
0.13143863 0.040791299 1.034 2.1764947e-38
0.13415805 0.040791299 1.034 2.1305768e-38
0.13778394 0.040791299 1.034 2.0754749e-38
0.14140984 0.040791299 1.034 2.0846583e-38
0.10061853 0.045323662 1.034 2.0479183e-38
-0.0045323665 0.062546656 1.034 1.6071013e-38
-0.0045323665 0.066172555 1.034 1.5152666e-38
-0.00271942 0.067985497 1.034 1.4050604e-38
-0.0045323665 0.070704922 1.034 1.588735e-38
-0.00271942 0.070704922 1.034 1.4326116e-38
-0.0045323665 0.074330814 1.034 1.6989376e-38
-0.00271942 0.074330814 1.034 1.4693494e-38
-0.0045323665 0.078863174 1.034 1.7724049e-38
-0.00271942 0.077956706 1.034 1.6897548e-38
-0.0045323665 0.081582598 1.034 1.7448527e-38
-0.00271942 0.081582598 1.034 1.7540384e-38
-0.0045323665 0.086114965 1.0340002 1.8091418e-38
-0.0019942415 0.086477555 1.034 1.689751e-38
0.0015107889 0.087323599 1.0340002 1.6713868e-38
-0.00090647332 0.090647332 1.034 1.7632204e-38
0.0018129466 0.090647332 1.034 1.5979166e-38
0.0021151043 0.093971074 1.0340002 1.7081184e-38
0.0051366827 0.09457539 1.0340002 1.5611793e-38
0.0021151046 0.098201275 1.0340002 1.9652646e-38
0.00543884 0.097899117 1.034 1.6162818e-38
-0.038071878 0.10243148 1.034 1.9928199e-38
-0.0015107889 0.10182717 1.0340002 1.1938268e-38
0.0018129466 0.10152501 1.034 1.91015e-38
0.00543884 0.10152501 1.034 1.9009747e-38
-0.069798447 0.10787033 1.034 2.2866802e-38
-0.067985497 0.10787033 1.034 2.0938403e-38
-0.058014292 0.10787033 1.034 1.9468999e-38
-0.054388396 0.10787033 1.034 1.9560839e-38
-0.049402796 0.10741709 1.034 1.965268e-38
-0.045323666 0.10605739 1.034 1.9836368e-38
-0.041697778 0.10605739 1.034 1.9560849e-38
-0.038071878 0.10605739 1.034 1.9560842e-38
-0.035352461 0.10605739 1.0340002 1.9469003e-38
-0.028100673 0.10787033 1.034 1.9193486e-38
-0.025079098 0.10726601 1.0340002 1.910165e-38
-0.02175536 0.10696386 1.034 1.9193493e-38
-0.0045323665 0.10605739 1.0340002 1.8550629e-38
-0.0018129467 0.10605739 1.034 1.5700469e-38
0.001631652 0.10569479 1.034 1.1476981e-38
0.0051366827 0.10484876 1.0340002 2.0387203e-38
-0.070704922 0.11058974 1.034 1.6980332e-38
-0.066172555 0.11058974 1.034 2.0938356e-38
-0.061640181 0.11058974 1.034 1.9285322e-38
-0.058014296 0.11058974 1.034 1.9193487e-38
-0.054388396 0.11058974 1.034 1.919349e-38
-0.049856037 0.11058974 1.034 1.9377179e-38
-0.045323662 0.11058974 1.034 1.9101656e-38
-0.041697774 0.11058974 1.034 1.9009816e-38
-0.038071878 0.11058974 1.034 1.9101644e-38
-0.034748144 0.1108919 1.0340002 1.8917968e-38
-0.029309306 0.1108919 1.0340002 1.882613e-38
-0.025381252 0.11058974 1.034 1.8826132e-38
-0.02175536 0.11058974 1.034 1.8826138e-38
-0.0045323665 0.11058974 1.034 1.8091461e-38
-0.0018129466 0.11058974 1.034 1.7999597e-38
0.00090647332 0.11058974 1.034 1.7081247e-38
-0.070402764 0.11391348 1.0340002 4.8953367e-39
-0.066172555 0.11421563 1.034 2.0384048e-38
-0.061942339 0.11391348 1.0340002 2.0295503e-38
-0.041395616 0.11391348 1.0340002 1.873429e-38
-0.038071878 0.11421563 1.034 1.8734286e-38
-0.034445986 0.11421564 1.034 1.8734284e-38
-0.029913619 0.11421564 1.034 1.8734293e-38
-0.025381252 0.11421563 1.034 1.8550613e-38
-0.02175536 0.11421564 1.034 1.8458778e-38
-0.00543884 0.11421563 1.034 1.7815935e-38
-0.0018129466 0.11421564 1.034 1.7540406e-38
0.0018129466 0.11421564 1.034 1.7907752e-38
0.0045323665 0.11421564 1.034 1.5244503e-38
-0.069798447 0.11693506 1.034 3.9460565e-42
-0.065809965 0.11766025 1.034 9.9728436e-39
-0.061942339 0.1181437 1.0340002 2.1764816e-38
-0.040791299 0.11693506 1.034 1.8458775e-38
-0.038071878 0.11693506 1.034 1.8642443e-38
-0.034445986 0.11784154 1.034 1.8366934e-38
-0.031726569 0.11784153 1.034 1.8366932e-38
-0.026287727 0.11693506 1.034 1.8366932e-38
-0.018129466 0.11874801 1.034 1.8091415e-38
-0.0135971 0.11874801 1.034 1.8091415e-38
-0.011784153 0.11874801 1.034 1.8091415e-38
-0.0045323665 0.11784153 1.034 1.763224e-38
-0.0018129466 0.11784153 1.034 1.7448558e-38
0.0018129467 0.11784154 1.034 1.735671e-38
0.0045323665 0.11784153 1.034 1.7448552e-38
-0.061640181 0.12146743 1.034 1.1263937e-38
-0.058920763 0.1223739 1.034 1.9836225e-38
-0.01782731 0.12116527 1.0340002 1.7999567e-38
-0.014503574 0.12146743 1.034 1.7999568e-38
-0.010424443 0.12192066 1.034 1.7815897e-38
-0.00543884 0.12146743 1.034 1.7540388e-38
-0.0018129466 0.12146743 1.034 1.7540377e-38
0.0015107889 0.12116527 1.0340002 1.7448544e-38
0.0057409978 0.12116527 1.0340002 1.7724046e-38
0.050958879 -0.0045499001 1.038 2.3326202e-38
0.05186886 -0.0018199598 1.038 2.1397595e-38
0.053688817 -0.0018199598 1.038 2.1305758e-38
0.054598797 0.00090997992 1.038 2.0020033e-38
0.058238715 0.0027299398 1.038 1.9468999e-38
0.059148699 0.0045499001 1.038 1.9652664e-38
0.061878636 0.0063698594 1.038 1.9928185e-38
0.062060632 0.0096457889 1.038 2.0111863e-38
0.11101755 0.011829739 1.038 2.3509886e-38
0.062788621 0.014559679 1.038 2.0295551e-38
0.10282774 0.015469659 1.038 2.1673118e-38
0.10555767 0.015469659 1.038 2.204047e-38
0.11010759 0.014559681 1.0380001 2.2315989e-38
0.11738741 0.013649699 1.038 2.3509886e-38
0.065821886 0.017896274 1.038 2.047923e-38
0.068248495 0.019109579 1.038 2.0938412e-38
0.099187814 0.019109579 1.038 2.0938416e-38
0.10191775 0.0181996 1.038 2.1030264e-38
0.10555767 0.0181996 1.038 2.0203718e-38
0.11010759 0.0181996 1.0380001 2.1489442e-38
0.068855152 0.022142846 1.038 2.1673118e-38
0.094941244 0.022142846 1.038 1.9377172e-38
0.098277837 0.021839518 1.038 1.9928202e-38
0.10191776 0.021839518 1.038 1.9928209e-38
0.10555767 0.021839518 1.038 2.0020046e-38
0.10974359 0.021657525 1.038 2.1213934e-38
0.11465748 0.02092954 1.038 2.1581279e-38
0.11829739 0.021839518 1.038 2.1948633e-38
0.12102734 0.022749498 1.038 2.2315977e-38
0.070068456 0.024569457 1.038 2.2315991e-38
0.090452008 0.025661433 1.038 1.9193488e-38
0.094637915 0.025479438 1.038 1.9652687e-38
0.098277837 0.025479438 1.038 1.9560856e-38
0.10191776 0.025479438 1.038 1.9744531e-38
0.10555767 0.025479438 1.038 2.0479233e-38
0.13194709 0.026389418 1.038 2.2499657e-38
0.13467704 0.025479438 1.038 2.0845188e-38
0.0063698594 0.028209381 1.038 2.0295545e-38
0.071888417 0.030939318 1.038 2.2958853e-38
0.07370837 0.030939318 1.038 2.2591508e-38
0.081898198 0.031849299 1.038 1.8366939e-38
0.085538119 0.03002934 1.0380001 1.8826132e-38
0.090088017 0.03002934 1.038 1.9836365e-38
0.094637923 0.030029342 1.0380001 2.0295562e-38
0.098277837 0.029119357 1.038 2.0203725e-38
0.10191776 0.028209381 1.038 2.0662921e-38
0.10555767 0.029119359 1.038 2.075476e-38
0.13194709 0.03002934 1.038 1.9560835e-38
0.13467705 0.030029338 1.0380001 2.0846572e-38
0.13831694 0.030939318 1.038 2.2683344e-38
0.14195687 0.030939318 1.038 1.4589917e-38
0.071888417 0.034579236 1.038 2.2958852e-38
0.074315026 0.034882564 1.038 2.2958861e-38
0.078561604 0.034882564 1.038 2.084661e-38
0.081898198 0.034579236 1.038 1.8366948e-38
0.085538119 0.034579236 1.038 1.8917947e-38
0.088268057 0.034579236 1.038 2.0479226e-38
0.13194709 0.034579236 1.038 2.139762e-38
0.13467704 0.034579236 1.038 2.1764973e-38
0.13831694 0.034579236 1.038 2.1673136e-38
0.14195687 0.034579236 1.038 2.2591503e-38
0.1446868 0.035489216 1.038 2.3234353e-38
0.075528339 0.037309177 1.038 2.30507e-38
0.078258276 0.038219158 1.038 2.1948665e-38
0.08189819 0.038219158 1.038 1.9193526e-38
0.084628135 0.037309177 1.038 1.8275119e-38
0.13467704 0.037309177 1.038 2.213232e-38
0.13740696 0.037309177 1.038 2.2407829e-38
0.00090997992 0.040949099 1.038 2.011185e-38
-0.00090997992 0.046408977 1.038 1.8734284e-38
-0.0021232865 0.050048899 1.038 1.873429e-38
-0.0045499001 0.055508777 1.038 1.7081215e-38
-0.0063698594 0.058238715 1.038 1.6438366e-38
-0.0063698594 0.061878636 1.038 1.6438352e-38
-0.0057632062 0.065821886 1.038 1.5519997e-38
-0.0063698599 0.070068464 1.038 1.6162867e-38
-0.0063698594 0.074618354 1.038 1.717305e-38
-0.0081898198 0.079168253 1.038 1.8642383e-38
-0.0057632066 0.077954948 1.038 1.7540377e-38
-0.0081898198 0.081898198 1.038 1.9285287e-38
-0.0063698594 0.081898198 1.038 1.7356689e-38
-0.0081898198 0.085538119 1.038 2.0295409e-38
-0.0063698594 0.085538119 1.038 1.882612e-38
-0.041859079 0.090997994 1.038 2.1948637e-38
-0.038219158 0.091907971 1.038 2.1764964e-38
-0.033669256 0.090997994 1.038 2.1764968e-38
-0.03039333 0.091179989 1.038 2.1581293e-38
-0.025176112 0.091301322 1.038 2.1673131e-38
-0.021839518 0.090997994 1.038 2.1581295e-38
-0.0081898198 0.089178041 1.038 1.8458615e-38
-0.0056418758 0.090452008 1.038 2.0570919e-38
-0.0027299398 0.090997994 1.038 1.8366899e-38
-0.07370837 0.095547892 1.038 2.1764955e-38
-0.070432447 0.094819911 1.038 2.1673124e-38
-0.065518558 0.094637915 1.038 2.1673127e-38
-0.061878636 0.094637915 1.038 2.1673127e-38
-0.058238715 0.095547892 1.038 2.1581281e-38
-0.049138919 0.095547892 1.038 2.1489451e-38
-0.045195669 0.094941244 1.038 2.1213939e-38
-0.041859075 0.094637915 1.038 2.1305775e-38
-0.038219158 0.094637915 1.038 2.1305776e-38
-0.034579236 0.094637915 1.038 2.15813e-38
-0.030029342 0.094637923 1.0380001 2.1213942e-38
-0.025479438 0.094637915 1.038 2.1122104e-38
-0.021839518 0.094637915 1.038 2.0846588e-38
-0.0054598795 0.094637915 1.038 1.6162351e-38
-0.0018199598 0.094637915 1.038 2.0938304e-38
0.00090997992 0.095547892 1.038 1.8275097e-38
-0.07370837 0.098277837 1.038 2.1856778e-38
-0.070068449 0.098277837 1.0380001 2.0846582e-38
-0.065518558 0.098277837 1.038 2.0846589e-38
-0.061878636 0.098277837 1.038 2.0846589e-38
-0.058238715 0.098277837 1.038 2.0846582e-38
-0.054598801 0.098277837 1.038 2.0846579e-38
-0.050048899 0.098277837 1.0380001 2.0938416e-38
-0.045498997 0.098277837 1.038 2.0846581e-38
-0.041859075 0.098277837 1.038 2.0754746e-38
-0.038219158 0.098277837 1.038 2.0754745e-38
-0.034579236 0.098277837 1.038 2.0846582e-38
-0.03002934 0.098277837 1.0380001 2.0754748e-38
-0.025479438 0.098277837 1.038 2.0662907e-38
-0.021839518 0.098277837 1.038 2.0203708e-38
-0.0054598795 0.098277837 1.038 1.2948505e-38
-0.0018199598 0.098277837 1.038 1.7815743e-38
0.00090997992 0.09736786 1.038 2.0019997e-38
-0.07370837 0.10191776 1.038 2.2591341e-38
-0.070068464 0.10191776 1.0380001 2.0571061e-38
-0.065518558 0.10191776 1.038 2.0387392e-38
-0.061878636 0.10191776 1.038 2.0203714e-38
-0.058238715 0.10191776 1.038 2.0111874e-38
-0.054598797 0.10191776 1.038 2.0387389e-38
-0.050048899 0.10191776 1.0380001 2.038739e-38
-0.045498997 0.10191776 1.038 2.0479234e-38
-0.041859075 0.10191776 1.038 2.011188e-38
-0.038219158 0.10100777 1.038 2.020371e-38
-0.034579236 0.10191775 1.038 2.0203711e-38
-0.030029338 0.10191776 1.0380001 2.0203719e-38
-0.025479438 0.10191775 1.038 2.0020043e-38
-0.021839518 0.10191776 1.038 1.9836362e-38
-0.00545988 0.10191776 1.038 1.6344019e-38
-0.0027299398 0.10100777 1.038 1.0193381e-38
-0.074315026 0.105861 1.038 1.5688542e-38
-0.070068449 0.10555767 1.0380001 2.1122069e-38
-0.065518558 0.10555767 1.038 1.9928199e-38
-0.061878636 0.10555767 1.038 1.9652673e-38
-0.058238715 0.10555767 1.038 1.9744507e-38
-0.054598797 0.10555767 1.038 1.9928191e-38
-0.050412893 0.10537567 1.038 2.002003e-38
-0.033669256 0.10555767 1.038 1.9560842e-38
-0.030029338 0.10555767 1.0380001 1.9469006e-38
-0.025782764 0.10525434 1.038 1.9377165e-38
-0.021839518 0.10464769 1.038 1.9468999e-38
-0.0181996 0.10555767 1.038 1.919349e-38
-0.014559679 0.10555767 1.038 1.8826141e-38
-0.01000978 0.10573967 1.038 1.8366959e-38
-0.0063698594 0.10555767 1.038 1.8458792e-38
-0.074163362 0.10965258 1.038 6.27899e-39
-0.071888417 0.10828761 1.038 2.1948434e-38
-0.065518558 0.10828761 1.038 1.9928195e-38
-0.061878636 0.10828761 1.038 1.9469002e-38
-0.033669256 0.10919759 1.038 1.9193487e-38
-0.030757321 0.10974359 1.038 1.900981e-38
-0.0181996 0.11010759 1.0380001 1.8826139e-38
-0.014559679 0.11010759 1.0380001 1.8642457e-38
-0.01000978 0.11010758 1.038 1.8366946e-38
-0.0063698599 0.11010757 1.038 1.8183292e-38
-0.07370837 0.11465748 1.038 2.1608022e-42
-0.071888417 0.11556746 1.038 0
-0.0181996 0.11465748 1.038 1.8458776e-38
-0.014559679 0.11465748 1.038 1.82751e-38
-0.010009781 0.11465748 1.0380001 1.82751e-38
-0.07370837 0.11738741 1.038 2.4914456e-39
-0.070068464 0.11860072 1.038 1.793662e-42
-0.0181996 0.11738741 1.038 1.8091423e-38
-0.014863006 0.11799406 1.038 1.8091419e-38
-0.009645788 0.11811539 1.038 1.7999585e-38
-0.0063698594 0.11829739 1.038 1.7724078e-38
-0.0090998001 0.12102734 1.038 1.7724064e-38
0.052018769 -0.0082134902 1.041 2.3509886e-38
0.050193548 -0.0063882698 1.041 2.3509886e-38
0.053843986 -0.0054756599 1.041 2.3142527e-38
0.055669207 -0.00182522 1.041 2.0846567e-38
0.057494428 -0.00182522 1.041 2.0662893e-38
0.058407038 0.00091260998 1.041 1.9560844e-38
0.06205748 0.0027378299 1.041 1.9469003e-38
0.06205748 0.0045630499 1.041 1.9836347e-38
0.065251619 0.010495014 1.041 2.0203708e-38
0.10312493 0.01095132 1.041 2.3326192e-38
0.10586277 0.01095132 1.041 2.341804e-38
0.10951319 0.01003871 1.041 2.3509886e-38
0.11225102 0.0091261007 1.041 2.3234379e-38
0.065707922 0.01460176 1.041 2.0387389e-38
0.095824048 0.01551437 1.041 2.0203701e-38
0.098561883 0.01551437 1.041 2.0387392e-38
0.10221232 0.01460176 1.041 2.1305766e-38
