# .PCD v0.7 - Point Cloud Data file format
VERSION 0.7
FIELDS x y z rgb
SIZE 4 4 4 4
TYPE F F F F
COUNT 1 1 1 1
WIDTH 997
HEIGHT 1
VIEWPOINT 0 0 0 1 0 0 0
POINTS 997
DATA ascii
0.061977413 0.19320856 0.85866666 2.3509886e-38
0.0655922 0.19225299 0.86000001 2.2310981e-38
0.069281213 0.19278163 0.85899997 5.5310231e-39
0.053717747 0.19809601 0.86000007 1.1519034e-38
0.057961691 0.19797705 0.85866666 2.3509883e-38
0.060926579 0.19631895 0.85799998 2.3509886e-38
0.054596171 0.20219439 0.85900003 9.3074104e-39
0.057165679 0.20083205 0.85799998 2.3508435e-38
-0.037784331 0.11713143 0.86199999 1.8418164e-38
-0.022670599 0.11788712 0.86199999 1.970704e-38
-0.017380793 0.1186428 0.86199999 1.9152485e-38
-0.015113732 0.1186428 0.86199999 1.7309281e-38
-0.0095216511 0.11803825 0.86199999 1.7770925e-38
-0.0062973886 0.11813901 0.86199999 2.0720481e-38
-0.0022670601 0.1186428 0.86199999 2.3211581e-38
0.0007556866 0.1186428 0.86199999 1.9986529e-38
-0.088415332 0.12317692 0.86199999 2.3509886e-38
-0.086148277 0.12317692 0.86199999 2.3509886e-38
-0.037028644 0.12317692 0.86199999 1.6574872e-38
-0.033703625 0.12257236 0.86199999 1.8415993e-38
-0.030227466 0.12090985 0.86199999 1.7309625e-38
-0.026637955 0.12147662 0.86199999 1.8786551e-38
-0.02040354 0.12166554 0.86199999 1.7863181e-38
-0.018287618 0.12136327 0.86199999 1.7494394e-38
-0.013753496 0.121061 0.86199999 1.7494759e-38
-0.0098239258 0.12015417 0.86199999 1.7955731e-38
-0.0068011796 0.12015417 0.86199999 2.0813461e-38
-0.0012594777 0.12065797 0.86199999 2.3212307e-38
0.0024559817 0.12147662 0.86199999 2.0539712e-38
0.0060454933 0.12242123 0.86199999 1.9801068e-38
-0.086148277 0.12468829 0.86199999 2.3509886e-38
-0.082747683 0.12582181 0.86199999 2.3509886e-38
-0.077835724 0.12695536 0.86199999 2.3509886e-38
-0.074057281 0.12771104 0.86199999 2.3509886e-38
-0.034005903 0.12619966 0.86199999 1.7591609e-38
-0.012846672 0.12544398 0.86199999 1.8414563e-38
-0.011335299 0.12619966 0.86199999 1.8599917e-38
0.0037784332 0.12468829 0.86199999 1.7676186e-38
0.0060454933 0.12468829 0.86199999 1.9982913e-38
0.010201769 0.12582183 0.86199999 2.1278384e-38
-0.076324344 0.12997809 0.86199999 2.3509886e-38
-0.074057281 0.12997809 0.86199999 2.3509886e-38
-0.034005899 0.12997809 0.86199999 2.1736489e-38
-0.02040354 0.12997809 0.86199999 1.9895065e-38
-0.018892165 0.12997809 0.86199999 1.8880913e-38
0.011335299 0.12997809 0.86199999 1.8140075e-38
0.012846672 0.13073377 0.86199999 1.8876609e-38
-0.073301598 0.13375655 0.86199999 2.019013e-38
-0.071790233 0.13526791 0.86199999 1.2631231e-38
-0.033628054 0.13413438 0.86199999 1.7223941e-38
-0.02040354 0.13375653 0.86199999 1.7221763e-38
-0.018136479 0.13375655 0.86199999 1.5100556e-38
-0.015113732 0.13451222 0.86199999 1.5746647e-38
0.013224516 0.13413438 0.86199999 1.9616362e-38
-0.073301598 0.13753498 0.86199999 1.0973067e-38
-0.071790233 0.13753498 0.86199999 1.023443e-38
-0.032494523 0.13829067 0.86199999 1.5751692e-38
-0.030227466 0.13904634 0.86199999 1.5474033e-38
-0.026449032 0.13803877 0.86199999 1.9069657e-38
-0.021914912 0.13807476 0.86200005 1.7225362e-38
-0.017985342 0.13829064 0.86199999 1.7777454e-38
-0.015113733 0.13829066 0.86199999 1.6856954e-38
0.010126201 0.1388952 0.86199999 1.8971671e-38
0.014358046 0.13829067 0.86199999 1.8140844e-38
0.018136479 0.13829067 0.86199999 1.8048626e-38
-0.032494523 0.1413134 0.86199999 1.5841378e-38
-0.030227466 0.14206909 0.86199999 1.8053346e-38
-0.026826875 0.14244694 0.86199999 1.934337e-38
-0.021914912 0.14206909 0.86199999 1.8330986e-38
-0.018136479 0.14206909 0.86199999 1.8422111e-38
-0.015113733 0.14206909 0.86199999 1.9898322e-38
0.010579612 0.14206909 0.86199999 1.4549161e-38
0.014358046 0.14206909 0.86199999 1.4364402e-38
-0.029471781 0.14584753 0.86199999 1.6674017e-38
-0.026880853 0.14563163 0.86200005 1.6580005e-38
-0.021914912 0.14546968 0.86199999 1.9069269e-38
-0.018136479 0.14584753 0.86199999 1.8515043e-38
-0.015113732 0.14584753 0.86199999 1.971358e-38
-0.0098239258 0.14735889 0.86199999 1.9989786e-38
0.010579612 0.14584753 0.86199999 1.5565155e-38
0.013602359 0.14584753 0.86199999 1.6761877e-38
-0.029471781 0.15038162 0.86199999 1.3997437e-38
-0.026880853 0.15059754 0.86200005 1.6763675e-38
-0.02040354 0.15038164 0.86199999 1.9252955e-38
-0.018136479 0.15038164 0.86199999 1.9067844e-38
-0.014358046 0.15038164 0.86199999 1.9344079e-38
-0.010012847 0.15057057 0.86199999 1.9344792e-38
-0.0058943559 0.15068391 0.86199999 1.7501259e-38
-0.0037784332 0.15113732 0.86199999 1.786968e-38
0.010579612 0.15038165 0.86199999 1.7688525e-38
0.013602359 0.15038162 0.86199999 1.7960029e-38
-0.025441451 0.15390818 0.86199999 1.6764776e-38
-0.021914912 0.15416008 0.86199999 1.7134971e-38
-0.018136479 0.15416007 0.86199999 1.6856228e-38
-0.014358046 0.15416007 0.86199999 1.9713231e-38
-0.0098239258 0.15416007 0.86199999 1.7039195e-38
-0.0060454928 0.15416007 0.86199999 1.7225742e-38
-0.0030227466 0.15340438 0.86199999 1.7410122e-38
0.0022670599 0.15340438 0.86199999 1.9528057e-38
0.010579612 0.15416007 0.86199999 1.6122972e-38
-0.022670599 0.15642713 0.86199999 1.6305208e-38
-0.018136479 0.15793851 0.86199999 1.648852e-38
-0.014358046 0.15793851 0.86199999 1.7596311e-38
-0.0092193773 0.15854307 0.86199999 1.750161e-38
-0.006423336 0.15831636 0.86199999 1.7132831e-38
0.0022670599 0.15869421 0.86199999 1.7503751e-38
0.0068011796 0.15869421 0.86199999 1.7868925e-38
0.0096350042 0.15774959 0.86199999 1.9346243e-38
-0.017380793 0.16096126 0.86199999 1.620903e-38
-0.013854254 0.16196884 0.86199999 1.5655896e-38
-0.0098239258 0.16247262 0.86199999 1.6024658e-38
-0.0060454933 0.16247264 0.86199999 1.8423214e-38
-0.0022670599 0.16247262 0.86199999 1.584318e-38
0.0022670601 0.16247262 0.86199999 1.7961848e-38
0.0060454933 0.16247264 0.86199999 1.8330995e-38
0.0083125532 0.16096126 0.86199999 1.8610098e-38
-0.0098239258 0.16549537 0.86199999 1.4368397e-38
-0.0060454933 0.16549537 0.86199999 1.6578937e-38
-0.0022670601 0.16549537 0.86199999 1.5474777e-38
0.0022670599 0.16549537 0.86199999 1.4090762e-38
0.0052898065 0.16549537 0.86199999 1.7038144e-38
0.059699245 0.18363185 0.86199999 2.3509886e-38
0.0622182 0.18312806 0.86199999 2.3509886e-38
0.065744743 0.18287617 0.86199999 1.7700869e-38
0.058490146 0.18605004 0.86199999 2.3509886e-38
0.061966304 0.1858989 0.86199999 2.3509886e-38
0.065744743 0.18589893 0.86199999 1.9821347e-38
0.068767488 0.18589891 0.86199999 8.2032713e-39
0.047608256 0.19118872 0.86199999 8.6631452e-39
0.049875315 0.19118872 0.86199999 1.2530292e-38
0.054085571 0.18989326 0.86200005 2.2863433e-38
0.058187868 0.18967736 0.86199999 2.3509886e-38
0.061815169 0.18937507 0.86199999 2.3509886e-38
0.065744743 0.18892166 0.86199999 2.0559264e-38
0.069523171 0.18967734 0.86199999 6.728123e-39
0.047608256 0.19345579 0.86199999 9.3088719e-39
0.049623422 0.1932039 0.86199999 1.0318335e-38
0.053653751 0.19307794 0.86199999 2.1289974e-38
0.059699245 0.19270009 0.86199999 2.3509886e-38
-0.032683007 0.11173028 0.86699998 2.2009092e-38
-0.029338701 0.11112223 0.86700004 2.1920132e-38
-0.02584238 0.11097021 0.86699998 2.1185082e-38
-0.0228021 0.11097021 0.86699998 2.1458069e-38
-0.018241677 0.11173028 0.86699998 1.98922e-38
-0.013934615 0.11071686 0.86700004 2.0907779e-38
-0.010488966 0.11081821 0.86700004 1.9617055e-38
-0.0060805595 0.11173028 0.86699998 2.1736485e-38
-0.0022802099 0.11173028 0.86699998 2.321413e-38
0.00076006993 0.11173028 0.86699998 2.3489247e-38
-0.040144317 0.11588831 0.86400002 1.8695437e-38
-0.037872002 0.11588831 0.86400002 1.8140449e-38
-0.033899125 0.1141625 0.86700004 2.0258468e-38
-0.029642729 0.1140105 0.86700004 2.0720507e-38
-0.025812574 0.11463644 0.86599994 2.219709e-38
-0.022192597 0.11438067 0.86549997 1.9985111e-38
-0.0181996 0.11450406 0.86500001 1.9705989e-38
-0.014408016 0.11450406 0.86500001 1.9705283e-38
-0.0098581165 0.11450406 0.86500001 1.9246051e-38
-0.006069602 0.11457025 0.86550009 2.23811e-38
-0.0022779084 0.11443031 0.86587501 2.3214842e-38
0.0020622956 0.11422203 0.86614287 2.1461682e-38
0.0058272029 0.11426385 0.86699998 2.063082e-38
0.0083607696 0.11477056 0.86699998 2.2751345e-38
-0.085381195 0.11882427 0.86699998 6.5404821e-39
-0.081740402 0.11868664 0.86600006 2.3509856e-38
-0.078177795 0.11855777 0.86580002 2.3509872e-38
-0.07524693 0.11857091 0.86699998 2.3509886e-38
-0.040144317 0.11816064 0.86400002 1.7137188e-38
-0.033968747 0.11746664 0.86587501 1.9801084e-38
-0.029574348 0.11753733 0.86500001 2.0721226e-38
-0.025752962 0.11816064 0.86400002 2.0538254e-38
-0.020474551 0.11753732 0.86500001 2.0166613e-38
-0.018431041 0.11790816 0.86400002 2.0351003e-38
-0.01401264 0.11778191 0.86400002 1.6663196e-38
-0.0113616 0.11740319 0.86400002 1.6661727e-38
-0.00530208 0.11740319 0.86400002 2.2656231e-38
-0.0022742923 0.11712508 0.86475003 2.2937157e-38
0.0027111541 0.11763464 0.86571431 1.924859e-38
0.0060735466 0.11767321 0.86600006 2.0999943e-38
0.0096637476 0.11824517 0.8670001 2.2106309e-38
-0.089688256 0.12237126 0.86699998 1.270933e-38
-0.085629039 0.1218757 0.86657149 2.3416937e-38
-0.081899077 0.1220881 0.86499995 2.3509886e-38
-0.078104869 0.12208899 0.86499995 2.3509886e-38
-0.073726788 0.12256128 0.86700004 2.3509886e-38
-0.070078447 0.12267529 0.86700004 2.3509886e-38
-0.066126093 0.12389141 0.86699998 2.3509886e-38
-0.061565667 0.12389141 0.86699998 2.3509886e-38
-0.058525383 0.12389141 0.86699998 2.3509886e-38
-0.040190782 0.12209074 0.86500001 1.6495776e-38
-0.038629442 0.12346271 0.86400002 1.6759619e-38
-0.03332736 0.12043296 0.86400002 1.9891458e-38
0.0060595199 0.12043296 0.86400002 2.1000698e-38
0.0098598702 0.12208898 0.86499995 1.998582e-38
0.013301224 0.1227513 0.86699998 1.9800316e-38
-0.081803516 0.1249776 0.86400002 2.3509886e-38
-0.078016326 0.1249776 0.86400002 2.3509886e-38
-0.074229121 0.12573504 0.86400002 2.3509886e-38
-0.070441931 0.12573504 0.86400002 2.3509886e-38
-0.066126093 0.12617162 0.86700004 2.3509886e-38
-0.061565667 0.12617162 0.86700004 2.3509886e-38
-0.058525383 0.12541154 0.86699998 2.3509886e-38
-0.04028371 0.12541154 0.86699998 1.732301e-38
-0.037872002 0.12573504 0.86400002 1.7960053e-38
-0.035599679 0.12573504 0.86400002 1.722318e-38
0.0113616 0.1249776 0.86400002 2.1278755e-38
0.014441329 0.12617162 0.86700004 1.9615613e-38
0.017481608 0.12617162 0.86699998 1.9892927e-38
-0.070441924 0.12952223 0.86399996 2.3509886e-38
-0.066126086 0.12997197 0.86700004 2.2680489e-38
-0.063085809 0.12845182 0.86699998 2.3509886e-38
-0.04028371 0.13149211 0.86699998 1.7590554e-38
-0.037916712 0.12967128 0.86500001 1.9251162e-38
-0.035599679 0.12952225 0.86400002 1.9985844e-38
0.014631346 0.12978195 0.86700004 1.8511064e-38
0.017861644 0.13035201 0.86699998 1.8326295e-38
-0.070510305 0.13376632 0.8648572 1.917635e-38
-0.066886157 0.13377231 0.86699998 1.733352e-38
-0.04028371 0.13377231 0.86699998 1.5749137e-38
-0.037747338 0.13385701 0.8646 1.7682753e-38
-0.035599679 0.13406688 0.86400002 1.8144814e-38
0.015300289 0.13376391 0.86400002 1.9523046e-38
0.018210558 0.13429788 0.86549997 1.9985805e-38
0.02052189 0.13453238 0.86699998 1.777457e-38
-0.069676593 0.13768522 0.86580002 7.6522443e-39
-0.067038171 0.13726863 0.86700004 3.0449865e-39
-0.038129739 0.13778149 0.86640006 1.7962214e-38
-0.034842238 0.13785407 0.86400002 1.6766187e-38
-0.020450881 0.13861151 0.86400002 1.8240245e-38
-0.018935999 0.13861151 0.86400002 1.9070007e-38
0.021115746 0.13778041 0.86639994 1.5748078e-38
-0.073471673 0.14012641 0.86400002 8.847891e-39
-0.071321651 0.14036968 0.86549997 8.7560611e-39
-0.037851483 0.14182906 0.86700004 1.5473976e-38
-0.034535281 0.1419287 0.86442864 1.519887e-38
-0.020450881 0.14315616 0.86400002 1.8330993e-38
0.01817856 0.14239872 0.86400002 1.380762e-38
0.021246456 0.14188719 0.86549997 1.6485647e-38
-0.037243426 0.14517337 0.86699998 1.5659465e-38
-0.033926342 0.1461228 0.86474997 1.3723382e-38
-0.031055039 0.14618592 0.86400002 1.5749503e-38
-0.020450881 0.14542848 0.86400002 1.8976011e-38
0.015906241 0.14618592 0.86400002 1.7594139e-38
0.018040221 0.14598447 0.8646 1.7685261e-38
0.021264207 0.14580785 0.86625004 1.6764054e-38
-0.034145728 0.14972721 0.86550009 1.4276942e-38
-0.031055039 0.14997312 0.86400002 1.2614915e-38
0.015906241 0.14997312 0.86400002 1.8517572e-38
0.018226556 0.14960426 0.86625004 1.7779645e-38
0.02052189 0.14821364 0.86699998 1.7409776e-38
-0.033414803 0.15340197 0.86625004 1.5658797e-38
-0.029815935 0.15450047 0.86571437 1.2707803e-38
-0.026510401 0.1552752 0.86400002 1.5013049e-38
0.014623551 0.15434644 0.8648572 1.7591981e-38
0.017481608 0.15429421 0.86699998 1.8788742e-38
-0.028882658 0.15809454 0.86699998 1.4183664e-38
-0.025775973 0.15768494 0.86475003 1.5566935e-38
-0.021749349 0.15873776 0.86400002 1.5290722e-38
0.0113616 0.15981983 0.86400002 1.8516108e-38
0.014215807 0.15825234 0.86474997 1.8885622e-38
0.017481608 0.15809456 0.86699998 1.7778899e-38
-0.04028371 0.16113482 0.86699998 1.1147377e-38
-0.038003497 0.16113482 0.86699998 1.0224286e-38
-0.025082309 0.16037476 0.86699998 1.4460945e-38
-0.022042029 0.16265498 0.86700004 1.44606e-38
-0.01843104 0.16234463 0.86400002 1.5381809e-38
-0.015906241 0.16284961 0.86400002 1.6303372e-38
0.010157586 0.16235673 0.8646 1.8054779e-38
0.014441329 0.16214827 0.86700004 1.8701229e-38
0.017481608 0.16113482 0.86699998 1.7227897e-38
-0.017481608 0.16569525 0.86699998 1.519703e-38
-0.014593869 0.16621402 0.86474997 1.6396707e-38
-0.0098467199 0.16739425 0.86400002 1.4645001e-38
-0.0060595199 0.16739424 0.86400002 1.5748465e-38
-0.00227232 0.16739425 0.86400002 1.5842828e-38
0.00227232 0.16739425 0.86400002 1.4370201e-38
0.0063120006 0.16688928 0.86400002 1.6488528e-38
0.0096872766 0.16619396 0.86662501 1.7687079e-38
0.012921189 0.16493517 0.86699998 1.7594168e-38
-0.013427902 0.17000233 0.86699998 1.6212672e-38
-0.009865569 0.16996156 0.86550009 1.5292163e-38
-0.0060595199 0.16966656 0.86400002 1.4922305e-38
-0.0022727584 0.1697652 0.86449999 1.7135714e-38
0.0022762651 0.16996244 0.86550009 1.7965829e-38
0.0060759569 0.17010905 0.86624998 1.768995e-38
0.0083607696 0.17025568 0.86699998 1.7228627e-38
-0.0083607696 0.17253588 0.86699998 1.538434e-38
-0.0060805595 0.17253588 0.86699998 1.5014843e-38
-0.0022802099 0.17253588 0.86699998 1.271027e-38
0.0022802099 0.17253588 0.86699998 1.5936794e-38
0.065366015 0.17557615 0.86699998 1.2908127e-38
0.054725036 0.17861643 0.86699998 2.3509886e-38
0.057765316 0.17861643 0.86699998 2.3509886e-38
0.062390435 0.17806415 0.86580002 2.3509886e-38
0.065595202 0.17813292 0.86571431 1.5214088e-38
0.050924689 0.1824168 0.86699998 2.3509886e-38
0.054154981 0.18184674 0.86700004 2.3509886e-38
0.05776532 0.18165672 0.86700004 2.3509886e-38
0.061240427 0.18169968 0.86600006 2.3509886e-38
0.065139838 0.18102816 0.86400002 1.9729868e-38
0.047884405 0.18621716 0.86699998 9.7676893e-39
0.050164621 0.18621716 0.86700004 1.843336e-38
0.053818565 0.18571539 0.86466658 2.3509883e-38
0.057312958 0.18456289 0.86400002 2.3509886e-38
0.047718722 0.19011743 0.86400002 7.6489947e-39
0.050033778 0.18952371 0.86475003 1.4927011e-38
0.05226336 0.18935999 0.86400002 2.166273e-38
-0.0083993431 0.10231927 0.87099999 2.2474361e-38
-0.0061086132 0.10231927 0.87099999 2.2752394e-38
-0.0022907299 0.10308285 0.87099999 2.2566215e-38
0.0015271533 0.10308284 0.87099999 2.3494291e-38
-0.033196736 0.10645713 0.87050003 2.1642821e-38
-0.029756691 0.10605475 0.87033325 2.2010528e-38
-0.025931798 0.10677712 0.87 2.2194568e-38
-0.022565026 0.10628467 0.87042856 2.2381825e-38
-0.017562263 0.10639168 0.87099999 2.3029698e-38
-0.014048333 0.10617974 0.86957145 2.0815574e-38
-0.0099091576 0.10594682 0.86944443 1.9893975e-38
-0.0060966327 0.10593347 0.86933339 2.2197771e-38
-0.0022864442 0.10592014 0.86922222 2.3121895e-38
0.0022895609 0.10602845 0.87011105 2.3213745e-38
0.0059558982 0.10644259 0.87099999 2.2752048e-38
-0.034493107 0.11033704 0.86949998 2.173358e-38
-0.03009202 0.10932165 0.86900002 2.3395601e-38
-0.025901992 0.10894074 0.86900002 2.1089657e-38
-0.021483419 0.10985491 0.86900008 2.1826504e-38
-0.018283758 0.10970256 0.86900002 2.3120816e-38
-0.015490407 0.10944861 0.86900008 2.1092873e-38
-0.0091418792 0.10970256 0.86900002 1.9893993e-38
-0.0060945866 0.10970256 0.86900002 2.1644612e-38
-0.0022854703 0.11002906 0.86900008 2.3122634e-38
0.0024759257 0.11027392 0.86900002 2.1461256e-38
0.0060972171 0.11050617 0.86933339 2.2566557e-38
0.0094104316 0.11088722 0.87033337 2.2658787e-38
0.012980803 0.11071861 0.87099999 2.3486705e-38
-0.038091168 0.11503533 0.86900002 1.8139412e-38
-0.035805698 0.11351167 0.86900002 2.1364088e-38
0.0068564098 0.11351167 0.86900002 2.1830815e-38
0.010415969 0.11380857 0.86933339 2.0724092e-38
0.01357904 0.11397245 0.87019998 2.1461256e-38
0.017180474 0.11491828 0.87099999 2.2752747e-38
0.020616569 0.11530007 0.87099999 2.1092894e-38
-0.087609686 0.11960626 0.86900002 0
-0.078467801 0.11808262 0.86900002 2.3509886e-38
-0.072936617 0.11918896 0.8696667 2.3509886e-38
-0.070396036 0.11918896 0.8696667 2.3509886e-38
-0.066354901 0.11898032 0.87000006 2.3509886e-38
-0.061801784 0.1190262 0.87033331 2.3509886e-38
-0.05828635 0.11937248 0.87099999 2.3509886e-38
-0.053450365 0.11988153 0.87099999 2.3509886e-38
-0.04505102 0.11988153 0.87099999 2.3509886e-38
-0.04272756 0.11826262 0.87033331 2.1474708e-38
0.010665527 0.11655897 0.86900002 2.2845316e-38
0.014284187 0.11827307 0.86900002 2.3398866e-38
0.017980808 0.11801875 0.87014282 2.0999957e-38
0.021634672 0.11886343 0.87099999 2.1551679e-38
-0.073896863 0.12112991 0.86900002 2.3509886e-38
-0.069325924 0.12112991 0.86900002 2.3509886e-38
-0.066278629 0.12189173 0.86900008 2.3509886e-38
-0.061707687 0.12189173 0.86900008 2.3509886e-38
-0.057898574 0.12189173 0.86900002 2.3509886e-38
-0.054089457 0.12189174 0.86900008 2.3509886e-38
-0.049868133 0.12185089 0.86980003 2.3509886e-38
-0.046187885 0.12209985 0.86940002 2.3509886e-38
-0.042662106 0.12189173 0.86900002 2.3509881e-38
0.015236465 0.12189173 0.86900002 2.0905962e-38
0.018283758 0.12189173 0.86900002 1.8509935e-38
0.022110408 0.12198466 0.8696667 2.1921538e-38
0.025707081 0.12242679 0.87099999 2.3028639e-38
0.028252337 0.12293584 0.87099999 2.3491419e-38
-0.057517663 0.12608175 0.86900002 2.3509886e-38
-0.054089457 0.12570085 0.86900002 2.3509886e-38
-0.05028034 0.12570085 0.86900008 2.3509886e-38
-0.046471223 0.12570085 0.86900002 2.3232578e-38
-0.042335611 0.12591852 0.86900008 2.1198462e-38
0.015998289 0.1241772 0.86900002 2.0539392e-38
0.018664671 0.12531994 0.86900002 1.8696521e-38
0.022092877 0.12570085 0.86900002 2.063226e-38
0.025922447 0.12579671 0.8696667 2.0999985e-38
0.028863195 0.12629557 0.87099999 2.1368767e-38
-0.061517231 0.13046224 0.86900002 2.1112443e-38
-0.057898574 0.13027179 0.86900008 2.0926974e-38
-0.054089457 0.13027178 0.86900002 1.991282e-38
-0.05028034 0.13027179 0.86900008 1.9173458e-38
-0.046471223 0.13008134 0.86900002 1.8064567e-38
-0.042090736 0.13008134 0.86900002 1.8242429e-38
0.019045582 0.12950996 0.86900002 2.0815905e-38
0.022092877 0.13027179 0.86900002 1.9803213e-38
0.025912218 0.13032177 0.86933339 2.0446094e-38
0.029015912 0.12980804 0.87099999 2.1831563e-38
-0.064754978 0.1340809 0.86900002 1.5305936e-38
-0.061707687 0.13408092 0.86900008 1.0606127e-38
-0.057898574 0.1340809 0.86900002 6.2678861e-39
-0.054089457 0.13408092 0.86900008 3.2257582e-39
-0.049612906 0.13433835 0.87066668 6.260612e-39
-0.045925934 0.13380791 0.87019998 1.3172357e-38
-0.042662106 0.1340809 0.86900002 1.6579603e-38
0.022397606 0.13392854 0.86900008 1.7497619e-38
0.025901992 0.1340809 0.86900002 1.7034478e-38
0.029015914 0.13362591 0.87099999 2.1923763e-38
-0.065173149 0.13835114 0.86949998 1.3862149e-39
-0.062012423 0.13697584 0.86900008 0
-0.057964318 0.13652331 0.87 0
-0.054213941 0.13668022 0.87099999 1.7509967e-39
-0.050396055 0.13668022 0.87099999 1.0133575e-38
-0.045432806 0.13782558 0.87099999 1.5658382e-38
-0.041922491 0.13796093 0.86944443 1.7410465e-38
0.023235612 0.13750911 0.86900002 1.9532433e-38
0.025922447 0.13799523 0.8696667 2.2585407e-38
0.029155651 0.13875405 0.87060004 2.3509886e-38
0.032833796 0.13973452 0.87099999 2.3509886e-38
-0.04505102 0.14278883 0.87099999 1.2712512e-38
-0.041734811 0.14235203 0.86949998 1.5015207e-38
-0.03885299 0.1439846 0.86900002 1.1511723e-38
0.023616523 0.14246097 0.86900008 2.0733527e-38
0.025901992 0.14246097 0.86900008 2.1848196e-38
0.02953352 0.14221199 0.87014282 2.3509884e-38
0.03405552 0.14217797 0.87099999 2.3509886e-38
0.038178831 0.14278883 0.87099999 2.3509886e-38
0.042186327 0.14225833 0.87042856 1.7060903e-38
0.045726642 0.14251503 0.86933339 1.9379537e-39
-0.045560073 0.1463522 0.87099999 1.1605079e-38
-0.042188331 0.1461833 0.87042862 1.5105971e-38
-0.03834511 0.14652403 0.86900008 1.602538e-38
0.023616523 0.14627008 0.86900002 1.9808693e-38
0.025901992 0.14627008 0.86900002 2.0001389e-38
0.029954163 0.14594987 0.87049997 2.2955629e-38
0.034360949 0.14584313 0.87099993 2.3509886e-38
0.038178831 0.14584315 0.87099999 2.3509886e-38
0.041805819 0.14603403 0.87099993 2.3509886e-38
0.046471223 0.1462701 0.86900008 1.3927707e-38
-0.040438585 0.15031064 0.87033337 1.4276205e-38
-0.038106073 0.15013735 0.86933339 1.3817757e-38
-0.035805698 0.15160283 0.86900002 1.3909217e-38
0.019045582 0.15160283 0.86900002 1.8608319e-38
0.02229692 0.15035643 0.86949998 1.2159309e-38
0.025961606 0.1504246 0.87099999 1.3445743e-38
0.029779488 0.15042458 0.87099993 2.1933501e-38
0.034360953 0.15042458 0.87099993 2.3508804e-38
0.038178831 0.1504246 0.87099999 2.3509886e-38
0.041805819 0.1504246 0.87099993 2.3509886e-38
0.045814596 0.14889744 0.87099999 2.3509886e-38
0.049632482 0.15118818 0.87099999 1.7707348e-38
0.052686788 0.15195175 0.87099999 6.9330685e-39
-0.040469561 0.15347891 0.87099999 1.022143e-38
-0.037924305 0.15398797 0.87099999 9.2054323e-39
-0.0358469 0.15406628 0.87 1.2430861e-38
0.019045582 0.15388831 0.86900002 1.8699433e-38
0.022110995 0.15400636 0.8696667 1.5108482e-38
0.025707081 0.15398797 0.87099999 4.3191564e-39
0.030084921 0.15408978 0.87099999 1.399531e-38
0.034360953 0.15424249 0.87099999 2.2765451e-38
0.038178831 0.15424249 0.87099999 2.3509886e-38
0.041691285 0.15408978 0.87099999 2.3509886e-38
0.050396055 0.15424249 0.87099999 2.3141103e-38
0.052686788 0.15347891 0.87099999 1.3565428e-38
-0.040376633 0.15922107 0.86900002 1.0225761e-38
-0.037991051 0.1582192 0.8702001 5.0660639e-39
-0.034309521 0.15781841 0.86966664 1.2802505e-38
-0.031234756 0.15845925 0.86900002 1.2341533e-38
0.019045582 0.15769742 0.86900008 1.7503759e-38
0.022127943 0.15793939 0.87033331 1.5385788e-38
0.025198029 0.15882394 0.87099999 9.3030285e-39
0.031306639 0.1565332 0.87099999 1.0488977e-38
0.034797281 0.1578422 0.87099999 2.0639871e-38
0.038178831 0.15806036 0.87099999 2.2861994e-38
0.041996714 0.15806034 0.87099993 2.3509886e-38
0.0458146 0.15806036 0.87099999 2.3509886e-38
0.049632482 0.15806036 0.87099993 2.3509886e-38
0.053450361 0.15806036 0.87099999 2.3048907e-38
-0.034333482 0.16175435 0.87033331 9.667914e-39
-0.029723091 0.16156881 0.86933339 1.317023e-38
-0.026054358 0.1625731 0.86900008 1.3907795e-38
0.015998289 0.16379201 0.86900002 1.8424991e-38
0.018664671 0.16264927 0.86900002 1.7411583e-38
0.021905269 0.16204545 0.87014294 1.4371297e-38
0.035888102 0.16187826 0.87099999 1.8054038e-38
0.03814961 0.16251618 0.87033331 1.9812656e-38
0.041765276 0.16215165 0.87071431 2.2862348e-38
0.0458146 0.16187826 0.87099999 2.3509886e-38
0.049632482 0.16187826 0.87099999 2.3509886e-38
0.053908508 0.16203098 0.87099999 2.3509886e-38
-0.033597372 0.16416897 0.87099999 9.393125e-39
-0.0293977 0.16455077 0.87099999 1.2618128e-38
-0.025932675 0.16626859 0.87 1.3538655e-38
-0.022092877 0.16607748 0.86900008 1.4185821e-38
-0.019045582 0.16607748 0.86900002 1.4277651e-38
0.014779373 0.16622984 0.86900008 1.6118671e-38
0.018283758 0.16607748 0.86900002 1.6118305e-38
0.021889195 0.16620518 0.87099999 1.5015559e-38
0.035860635 0.16556814 0.87033337 7.0943607e-39
0.038091168 0.16607748 0.86900002 1.2898309e-38
0.042164378 0.16579145 0.87049997 2.0923358e-38
0.046333361 0.16569547 0.86999995 2.3417333e-38
0.05000269 0.16525954 0.86985713 2.3509886e-38
0.054145176 0.16548358 0.86988884 2.3509886e-38
0.057617161 0.16598192 0.87050003 2.3509886e-38
-0.025707081 0.16925949 0.87099999 1.3356053e-38
-0.022126772 0.17014845 0.87033325 1.4646442e-38
-0.018291064 0.16995236 0.86933339 1.5474741e-38
-0.015490407 0.17090237 0.86900008 1.5105951e-38
0.010817892 0.17019133 0.86900008 1.7687789e-38
0.014288351 0.16974546 0.86925 1.630596e-38
0.017968286 0.17021698 0.86957145 1.3357502e-38
0.021902421 0.16969614 0.86900002 8.6547949e-39
0.03814961 0.17014843 0.87033331 7.927727e-39
0.041986387 0.17023455 0.87077767 1.5390883e-38
0.046517979 0.17006117 0.86988884 2.3138941e-38
0.050280344 0.16988662 0.86900008 2.3509886e-38
0.054089457 0.1698866 0.86900002 2.3509886e-38
0.057943575 0.17001635 0.8696667 2.3509886e-38
0.061590467 0.1706012 0.87042862 2.0099368e-38
0.064904012 0.17104116 0.87099999 7.7441022e-39
-0.017562263 0.17409547 0.87099999 1.0501199e-38
-0.014182538 0.17370395 0.86980003 1.1236256e-38
-0.0099080857 0.17427051 0.86933339 1.3815912e-38
-0.006094587 0.17521936 0.86900002 1.4000328e-38
-0.0022854703 0.17521936 0.86900008 1.2988323e-38
0.0022854703 0.17521936 0.86900008 1.3908095e-38
0.006094587 0.17369571 0.86900002 1.5751674e-38
0.0099162683 0.17389588 0.87 1.4830819e-38
0.013744379 0.17409547 0.87099999 1.2431622e-38
0.017562263 0.17409545 0.87099999 8.747743e-39
0.020616569 0.17333189 0.87099999 3.4936949e-39
0.038942408 0.17333189 0.87099999 8.8497043e-39
0.041996714 0.17409545 0.87099999 1.0412333e-38
0.046749003 0.17425065 0.87014282 2.2030064e-38
0.050280344 0.17445754 0.86900008 2.3509886e-38
0.054089457 0.17445754 0.86900002 2.3509886e-38
0.057898574 0.17445754 0.86900008 2.3509886e-38
0.06170769 0.17445754 0.86900002 2.2495734e-38
0.065516807 0.17369571 0.86900002 9.7749606e-39
-0.01603511 0.17638621 0.87099999 1.1239509e-38
-0.013744379 0.17638621 0.87099999 1.1607235e-38
-0.0099264961 0.17714977 0.87099999 1.2155729e-38
-0.0061086132 0.17791335 0.87099999 1.2248636e-38
-0.0019852992 0.17852423 0.87099999 1.3632299e-38
0.0019089415 0.17829515 0.87099999 1.4644987e-38
0.0061086132 0.17714979 0.87099999 1.4740075e-38
0.0091629196 0.17638621 0.87099999 1.566204e-38
0.043523867 0.17638621 0.87099999 9.3920446e-39
0.0458146 0.17791335 0.87099999 1.4927765e-38
0.049574327 0.17847151 0.87 2.3139663e-38
0.053708546 0.17788574 0.86900002 2.3509886e-38
0.057898574 0.17750484 0.86900002 2.3509886e-38
0.060184043 0.17826666 0.86900002 2.3509886e-38
0.046714276 0.18209395 0.86999995 1.2900519e-38
0.049899425 0.18169487 0.86900002 2.1478708e-38
0.052565809 0.18055212 0.86900002 2.3509886e-38
0.060184043 0.18055212 0.86900002 2.3509886e-38
0.043523867 0.18707629 0.87099999 9.034806e-39
0.045619104 0.18568343 0.87019998 8.7553352e-39
0.04352387 0.19013058 0.87099999 9.4925583e-39
0.046035897 0.18969402 0.86900008 9.2163274e-39
0.046471223 0.1927413 0.86900002 1.0230472e-38
-0.033470839 0.10296597 0.87433338 2.3492479e-38
-0.029882059 0.10267081 0.87400007 2.3120461e-38
-0.025903571 0.10223424 0.87420005 2.2658752e-38
-0.022668721 0.10217362 0.87442863 2.312191e-38
-0.017193563 0.10217362 0.87442863 2.3216961e-38
-0.01378646 0.10186546 0.8736667 2.3495716e-38
-0.010400148 0.10170198 0.87414294 2.3122655e-38
-0.0061366665 0.10048791 0.875 2.3494994e-38
-0.0026049274 0.10126849 0.8738001 2.3211936e-38
0.0022977432 0.10237684 0.8736667 2.3493562e-38
0.0053695831 0.10355625 0.875 2.3496799e-38
-0.036564305 0.10611319 0.875 2.3303773e-38
-0.03495007 0.10638087 0.87300003 2.2013397e-38
-0.02602122 0.10485021 0.87300003 2.228781e-38
-0.02066391 0.10561554 0.87300003 2.1922271e-38
-0.01836792 0.10485021 0.87300003 2.2844574e-38
0.00688797 0.10485021 0.87300003 2.3493221e-38
0.0088118147 0.10650184 0.87400001 2.3397057e-38
-0.048981119 0.11097285 0.87300003 2.3031959e-38
-0.042189583 0.11122708 0.875 2.2292907e-38
-0.038310625 0.10956638 0.87400007 2.136587e-38
0.010475874 0.10909795 0.87433338 2.3488168e-38
0.014063194 0.1102043 0.875 2.349139e-38
0.016620141 0.11071569 0.875 2.3490689e-38
-0.06059958 0.11582958 0.875 2.3509886e-38
-0.058298331 0.11582958 0.875 2.3509886e-38
-0.053695831 0.11582958 0.875 2.3509886e-38
-0.049508698 0.11449915 0.87420005 2.3509886e-38
-0.046025001 0.11506249 0.875 2.3509886e-38
-0.042157434 0.11420716 0.87433338 2.0915013e-38
-0.038266499 0.11326885 0.87300003 1.9706002e-38
0.014541269 0.11250351 0.87300003 2.1917963e-38
0.017917488 0.11316734 0.87340003 2.3120839e-38
0.021206859 0.11420833 0.87433338 2.2936791e-38
-0.074237004 0.11862615 0.87300003 2.3509886e-38
-0.068879694 0.11786082 0.87300003 2.3509886e-38
-0.066583708 0.11709549 0.87300003 2.3509886e-38
-0.062087577 0.11727433 0.87433338 2.3509886e-38
-0.057953801 0.11769512 0.8736667 2.3509886e-38
-0.054422002 0.11804025 0.87433338 2.3509886e-38
-0.049860414 0.11813083 0.875 2.3509886e-38
-0.045919798 0.11786081 0.87300003 2.3509886e-38
0.023233129 0.11769514 0.8736667 2.155275e-38
0.025805851 0.11829594 0.87433338 2.3215166e-38
-0.055869088 0.12015681 0.87300003 2.3509886e-38
-0.04974645 0.12015681 0.87300003 2.3509886e-38
-0.046685129 0.12015681 0.87300003 2.3509886e-38
0.026296785 0.12075879 0.8736667 2.3028982e-38
0.029568387 0.12210441 0.87379998 2.3305227e-38
0.030995861 0.12589678 0.87300003 2.2476539e-38
0.031378526 0.13010609 0.87300003 2.1925184e-38
0.032984581 0.13117124 0.875 2.1740431e-38
0.03137853 0.13393275 0.87300003 2.267178e-38
0.032934319 0.13403386 0.8736667 2.3134933e-38
-0.058298331 0.13884208 0.875 5.5173044e-40
-0.054381095 0.13863051 0.8736667 1.5651593e-39
-0.049363784 0.13814205 0.87300003 1.2801432e-38
-0.046685129 0.13852473 0.87300003 1.5749528e-38
0.030613197 0.13775939 0.87300003 2.3509886e-38
0.033694241 0.13783786 0.87349999 2.3509886e-38
0.036564305 0.1383307 0.875 2.3509886e-38
0.041422501 0.13884208 0.875 3.3277167e-39
-0.052928749 0.14037624 0.875 2.1169262e-39
-0.049246747 0.14129674 0.875 1.0314312e-38
-0.0463292 0.14166802 0.87349999 1.1697954e-38
0.03546029 0.1405656 0.87300003 2.3509886e-38
0.038288854 0.14090094 0.87349999 2.3509886e-38
0.042189583 0.14037624 0.875 7.1948983e-39
0.046025001 0.14037624 0.875 1.7531491e-39
-0.045154467 0.14617804 0.87300003 1.3355666e-38
-0.045154467 0.14923935 0.87300003 8.83994e-39
-0.042635515 0.1498647 0.8736667 8.0991142e-39
0.043623809 0.15077001 0.87300003 2.3509886e-38
0.045919798 0.15077001 0.87300003 2.3509886e-38
0.048981119 0.14923935 0.87300003 1.3378125e-38
-0.042166349 0.15409477 0.87450004 8.7480975e-39
-0.03903183 0.155362 0.87300003 4.7815443e-39
0.026786549 0.155362 0.87300003 2.1122164e-39
0.028317211 0.155362 0.87300003 2.4795584e-39
0.043623809 0.155362 0.87300003 2.3509886e-38
0.045919798 0.15383133 0.87300009 2.3509886e-38
0.048215788 0.15459666 0.87300003 2.3509886e-38
0.053573102 0.155362 0.87300003 1.7519717e-38
-0.041399267 0.15792842 0.87450004 8.1996125e-39
-0.03903183 0.15689266 0.87300003 2.7550649e-39
0.02602122 0.15689266 0.87300003 6.4439312e-39
0.03024675 0.1581305 0.87349999 1.8367099e-39
0.032909188 0.15918863 0.87300003 1.2153617e-38
0.055869088 0.15995397 0.87300003 2.3509886e-38
-0.042189583 0.16032042 0.875 8.8428267e-39
0.033929627 0.16199486 0.87300003 7.5459362e-39
0.055869088 0.16148463 0.87300003 2.3509886e-38
0.057399746 0.16224995 0.87300003 2.1758169e-38
-0.034491282 0.16582003 0.87433338 9.7622635e-39
-0.030168382 0.1670718 0.87340003 1.2895425e-38
0.02372523 0.16454595 0.87300003 1.0591284e-38
0.034439847 0.16454595 0.87300003 6.3517174e-39
0.058930408 0.16531128 0.87300003 2.3326215e-38
0.06059958 0.16722415 0.875 1.8163261e-38
-0.029149165 0.16952541 0.875 1.326709e-38
-0.026847916 0.17105958 0.875 1.3632276e-38
0.06275706 0.16913792 0.87300003 1.1067831e-38
-0.025682826 0.17364573 0.87450004 1.234264e-38
-0.022219993 0.174696 0.87400007 1.1237703e-38
-0.019133249 0.17526057 0.87300003 1.1331316e-38
-0.017623629 0.17775996 0.87400007 1.289833e-38
-0.013775939 0.1783219 0.87300003 1.197494e-38
-0.0099492893 0.17934233 0.87300003 1.4737554e-38
-0.0061226399 0.17985255 0.87300003 1.3633733e-38
-0.0038266501 0.17985255 0.87300003 1.1238785e-38
0.0030613199 0.17985255 0.87300003 1.5751712e-38
0.010331955 0.17793924 0.87300003 1.3727013e-38
0.013791719 0.17776082 0.87400007 1.0038779e-38
0.016620139 0.17770764 0.875 8.747736e-39
0.042882591 0.17842403 0.87349999 8.3829542e-39
-0.016108749 0.18026458 0.875 9.6686063e-39
-0.0138075 0.18026458 0.875 1.1144125e-38
-0.0099618556 0.18184611 0.87400007 1.3629053e-38
-0.0061257086 0.18225329 0.87349999 1.2894741e-38
-0.0022986198 0.18235806 0.87400001 1.0686341e-38
0.001993014 0.18224619 0.87420005 1.381665e-38
0.0061366665 0.18103166 0.875 1.529362e-38
0.0084379166 0.18026458 0.875 1.0961879e-38
0.042906694 0.18235718 0.87400001 8.9404552e-39
0.043623809 0.18520987 0.87300003 9.4017864e-39
-0.030042781 0.099368416 0.87866676 2.3497526e-38
-0.026170254 0.099293016 0.87800002 2.3497191e-38
-0.022354415 0.099443808 0.87933338 2.3495374e-38
-0.017229423 0.098490581 0.88000005 2.3494299e-38
-0.013870913 0.097863764 0.87900007 2.3496094e-38
-0.010016403 0.097851381 0.87888896 2.3122637e-38
-0.0061623822 0.097826652 0.87866676 2.3497174e-38
-0.0023118674 0.097901262 0.87933338 2.312225e-38
0.00138864 0.098284855 0.88000005 2.3497186e-38
-0.03621773 0.10325818 0.87900001 2.321373e-38
-0.034150258 0.10142215 0.87866676 2.3492466e-38
-0.030018819 0.10083245 0.87800002 2.3492825e-38
-0.026939968 0.10083245 0.87800002 2.3489253e-38
-0.02078226 0.10160216 0.87800002 2.34932e-38
-0.019242832 0.10160216 0.87800002 2.3488516e-38
-0.00076971331 0.10083245 0.87800002 2.3491782e-38
0.0026961884 0.10127473 0.87850004 2.3491394e-38
0.0063204155 0.1022025 0.8792001 2.3396337e-38
0.0094080362 0.10255772 0.87960005 2.3398139e-38
0.0138864 0.10260506 0.88 2.3214486e-38
-0.041659199 0.10723386 0.88 2.1001773e-38
-0.0385295 0.10556995 0.87900001 2.2475084e-38
0.010939748 0.10523752 0.87880003 2.3495002e-38
0.013865361 0.10552963 0.87866676 2.3493579e-38
0.017512292 0.10606214 0.87942868 2.2844602e-38
0.020829599 0.10723386 0.88 2.2662349e-38
-0.045849666 0.11057834 0.87900001 2.3309953e-38
-0.042350888 0.10934049 0.87833345 2.1648234e-38
0.0115457 0.10852958 0.87800002 2.3491767e-38
0.013854841 0.10852958 0.87800002 2.3492137e-38
0.018216548 0.10955586 0.87800014 2.339994e-38
0.02191817 0.11046802 0.87942863 2.2291806e-38
0.025458397 0.11186266 0.88 2.137126e-38
-0.054002665 0.11494853 0.88 2.3509886e-38
-0.05044559 0.11436686 0.87849998 2.3509886e-38
-0.0461828 0.11314786 0.87800002 2.3509877e-38
0.023118578 0.11404732 0.87900007 2.330595e-38
0.026229864 0.11417706 0.88 2.2015559e-38
-0.070043914 0.11776613 0.87800002 2.3509886e-38
-0.065425634 0.11776613 0.87800002 2.3509886e-38
-0.062346783 0.11622671 0.87800002 2.3509886e-38
-0.056189071 0.11622671 0.87800002 2.3509886e-38
0.023861112 0.11622671 0.87800002 2.3494254e-38
0.026466567 0.11691636 0.87933338 2.256876e-38
0.028897561 0.11828512 0.87900007 2.2569836e-38
0.030824475 0.12175409 0.87900001 2.3029732e-38
0.033097673 0.1270027 0.87800002 2.3029343e-38
0.033906836 0.13023058 0.87900001 2.2201412e-38
0.034715999 0.1342352 0.88 2.1936816e-38
0.034637101 0.13623926 0.87800002 2.3509886e-38
0.03812141 0.13785627 0.87849998 1.9729507e-38
0.040794805 0.13777868 0.87800002 8.9399703e-39
-0.056958783 0.14085755 0.87800002 2.3942179e-39
-0.054136507 0.14188384 0.87800002 1.8381813e-39
-0.050583668 0.14301823 0.87866676 9.388809e-39
-0.045413088 0.15163352 0.87800002 8.3825576e-39
-0.04387366 0.15163352 0.87800002 6.2616994e-39
-0.045413088 0.15317294 0.87800002 9.3027286e-39
-0.04387366 0.15317294 0.87800002 8.6573592e-39
-0.043103948 0.1562518 0.87800002 9.303086e-39
0.026939968 0.15933065 0.87800002 6.6297336e-39
0.029249106 0.15933065 0.87800002 1.6552123e-39
0.027001331 0.16123652 0.88 6.9977931e-39
-0.033097673 0.16856721 0.87800002 1.0499457e-38
-0.030018818 0.17087635 0.87800002 1.2989052e-38
0.062346783 0.16856721 0.87800002 1.3926973e-38
-0.029036954 0.17344849 0.87933338 1.2528088e-38
-0.026939968 0.17472492 0.87800002 1.1051196e-38
-0.026200058 0.17800719 0.87900007 1.1144822e-38
-0.022347111 0.17877775 0.87900007 1.2898309e-38
-0.019242832 0.17934321 0.87800002 1.3912495e-38
0.017703407 0.17934321 0.87800002 1.058769e-38
-0.022372534 0.18129466 0.88 1.0959332e-38
-0.018028826 0.1819718 0.87880003 9.9448316e-39
-0.01359827 0.18293521 0.87800002 1.068276e-38
-0.0115457 0.18396148 0.87800002 1.1046129e-38
0.0038485669 0.18396148 0.87800002 1.5750935e-38
0.0061577065 0.18396148 0.87800002 1.6028992e-38
0.010006274 0.18242207 0.87800014 1.013246e-38
0.0138864 0.18206613 0.88 8.6566053e-39
0.016972266 0.18206613 0.88 9.20658e-39
0.041564517 0.18242206 0.87800002 8.8479022e-39
-0.016200799 0.18438052 0.88 1.0959348e-38
-0.014657865 0.18438052 0.88 1.0774246e-38
-0.010017671 0.18648365 0.87900007 1.0683441e-38
-0.0061647198 0.18648365 0.87900001 1.0774566e-38
-0.0023091401 0.18627062 0.87800014 1.3907789e-38
0.0023106011 0.18634163 0.87833345 1.4554941e-38
0.0061647198 0.18648365 0.87900007 1.4184736e-38
0.010249485 0.18636431 0.88000011 1.1605065e-38
0.013114933 0.18438052 0.88 1.0222877e-38
0.041821089 0.18601406 0.87800002 9.4025025e-39
-0.010029066 0.18900934 0.88 1.2159334e-38
-0.0061717331 0.18900932 0.88 1.1330272e-38
-0.0023143999 0.1897808 0.88000005 1.2064593e-38
0.0019286666 0.18939507 0.88 1.3170206e-38
0.0061717331 0.18900932 0.88 1.0317546e-38
0.0084861331 0.18900932 0.88 1.1608654e-38
0.042334232 0.18934947 0.87800002 9.1248478e-39
-0.01623762 0.095106058 0.88200003 2.3500746e-38
-0.01391796 0.095106058 0.88200003 2.3497558e-38
-0.0096652498 0.094719447 0.88200003 2.3498602e-38
-0.0064435001 0.094590575 0.88200009 2.3498972e-38
-0.00231966 0.095106058 0.88200009 2.3400989e-38
0.00077321997 0.095106058 0.88200003 2.3501846e-38
-0.033248462 0.099745385 0.88200003 2.3497512e-38
-0.02551626 0.098198935 0.88200003 2.3497909e-38
-0.022423383 0.098198935 0.88200009 2.3496833e-38
-0.018815022 0.097167969 0.88200009 2.3494282e-38
0.0034794901 0.097812325 0.88200003 2.3497893e-38
0.0061857598 0.099745385 0.88200003 2.3496095e-38
0.01005186 0.099745385 0.88200009 2.3495011e-38
0.010825081 0.10129182 0.88200003 2.3491411e-38
0.01391796 0.10129182 0.88200003 2.3397422e-38
0.0167531 0.10232278 0.88200009 2.1553136e-38
0.01855728 0.10438471 0.88200003 2.1554931e-38
0.02165016 0.10670436 0.88200003 2.1372324e-38
0.02396982 0.10979724 0.88200003 2.21085e-38
0.02551626 0.11057046 0.88200003 2.1739362e-38
-0.057991501 0.11520978 0.88200009 2.3509886e-38
0.027062699 0.1121169 0.88200003 2.220138e-38
0.028609142 0.11443655 0.88200003 2.2017724e-38
0.03015558 0.11830265 0.88200003 2.2109939e-38
0.031702019 0.12139554 0.88200003 2.2477649e-38
0.033248462 0.12216876 0.88200003 1.9804331e-38
0.033248462 0.12448841 0.88200003 2.0450401e-38
0.037887782 0.13685994 0.88200003 1.7795577e-38
-0.051805738 0.14459214 0.88200003 3.7667267e-39
0.028609142 0.16160299 0.88200003 7.089665e-39
-0.034794901 0.16933517 0.88200003 1.022323e-38
-0.03067106 0.1739745 0.88200009 1.1328479e-38
-0.028609142 0.17784059 0.88200003 1.0499792e-38
-0.02628948 0.18093348 0.88200003 1.1144811e-38
-0.022423379 0.18325314 0.88200009 1.1051524e-38
-0.017474771 0.18603674 0.88200009 1.1329197e-38
-0.01391796 0.18711925 0.88200003 1.1051534e-38
0.01314474 0.18711925 0.88200003 1.1234119e-38
-0.0054125399 0.19098534 0.88200003 1.1512887e-38
0.0030928801 0.19098534 0.88200003 1.2155701e-38
0.0061857598 0.19098534 0.88200003 1.2619554e-38
0.01005186 0.1899544 0.88200009 1.1791234e-38
-0.01632967 0.090979584 0.88700002 2.3500772e-38
-0.014774463 0.090979584 0.88700002 2.3500395e-38
-0.025123805 0.094536513 0.88633341 2.3497883e-38
-0.021918247 0.094357908 0.88660002 2.349931e-38
-0.017868096 0.093998574 0.88614291 2.3497879e-38
-0.01398108 0.093206316 0.88600004 2.3496799e-38
-0.010410066 0.09307202 0.88619995 2.3500048e-38
-0.0059575345 0.092982486 0.88633335 2.3495392e-38
-0.0020186126 0.093340628 0.8858 2.3491729e-38
0.0023298045 0.093967766 0.88585722 2.3501848e-38
0.0062208269 0.095645212 0.88700002 2.349717e-38
0.0085536363 0.095645212 0.88700002 2.3493949e-38
-0.034214549 0.09875562 0.88700002 2.349609e-38
-0.029921509 0.098311149 0.8865 2.3496813e-38
-0.025990974 0.097369164 0.88499999 2.349718e-38
-0.021723799 0.096981242 0.88499999 2.3494637e-38
0.0062107448 0.097811893 0.88550001 2.3495375e-38
0.010108843 0.097978018 0.88700002 2.3493929e-38
0.01399686 0.09875562 0.88700002 2.3494284e-38
-0.037009653 0.10171174 0.88566673 2.3215179e-38
-0.034913249 0.10008465 0.88499999 2.3495378e-38
0.013965299 0.10008465 0.88499999 2.3495368e-38
0.01817172 0.10141718 0.8858 2.2754575e-38
0.020995291 0.10342124 0.88700002 2.1922622e-38
-0.044223446 0.10784315 0.88499999 2.1650399e-38
-0.041944116 0.10641155 0.88600004 2.1460973e-38
-0.039657768 0.10497645 0.88700002 2.2568357e-38
0.021999365 0.10533588 0.88566673 2.054252e-38
0.024051348 0.10784315 0.88499999 2.1464884e-38
0.026438512 0.11041968 0.88700002 2.1923739e-38
0.062985867 0.11119728 0.88700002 2.2390514e-38
0.066096291 0.11119728 0.88700002 1.6125914e-38
-0.061292149 0.11560165 0.88499999 2.3509881e-38
-0.056765042 0.11430769 0.88700002 2.3504778e-38
-0.054432232 0.11430769 0.88700002 2.3509844e-38
0.028706448 0.11249825 0.88499999 2.2293961e-38
0.059357058 0.11534449 0.88700002 2.293789e-38
0.062363785 0.11461873 0.88700002 2.1741893e-38
0.066096283 0.11430769 0.88700002 1.6217383e-38
0.069206692 0.11353008 0.88700002 7.2809338e-39
-0.065318681 0.1174181 0.88700002 2.3509886e-38
0.031809848 0.11870504 0.88499999 2.1466373e-38
0.034176849 0.11883917 0.88600004 1.9990498e-38
0.05832025 0.11819571 0.88700002 2.2658761e-38
0.062208265 0.1181957 0.88700002 2.1558213e-38
0.066096283 0.11819571 0.88700002 1.548235e-38
0.031809848 0.12025674 0.88499999 2.201991e-38
0.034563899 0.1215564 0.88600004 1.9896476e-38
0.036506154 0.12272368 0.88600004 2.3214402e-38
0.054432232 0.12363893 0.88700002 1.9985851e-38
0.058320258 0.12208372 0.88700002 1.9615943e-38
0.062114172 0.12189963 0.88566673 2.1463129e-38
0.065980762 0.12186883 0.88544452 1.723009e-38
0.069984302 0.12286133 0.88700002 8.9390062e-39
0.03444862 0.12613568 0.88633335 2.2014826e-38
0.036547359 0.12519413 0.88700002 2.3303752e-38
0.053654633 0.12597173 0.88700002 2.0908878e-38
0.058320254 0.12597173 0.88700002 1.9803619e-38
0.062067997 0.12568769 0.88499999 1.7963717e-38
0.065695815 0.12564684 0.8858 1.354373e-38
0.034992151 0.12908214 0.88700002 2.3120829e-38
0.03693616 0.13024855 0.88700002 2.2568376e-38
0.051023461 0.13079779 0.88633335 1.9341903e-38
0.053818345 0.12959127 0.8865 1.9155017e-38
0.058276415 0.12976098 0.88633335 1.5658817e-38
0.061940532 0.12931587 0.8854 1.1331034e-38
0.064541079 0.12830456 0.88700002 1.2438126e-38
0.037269436 0.13432257 0.88566673 1.6121195e-38
0.046915404 0.13400698 0.88700002 1.9987264e-38
0.050651826 0.13410348 0.88550007 1.7409045e-38
0.054309499 0.13422206 0.88500011 1.2616694e-38
0.058005147 0.13386537 0.88557154 1.1517212e-38
0.061292149 0.13267034 0.88499999 8.9382495e-39
0.039613057 0.13670301 0.88600004 1.308813e-38
0.041943237 0.13747974 0.88600004 1.3079095e-38
0.045878597 0.1376358 0.88700002 1.3076588e-38
0.050255913 0.1379018 0.88585722 1.1142315e-38
0.054309495 0.13810129 0.88499999 7.8344467e-39
0.057867453 0.13709094 0.88600004 9.0304858e-39
0.045878597 0.14074621 0.88700002 3.0370286e-39
0.050485477 0.14058751 0.88600004 6.8138194e-39
0.054309495 0.14042884 0.88499999 8.2025216e-39
0.0263789 0.16370435 0.88499999 9.4870681e-39
0.030258149 0.16215263 0.88499999 2.4799171e-39
0.03032653 0.16407429 0.88700002 6.8148606e-39
-0.034176849 0.17165658 0.88600004 1.0499089e-38
-0.034195699 0.17408539 0.88650006 9.7607907e-39
-0.031809848 0.17456624 0.88499999 1.1234801e-38
-0.034214549 0.17651595 0.88700002 1.0868905e-38
-0.031051971 0.17777002 0.88550001 9.4863646e-39
-0.029516488 0.18175402 0.88599998 1.0316121e-38
-0.026637517 0.18335921 0.88499999 1.1330288e-38
0.019396249 0.18232475 0.88499999 9.763313e-39
-0.028771322 0.18506959 0.88700002 1.1606491e-38
-0.025316555 0.18621714 0.8858 1.1606528e-38
-0.021723799 0.18620399 0.88499999 1.1329575e-38
-0.019396249 0.18697985 0.88499999 1.1514332e-38
0.01474115 0.18620399 0.88499999 1.1511444e-38
0.016292848 0.18542814 0.88499999 1.0682757e-38
-0.020995291 0.1889576 0.88700002 1.1513966e-38
-0.017863836 0.18952218 0.88600004 1.1790176e-38
-0.013981957 0.19029802 0.88600004 1.1699039e-38
-0.010086049 0.19163494 0.88499999 1.1422474e-38
-0.0069826497 0.19163494 0.88499999 1.0868189e-38
0.0108619 0.19163494 0.88499999 1.0499048e-38
0.014235022 0.18970919 0.88566673 1.151144e-38
-0.01632967 0.19206803 0.88700002 1.2621408e-38
-0.013737659 0.19258642 0.88700002 1.3911741e-38
-0.010108843 0.19440083 0.88700002 1.3728077e-38
-0.0062208269 0.19440083 0.88700002 1.2435518e-38
-0.0026438513 0.19424532 0.88700002 1.2435173e-38
0.0023298878 0.19347769 0.88633341 1.1696187e-38
0.0062067993 0.19318663 0.88499999 1.4096135e-38
0.0093312394 0.19362323 0.88700002 1.151466e-38
0.013219257 0.19206803 0.88700002 9.7604544e-39
-0.0093312394 0.19673364 0.88700002 1.630415e-38
-0.024697743 0.090732366 0.88966668 2.3499676e-38
-0.021846533 0.090506189 0.88999999 2.3500048e-38
-0.017938646 0.089952432 0.88966668 2.350149e-38
-0.014044199 0.089725956 0.88999999 2.3503287e-38
-0.010143033 0.090506189 0.89000005 2.3498252e-38
-0.0062449351 0.090557471 0.89050001 2.3496481e-38
-0.0020294834 0.090682924 0.89019996 2.349175e-38
0.0019523366 0.090948023 0.89050001 2.3498619e-38
0.0062488797 0.091389857 0.89099997 2.3497543e-38
-0.028836196 0.095860869 0.889 2.3497151e-38
-0.026778368 0.093332574 0.88966668 2.3496463e-38
-0.02104263 0.092743441 0.889 2.350079e-38
-0.019483916 0.092743441 0.889 2.3498989e-38
-0.0038967833 0.092743441 0.889 2.3490717e-38
0.0038967833 0.092743441 0.889 2.3501123e-38
0.0062418664 0.093627125 0.88999999 2.350042e-38
0.010143033 0.094667435 0.88999999 2.3498259e-38
0.013278869 0.094514303 0.89099997 2.3497519e-38
-0.036712166 0.099200964 0.89099997 2.3493223e-38
-0.032025509 0.097638749 0.89099997 2.3491761e-38
-0.030429099 0.096748054 0.88999999 2.3493916e-38
0.014044199 0.096748047 0.88999999 2.3493921e-38
0.017750526 0.097723119 0.88999993 2.3495737e-38
0.02159493 0.098606005 0.89033335 2.3217e-38
-0.042179935 0.1023254 0.89099997 2.0545879e-38
-0.039194535 0.10196703 0.89060003 2.2938615e-38
0.019483916 0.100537 0.889 2.3495762e-38
0.021988027 0.10182921 0.88940001 2.3122996e-38
0.024214407 0.10310651 0.89099997 2.3121181e-38
-0.044523265 0.10701206 0.89099997 2.109578e-38
-0.042133473 0.1053315 0.88999999 2.1557134e-38
0.024968341 0.10611173 0.88999999 2.1740364e-38
0.026557738 0.10935539 0.89099997 2.1370555e-38
0.028868632 0.11079225 0.88999999 2.2107416e-38
0.058583245 0.11169872 0.89099997 2.3394898e-38
0.060858198 0.11079225 0.88999999 2.2939696e-38
-0.060926575 0.11482316 0.89099997 2.3495435e-38
-0.058583245 0.11482316 0.89099997 2.3503697e-38
0.030463289 0.11482316 0.89099997 2.2571248e-38
0.055458806 0.11482316 0.89099997 2.3487028e-38
0.057976007 0.1141306 0.88966668 2.3396683e-38
0.06078982 0.11300671 0.889 2.2016651e-38
-0.072643228 0.11872871 0.89099997 2.3509886e-38
-0.071081005 0.11794761 0.89099997 2.3509886e-38
-0.066394344 0.11690613 0.89099997 2.3133878e-38
-0.063269906 0.11638539 0.89099997 2.3509147e-38
0.030937275 0.11725037 0.88966668 2.2202848e-38
0.0335363 0.11725037 0.88966668 2.0084511e-38
0.054030061 0.11801007 0.88999993 2.182902e-38
0.056893036 0.11612414 0.889 2.3488894e-38
0.070142098 0.11768286 0.88900006 8.1106917e-39
0.053569719 0.12195247 0.88928574 1.9800719e-38
0.070142105 0.12080028 0.889 8.5709496e-39
0.038232312 0.12678747 0.88999999 2.3306667e-38
0.042179935 0.12732093 0.89099997 2.201521e-38
0.045304377 0.12732093 0.89099997 2.2287837e-38
0.05007958 0.12590037 0.88980001 2.2199617e-38
0.03901254 0.12951872 0.88999999 2.3028285e-38
0.042179935 0.12966424 0.89099997 2.2568013e-38
0.046027236 0.13028191 0.88988888 2.191943e-38
