# .PCD v0.7 - Point Cloud Data file format
VERSION 0.7
FIELDS x y z rgb
SIZE 4 4 4 4
TYPE F F F F
COUNT 1 1 1 1
WIDTH 1012
HEIGHT 1
VIEWPOINT 0 0 0 1 0 0 0
POINTS 1012
DATA ascii
-0.098311156 0.16663973 0.79533333 2.3509886e-38
-0.094371662 0.16632146 0.79571432 2.3509886e-38
-0.090950072 0.16631536 0.796 2.3509886e-38
-0.10528358 0.16942869 0.79533339 1.4650411e-38
-0.10249519 0.16873203 0.79533339 2.230772e-38
-0.098146342 0.16914581 0.79400003 2.3509886e-38
-0.093506575 0.16959949 0.79450005 2.3509886e-38
-0.090063326 0.16992287 0.79527277 2.2863797e-38
-0.089690022 0.17390712 0.7948572 1.7606128e-38
-0.087228328 0.17375883 0.796 1.0691464e-38
-0.089867689 0.17764774 0.79466677 8.7499304e-39
-0.086763106 0.17701536 0.796 5.7049215e-39
-0.090489537 0.180283 0.79400003 4.413489e-39
-0.098186664 0.16341066 0.80000001 2.3509886e-38
-0.1014391 0.16510087 0.79799998 2.0921885e-38
-0.09794119 0.16440129 0.79799998 2.3509886e-38
-0.094599925 0.164676 0.79933333 2.3509886e-38
-0.090101697 0.16576855 0.7992 2.3509886e-38
-0.087666661 0.16761866 0.80000001 2.3048907e-38
-0.086143017 0.17018691 0.79888892 1.8254012e-38
-0.082757331 0.17112534 0.80000001 9.7712976e-39
-0.085573539 0.17408951 0.79879999 9.6769258e-39
-0.083458669 0.17322934 0.80000001 9.3092153e-39
-0.084861331 0.17603466 0.80000001 8.196681e-39
-0.10054138 0.1631161 0.80199999 1.7233069e-38
-0.097545318 0.16203992 0.80214286 2.3509161e-38
-0.09377829 0.16293025 0.80257148 2.3509886e-38
-0.090754718 0.16321735 0.80250001 2.3509886e-38
-0.10207468 0.16402344 0.80299997 1.9619154e-38
-0.089347668 0.16462439 0.80250001 2.3509886e-38
-0.086958699 0.16557315 0.80271429 2.3141103e-38
-0.085776567 0.1680377 0.80199999 2.1111352e-38
-0.082133017 0.16919252 0.80271429 1.2812304e-38
-0.079547852 0.17106308 0.80299997 9.4964834e-39
-0.092104346 0.18350561 0.80199999 5.0613555e-39
-0.098094612 0.16019768 0.80500001 2.2398478e-38
-0.093670599 0.16092145 0.80579996 2.3509886e-38
-0.089737348 0.16204453 0.80600011 2.3509886e-38
-0.085903674 0.16297057 0.80649996 2.3509527e-38
-0.082773983 0.16342555 0.80699998 2.1756371e-38
-0.085391715 0.16513769 0.80500001 2.2587924e-38
-0.082613647 0.16593458 0.80544442 2.0003571e-38
-0.079944104 0.16767038 0.80699998 1.3087098e-38
-0.079275511 0.16960725 0.80500001 9.8609695e-39
-0.098034129 0.1584163 0.81033337 2.0553489e-38
-0.094663098 0.15878499 0.81014282 2.341733e-38
-0.090218648 0.15983824 0.81033337 2.3509886e-38
-0.086028181 0.15996973 0.81100005 2.3509886e-38
-0.089362144 0.1609937 0.80900002 2.3509886e-38
-0.085616492 0.16172026 0.80979997 2.3509886e-38
-0.082371593 0.16261201 0.80999994 2.230954e-38
-0.080241293 0.16616252 0.81 1.5947323e-38
-0.093311526 0.15732923 0.815 2.3509886e-38
-0.090389878 0.15818165 0.81400001 2.3509886e-38
-0.086452484 0.15932977 0.815 2.3509886e-38
-0.081621468 0.16157931 0.81433338 2.2493936e-38
-0.080538489 0.16464064 0.81300002 1.9358196e-38
-0.093826994 0.15542337 0.81700003 2.3042038e-38
-0.089529574 0.15542337 0.81700003 2.3509886e-38
-0.085948393 0.15542336 0.81699997 2.3509886e-38
-0.096691944 0.15685581 0.81699997 2.2857637e-38
-0.095259465 0.15685581 0.81699997 2.3509876e-38
-0.088574603 0.1573333 0.81700003 2.3509886e-38
-0.085948393 0.15757205 0.81699997 2.3509886e-38
-0.083150662 0.15841687 0.81766671 2.3509525e-38
-0.076731123 0.15919828 0.81799996 2.249286e-38
-0.07448861 0.15900452 0.81699997 1.4373865e-38
-0.081132866 0.16011177 0.81900001 2.3508448e-38
-0.078152202 0.16173109 0.81785709 2.1294667e-38
-0.07448861 0.16186948 0.81699997 1.7509608e-38
-0.078069799 0.16545065 0.81699997 1.7052952e-38
-0.07448861 0.16545065 0.81700003 1.7602514e-38
-0.077985413 0.16977768 0.81799996 1.1981829e-38
-0.074910283 0.16920631 0.81900001 1.6497967e-38
-0.080708563 0.15925701 0.82200003 2.3509886e-38
-0.078452021 0.15906326 0.82099998 2.3508445e-38
-0.079891503 0.16050275 0.82099998 2.3508434e-38
-0.080086127 0.1724377 0.82300001 9.954261e-39
-0.080280744 0.15839174 0.82499999 2.3509886e-38
-0.078110993 0.15839174 0.82499999 2.1756397e-38
-0.08017204 0.14784017 0.83899999 1.9625362e-38
-0.077965468 0.14784017 0.83899999 1.9810127e-38
-0.080907561 0.15004675 0.83899999 2.0085633e-38
-0.077965468 0.15004675 0.83899999 2.0456225e-38
-0.075758897 0.15004675 0.83899999 1.8704857e-38
-0.08017204 0.15298885 0.83899999 1.6861639e-38
-0.078210644 0.15274368 0.83899999 1.7967641e-38
-0.082378611 0.15887302 0.83899999 2.3049273e-38
-0.083114132 0.1610796 0.83899999 2.3509886e-38
-0.080363154 0.14376895 0.84100002 2.2295774e-38
-0.077545047 0.14253511 0.84242862 2.0544063e-38
-0.074581832 0.14301151 0.84233332 2.0081259e-38
-0.071685903 0.14263278 0.84299999 2.2568027e-38
-0.085357957 0.14595842 0.84299999 2.0082708e-38
-0.082095891 0.14555645 0.84175003 2.2204662e-38
-0.078151323 0.14598078 0.84100002 2.1374921e-38
-0.074367844 0.14560008 0.84200001 2.0360394e-38
-0.071685903 0.1455889 0.84300005 2.0360033e-38
-0.085206747 0.14938661 0.84150004 1.6120444e-38
-0.082943626 0.14929852 0.84100002 1.9716093e-38
-0.074043654 0.1494565 0.84100002 1.6766924e-38
-0.071515843 0.14966714 0.84100002 1.805547e-38
-0.084988445 0.1529792 0.84299999 1.8334651e-38
-0.082259022 0.15430148 0.84100002 1.6219536e-38
-0.077905566 0.15507385 0.84100002 1.4836613e-38
-0.07454247 0.15425406 0.8418889 1.3450758e-38
-0.071685903 0.15371823 0.84299999 1.7320066e-38
-0.084786817 0.15851448 0.84100002 2.268229e-38
-0.081247889 0.15792467 0.84100002 1.3097553e-38
-0.077643514 0.15842398 0.84150004 9.6779473e-39
-0.073902994 0.15815242 0.84299999 1.3077294e-38
-0.076120086 0.1603695 0.84299999 1.0496151e-38
-0.074642025 0.1603695 0.84299999 1.3630418e-38
-0.077223808 0.13885435 0.847 2.1831902e-38
-0.092817083 0.14330956 0.847 2.3496154e-38
-0.089549921 0.14271554 0.84700006 2.2112825e-38
-0.086032562 0.14239785 0.84600002 2.3312431e-38
-0.082324266 0.14239785 0.84600008 2.3128793e-38
-0.077903807 0.14072284 0.84633338 2.1371647e-38
-0.074384294 0.14110623 0.84566677 2.0815969e-38
-0.09281709 0.14627972 0.847 1.658146e-38
-0.089753427 0.14612545 0.84611118 1.7779273e-38
-0.08667165 0.14519353 0.84500003 1.9068208e-38
-0.092817083 0.14924985 0.847 1.4186911e-38
-0.089423507 0.14953302 0.84650004 1.3540394e-38
-0.08667165 0.1511198 0.84500003 1.5569453e-38
-0.088361859 0.15296254 0.847 1.4831937e-38
-0.086246178 0.15445203 0.84566677 1.7414169e-38
-0.086033434 0.15649025 0.84600002 2.0003573e-38
-0.071855985 0.15704606 0.84500003 1.7778218e-38
-0.085683942 0.18247962 0.84500003 9.6790852e-39
-0.088361859 0.18489163 0.847 9.2177077e-39
-0.086134255 0.18489163 0.847 1.1336423e-38
-0.089740857 0.13889205 0.8495 2.3408617e-38
-0.085593343 0.13769364 0.84899998 2.1558208e-38
-0.081871897 0.13769364 0.84899998 2.2017005e-38
-0.079266742 0.13840608 0.85033339 2.2385083e-38
-0.094102859 0.14276722 0.84966671 2.2297243e-38
-0.090431228 0.14104295 0.84899998 2.3501191e-38
-0.085593343 0.14067081 0.84899998 2.23923e-38
-0.081871897 0.14067081 0.84899998 2.2756416e-38
-0.079639025 0.14067081 0.84899998 2.1741881e-38
-0.094524823 0.14588082 0.84899998 2.0454057e-38
-0.096239582 0.14920866 0.85100001 2.0910635e-38
-0.094208345 0.1500634 0.8495 1.7688896e-38
-0.09080337 0.15109086 0.84899998 1.2713579e-38
-0.093752787 0.15343624 0.85100001 1.4367719e-38
-0.090576321 0.15443723 0.84985709 1.3724468e-38
-0.08942087 0.15797533 0.85000002 2.3230753e-38
-0.087081924 0.15853375 0.84899998 2.3509886e-38
-0.088779159 0.1603993 0.85100001 2.3509886e-38
-0.087081924 0.16076663 0.84899998 2.3509886e-38
-0.084302895 0.18278061 0.85100001 9.4046605e-39
-0.088570505 0.18681678 0.84899998 9.0264767e-39
-0.085157119 0.18627362 0.85060006 1.2255152e-38
-0.089419998 0.18927321 0.85000002 8.745194e-39
-0.085794985 0.18949501 0.85100001 1.105225e-38
-0.097701862 0.15085767 0.85399997 1.7591614e-38
-0.097555459 0.15383746 0.85600001 1.7407239e-38
-0.095081508 0.15497537 0.85399997 1.2613474e-38
-0.09344478 0.15815505 0.85500002 1.8885982e-38
-0.092302479 0.16134173 0.85600001 2.3509886e-38
-0.090589471 0.16096476 0.85399997 2.3509886e-38
-0.081560686 0.18243389 0.85550004 1.2258043e-38
-0.078794792 0.18235368 0.85600007 1.4928831e-38
-0.081839457 0.1863412 0.8545 1.2438465e-38
-0.078794792 0.18535538 0.85600001 1.197715e-38
-0.092302479 0.19135879 0.85600001 7.4552091e-39
-0.081499189 0.19009615 0.85514289 1.0776033e-38
-0.078794792 0.18910751 0.85600001 1.2618503e-38
-0.093052901 0.19361007 0.85600001 8.1923958e-39
-0.089946002 0.19338477 0.85500002 9.0235872e-39
-0.086198255 0.19338477 0.85500002 9.7607655e-39
-0.082732201 0.19320974 0.85533333 1.0590193e-38
-0.10003994 0.15118816 0.85799998 1.455134e-38
-0.10003994 0.15269253 0.85799998 1.8607938e-38
-0.097031213 0.15570125 0.85799998 1.3348438e-38
-0.09801133 0.15681812 0.86000001 1.4087801e-38
-0.095526852 0.15870997 0.85799998 1.6118996e-38
-0.095099628 0.1613429 0.85866666 2.2305206e-38
-0.11354236 0.17506333 0.86000007 1.5747726e-38
-0.11007427 0.1741586 0.86000001 1.4826479e-38
-0.10781246 0.17265072 0.86000001 1.4647546e-38
-0.076147266 0.17265072 0.86000001 1.8705986e-38
-0.07452251 0.17464136 0.8586666 1.8517931e-38
-0.11375684 0.17779033 0.8593334 1.4643898e-38
-0.11057045 0.17676228 0.85799998 1.2709931e-38
-0.077975988 0.17926955 0.85799998 1.7324854e-38
-0.074465811 0.17826664 0.85799992 1.7134994e-38
-0.071623668 0.17868219 0.86000001 1.8606884e-38
-0.11444707 0.18109478 0.86000007 1.584352e-38
-0.077474535 0.18202755 0.85799998 1.5296533e-38
-0.074551441 0.18223999 0.85900009 1.3725927e-38
-0.071623668 0.180944 0.86000001 1.5469667e-38
-0.077146411 0.18625134 0.8591429 1.3632302e-38
-0.074262425 0.18584456 0.86000001 1.3262413e-38
-0.077244498 0.1901774 0.85879993 1.1789086e-38
-0.095526852 0.19481461 0.85799998 6.9016696e-39
-0.080984712 0.19431315 0.85799998 1.0682768e-38
-0.078599006 0.19361067 0.8593334 1.1789469e-38
-0.10062029 0.19898114 0.85866666 7.3658525e-39
-0.097768672 0.19840088 0.8592 6.7190678e-39
-0.094095558 0.1979782 0.8586666 7.8236063e-39
-0.089533001 0.19787496 0.85822213 8.9328293e-39
-0.085781537 0.19790077 0.85833329 9.3026922e-39
-0.082114249 0.19813153 0.85933334 1.1329216e-38
-0.079163 0.19828448 0.86000001 1.0408346e-38
-0.10102706 0.2013002 0.86000001 8.1981117e-39
-0.09801133 0.2013002 0.86000001 7.4544818e-39
-0.094241664 0.2013002 0.86000001 8.1942007e-39
-0.089718066 0.2013002 0.86000001 8.2881872e-39
-0.086702332 0.2013002 0.86000001 8.4726022e-39
-0.10050632 0.15491575 0.86199999 1.9801118e-38
-0.097483575 0.15944989 0.86199999 1.3532467e-38
-0.097483575 0.16171694 0.86199999 1.9351273e-38
-0.11410868 0.17355603 0.86199999 1.9065698e-38
-0.11108593 0.17305224 0.86199999 1.7407943e-38
-0.074057281 0.17305224 0.86199999 1.9714296e-38
-0.11713143 0.17758636 0.86199999 1.842466e-38
-0.071286447 0.17758636 0.86199999 1.8051539e-38
-0.11750928 0.18249832 0.86199999 1.7133554e-38
-0.071034551 0.18212047 0.86199999 1.4456965e-38
-0.11788711 0.18589891 0.86199999 1.3540779e-38
-0.11562005 0.18514323 0.86199999 1.4740731e-38
-0.073301598 0.1866546 0.86199999 1.2432272e-38
-0.071790233 0.18514323 0.86199999 1.1876913e-38
-0.074057281 0.18967736 0.86199999 1.2248621e-38
-0.077331923 0.19421147 0.86199999 1.1606494e-38
-0.12544398 0.1979899 0.86199999 8.1898623e-39
-0.12317692 0.19874558 0.86199999 3.5830193e-39
-0.12544398 0.20101264 0.86199999 6.5350395e-39
-0.12317692 0.20025696 0.86199999 2.6632294e-39
-0.101262 0.2032797 0.86199999 8.1037945e-39
-0.098239258 0.2032797 0.86199999 7.0835301e-39
-0.09446083 0.2032797 0.86199999 8.4704288e-39
-0.089926712 0.2032797 0.86199999 8.2874669e-39
-0.085896388 0.20277593 0.86199999 9.1194024e-39
-0.082369842 0.20176832 0.86199999 9.6704224e-39
-0.079347096 0.20176832 0.86199999 9.5775205e-39
-0.101262 0.20479107 0.86199999 6.3513657e-39
-0.098239258 0.20479107 0.86199999 6.7147532e-39
-0.09446083 0.20479107 0.86199999 9.2990993e-39
-0.090682395 0.20479107 0.86199999 8.7470171e-39
-0.099224642 0.15906239 0.86400002 1.3350227e-38
-0.10169736 0.16219893 0.86700004 1.3626829e-38
-0.099224642 0.16209215 0.86400002 1.6120109e-38
-0.10716986 0.16797546 0.86699998 1.8051176e-38
-0.10260944 0.16493517 0.86699998 1.50116e-38
-0.077907167 0.16683535 0.86699998 1.2897973e-38
-0.1162907 0.17025568 0.86699998 2.1374514e-38
-0.113879 0.17081675 0.86600006 2.0264965e-38
-0.11030416 0.17067647 0.86624998 1.7039162e-38
-0.10716986 0.17025568 0.86699998 1.8700482e-38
-0.076501437 0.17193888 0.86400002 1.8058117e-38
-0.074986562 0.17193888 0.86400002 1.9067855e-38
-0.12085112 0.17557615 0.86699998 1.5193783e-38
-0.11772932 0.1739345 0.86639994 2.0264575e-38
-0.11588831 0.17345375 0.86400002 2.054119e-38
-0.10869 0.17253588 0.86699998 1.4553859e-38
-0.07271336 0.1730426 0.86699998 2.100252e-38
-0.070332505 0.1748466 0.86640006 2.0080184e-38
-0.12137554 0.17818776 0.86640006 1.1235216e-38
-0.11891808 0.17799841 0.86400002 1.9343717e-38
-0.069865286 0.17770186 0.86625004 1.8235566e-38
-0.12159594 0.18170828 0.86580002 6.9005892e-39
-0.11891808 0.18178558 0.86400002 1.924793e-38
-0.069485255 0.1818783 0.86625004 1.6484549e-38
-0.12541154 0.18621716 0.86699998 1.1611557e-38
-0.12213778 0.18585859 0.86533332 1.5108486e-38
-0.07026922 0.18578671 0.86500001 1.445986e-38
-0.1256831 0.1906112 0.86625004 1.3167361e-38
-0.12199548 0.1901902 0.86433327 1.4642117e-38
-0.11853936 0.18973872 0.86400002 1.2339712e-38
-0.073471673 0.19163232 0.86400002 1.1881988e-38
-0.071260512 0.18952502 0.86475003 1.3076968e-38
-0.12883186 0.19419788 0.86699998 1.2153191e-38
-0.12597437 0.19358325 0.8646 1.1508166e-38
-0.12194785 0.19390464 0.86400002 7.9147327e-39
-0.076501437 0.19466208 0.86400002 1.1238076e-38
-0.073472433 0.19415636 0.86657149 1.1513603e-38
-0.070686504 0.1922977 0.86699998 1.1697279e-38
-0.12950285 0.19813861 0.865125 1.0036306e-38
-0.12573504 0.19617695 0.86400002 1.1416358e-38
-0.12225081 0.19678292 0.86400002 7.4566384e-39
-0.077320941 0.19854501 0.86640006 1.0684196e-38
-0.074740216 0.19736484 0.86699998 1.0961154e-38
-0.12944664 0.20222199 0.86474997 8.746273e-39
-0.12649249 0.20375136 0.86400002 4.8787607e-39
-0.084075838 0.20375136 0.86400002 9.120473e-39
-0.082560956 0.20223647 0.86400002 9.6711286e-39
-0.078287199 0.2021786 0.86699998 9.9477295e-39
-0.12997197 0.20547223 0.86699998 8.0079975e-39
-0.10263312 0.20640239 0.86400002 6.9013249e-39
-0.09770976 0.20678112 0.86400002 7.6374242e-39
-0.093922555 0.20678112 0.86400002 9.393104e-39
-0.090345763 0.2067548 0.86600006 8.7481031e-39
-0.086496755 0.2056226 0.86549997 9.6718489e-39
-0.082087554 0.20445882 0.86699998 9.0272053e-39
-0.10514301 0.21003267 0.86699998 8.4704498e-39
-0.10167316 0.20941769 0.86550003 5.89004e-39
-0.097879395 0.2094177 0.86549997 8.4661044e-39
-0.094166487 0.2095985 0.86625004 9.3948935e-39
-0.091968462 0.20901924 0.86699998 8.3800367e-39
-0.10869 0.21205951 0.86699998 6.9009605e-39
-0.10716986 0.21205951 0.86699998 7.1775474e-39
-0.09804903 0.21205953 0.86699998 6.1608704e-39
-0.11224577 0.15958752 0.87099999 2.0636607e-38
-0.10995504 0.15958752 0.87099999 2.0726655e-38
-0.10575536 0.15920572 0.87099999 1.8696924e-38
-0.10228403 0.15807404 0.86940002 1.8049742e-38
-0.11310982 0.16226101 0.87060004 1.9250821e-38
-0.11013751 0.16264509 0.86985713 1.6945188e-38
-0.105948 0.16235059 0.86944443 1.5931392e-38
-0.10284615 0.16074473 0.86900002 1.4916162e-38
-0.12217226 0.16645971 0.87099999 1.8324868e-38
-0.11787973 0.16585943 0.87071431 1.7867506e-38
-0.11453176 0.16577187 0.86980003 1.5565489e-38
-0.11046439 0.16607748 0.86900008 1.501123e-38
-0.10589345 0.16607748 0.86900008 1.5841319e-38
-0.073812261 0.16574302 0.87024993 1.9618881e-38
-0.071012624 0.16722327 0.87099999 2.1462774e-38
-0.12446298 0.17180474 0.87099999 1.4821067e-38
-0.12198524 0.17001575 0.8696667 1.7683822e-38
-0.11851795 0.16966896 0.86900008 1.6947686e-38
-0.1142735 0.16836296 0.86900002 1.9247209e-38
-0.11046438 0.16836296 0.86900008 1.888094e-38
-0.076944157 0.17064843 0.86900002 1.6401097e-38
-0.073896863 0.16988659 0.86900002 1.8697265e-38
-0.070336543 0.17042594 0.87019998 2.2107769e-38
-0.12446298 0.17409547 0.87099999 1.104147e-38
-0.1220441 0.17415281 0.86900008 1.6298404e-38
-0.11960626 0.17369571 0.86900002 2.1277661e-38
-0.070087746 0.17293389 0.86900002 2.2016669e-38
-0.067958318 0.17485905 0.87099999 2.0081638e-38
-0.12477333 0.17819214 0.87050003 2.3902494e-39
-0.067958318 0.17791337 0.87099999 1.7683839e-38
-0.14202525 0.1824948 0.87099999 1.7131003e-38
-0.13851281 0.18188396 0.87099999 1.6578202e-38
-0.1338079 0.18293665 0.87019998 1.6302357e-38
-0.12980804 0.1824948 0.87099999 6.2642175e-39
-0.12530735 0.18213564 0.86928576 1.1952964e-39
-0.0678543 0.18221429 0.8696667 1.7222854e-38
-0.14431599 0.18554913 0.87099999 1.5654847e-38
-0.14202525 0.18554913 0.87099999 1.6114729e-38
-0.13806555 0.18535899 0.87011105 1.7681686e-38
-0.13368447 0.18551232 0.86940002 1.7498727e-38
-0.13015586 0.18541916 0.86949998 1.437239e-38
-0.12732211 0.18526392 0.8696667 6.6362496e-39
-0.067880303 0.18609968 0.87 1.4738951e-38
-0.14202526 0.19013058 0.87099999 1.3074448e-38
-0.13795976 0.18979065 0.86944443 1.5192395e-38
-0.13408092 0.18969402 0.86900008 1.5837398e-38
-0.13027179 0.18969402 0.86900002 1.7958978e-38
-0.12722449 0.18893218 0.86900002 1.8058783e-38
-0.069325924 0.18969402 0.86900008 1.3724831e-38
-0.067958318 0.19013058 0.87099999 1.3817026e-38
-0.14126167 0.19394846 0.87099999 1.3259579e-38
-0.13780837 0.19402124 0.86985713 1.1601462e-38
-0.1340809 0.19426495 0.86900008 1.1508538e-38
-0.13118598 0.19396022 0.86900008 1.2152469e-38
-0.070087746 0.19350313 0.86900002 1.1422124e-38
-0.14126167 0.19776635 0.87099999 9.850855e-39
-0.13831979 0.19784325 0.87049997 1.012741e-38
-0.1340809 0.19807406 0.86900002 1.1695454e-38
-0.13179544 0.19731224 0.86900002 1.1787622e-38
-0.072936617 0.19848053 0.8696667 1.0869672e-38
-0.071012624 0.19623919 0.87099999 1.1422487e-38
-0.14126167 0.20082065 0.87099999 9.1161416e-39
-0.13798921 0.20191149 0.87099999 1.0037001e-38
-0.13408092 0.20188318 0.86900008 1.0128489e-38
-0.0770327 0.20287907 0.87 9.8558926e-39
-0.074303634 0.20124708 0.8702001 9.6714986e-39
-0.13423607 0.20592898 0.87 9.1154381e-39
-0.13179544 0.20645413 0.86900002 7.6395878e-39
-0.08913333 0.20797776 0.86900002 9.3931138e-39
-0.086086035 0.20721593 0.86900002 9.4874562e-39
-0.083229847 0.20692927 0.87099999 9.3034167e-39
-0.079319924 0.20516628 0.87 9.3949159e-39
-0.10589344 0.21026324 0.86900002 8.7495549e-39
-0.092180625 0.21102506 0.86900002 7.9215823e-39
-0.090287022 0.2103319 0.87033337 8.2853229e-39
-0.087811314 0.20998357 0.87099999 8.3800367e-39
-0.11224577 0.21456502 0.87099999 5.9800692e-39
-0.10985493 0.21437708 0.86900008 6.7183517e-39
-0.10589346 0.21407236 0.86900008 6.3502951e-39
-0.10208432 0.21331054 0.86900002 5.2428741e-39
-0.098275207 0.21407238 0.86900008 4.5020917e-39
-0.094193012 0.21317509 0.87 8.3778619e-39
-0.11300934 0.21685576 0.87099999 6.9031241e-39
-0.10995504 0.21838292 0.87099999 6.9048968e-39
-0.10575536 0.21723755 0.87099999 6.4442788e-39
-0.10231927 0.21609218 0.87099999 4.0482952e-39
-0.10048791 0.14651291 0.875 1.8050445e-38
-0.098442361 0.14549014 0.875 2.174043e-38
-0.11352833 0.15111542 0.875 1.8418884e-38
-0.10969292 0.15111542 0.875 1.5559343e-38
-0.10662458 0.15111542 0.875 1.4634889e-38
-0.10048791 0.14804707 0.875 1.7778173e-38
-0.098953746 0.14804707 0.875 2.2203563e-38
-0.12119916 0.15571791 0.875 1.5651251e-38
-0.11813083 0.15418375 0.875 1.694409e-38
-0.11429542 0.15418375 0.875 1.5190953e-38
-0.10969292 0.15418376 0.875 1.6388729e-38
-0.10585749 0.15418375 0.875 1.7680937e-38
-0.10305436 0.15362313 0.87400001 1.6023563e-38
-0.12580165 0.15878624 0.875 1.9525582e-38
-0.1218861 0.15868156 0.87442863 1.500796e-38
-0.11804082 0.15866409 0.87433338 1.6575653e-38
-0.11432435 0.1583672 0.87375009 1.8974928e-38
-0.11020752 0.15765798 0.87300003 2.0263151e-38
-0.106687 0.15750492 0.87300009 2.2013087e-38
-0.15341666 0.16262166 0.875 2.0631931e-38
-0.14958125 0.16262166 0.875 1.786389e-38
-0.14600152 0.16287737 0.875 1.9617071e-38
-0.14344458 0.16338874 0.875 1.8511785e-38
-0.12919874 0.16207376 0.87500006 1.9894736e-38
-0.12580165 0.16185458 0.875 1.5193448e-38
-0.12150814 0.16197431 0.87328583 1.7405029e-38
-0.11786082 0.16224997 0.87300003 2.1278046e-38
-0.11556482 0.16224995 0.87300003 2.1464246e-38
-0.1702925 0.16722415 0.875 1.5655183e-38
-0.1667639 0.16737758 0.875 1.6206914e-38
-0.15341666 0.16645707 0.875 1.90646e-38
-0.15017739 0.16626684 0.87400007 1.6665718e-38
-0.14628889 0.16620265 0.8736667 1.8879502e-38
-0.14178878 0.16650486 0.87425005 1.7219985e-38
-0.13873631 0.16632909 0.87433338 1.7680602e-38
-0.13331908 0.1667639 0.875 1.73111e-38
-0.13007541 0.16623791 0.87500006 1.8881301e-38
-0.12616001 0.1663622 0.87350011 1.5654431e-38
-0.12130481 0.16492862 0.87300003 2.0445738e-38
-0.069297872 0.16629303 0.87414294 2.01706e-38
-0.17259374 0.1702925 0.875 1.4546343e-38
-0.1705482 0.17003679 0.875 1.5746998e-38
-0.16645709 0.16952543 0.875 1.5471488e-38
-0.15341666 0.1702925 0.875 1.7683463e-38
-0.15000468 0.16990325 0.87300003 1.5560792e-38
-0.14617804 0.16990326 0.87300009 1.934013e-38
-0.14158605 0.16990326 0.87300009 1.7035583e-38
-0.13852473 0.16990325 0.87300003 1.7310379e-38
-0.1334725 0.1702925 0.875 1.6941191e-38
-0.13040416 0.1702925 0.875 1.8606187e-38
-0.12627946 0.16990326 0.87300009 1.4456227e-38
-0.068624586 0.16964816 0.87300003 2.0174554e-38
-0.065969162 0.17105958 0.875 1.9068951e-38
-0.15414497 0.17408329 0.87477779 1.6944814e-38
-0.15000468 0.1737299 0.87300009 1.5744119e-38
-0.14617802 0.1737299 0.87300009 1.8511085e-38
-0.14158605 0.1737299 0.87300009 1.5561141e-38
-0.13810149 0.17427483 0.87420005 1.7587648e-38
-0.13404782 0.17431967 0.875 1.4821461e-38
-0.13040416 0.17412791 0.875 1.6117979e-38
-0.12704478 0.1737299 0.87300009 1.1973819e-38
-0.068114363 0.17296457 0.87300003 2.1925189e-38
-0.065943748 0.17406099 0.87466669 2.0544057e-38
-0.15801916 0.17796333 0.875 1.4271172e-38
-0.15381506 0.17811701 0.87414294 1.5286408e-38
-0.15000468 0.1783219 0.87300009 1.5470072e-38
-0.14617802 0.1783219 0.87300009 1.749802e-38
-0.14158607 0.17832187 0.87300009 1.4733213e-38
-0.13786402 0.1784575 0.8736667 1.6668964e-38
-0.13406873 0.17850229 0.87388891 1.4274429e-38
-0.13030481 0.17859308 0.87433338 8.3771808e-39
-0.12719785 0.17801577 0.87300009 2.8476291e-39
-0.068114363 0.1783219 0.87300003 1.77753e-38
-0.066061556 0.17826018 0.87420005 1.8054067e-38
-0.15801916 0.18179874 0.875 1.3160842e-38
-0.15411121 0.18167756 0.87350005 1.4455915e-38
-0.15000468 0.18214853 0.87300003 1.5009079e-38
-0.14617804 0.18214855 0.87300009 1.694556e-38
-0.14235139 0.18138321 0.87300003 1.5748427e-38
-0.13699406 0.18138321 0.87300003 1.6027194e-38
-0.13393275 0.18138322 0.87300003 1.4738643e-38
-0.13010609 0.18138321 0.87300003 5.7124983e-39
-0.12781011 0.18138321 0.87300003 0
-0.065892898 0.18159011 0.87400001 1.86076e-38
-0.15776347 0.18537848 0.875 1.1137587e-38
-0.15414497 0.18635429 0.87477779 1.123052e-38
-0.15006226 0.18604678 0.87333339 1.2796014e-38
-0.14694336 0.18597519 0.87300009 1.7037019e-38
-0.066583708 0.18597519 0.87300003 1.482973e-38
-0.15341666 0.19023666 0.875 1.0402211e-38
-0.14958125 0.19023666 0.875 1.1508185e-38
-0.14541271 0.18980184 0.87300003 1.1322353e-38
-0.066659972 0.19002013 0.87400001 1.4092896e-38
-0.14881416 0.19330499 0.875 1.0958953e-38
-0.14552376 0.19377753 0.8736667 1.1508217e-38
-0.14311671 0.19439381 0.87300003 1.2706407e-38
-0.068676606 0.19479796 0.8736667 1.1976001e-38
-0.14574583 0.19790749 0.875 1.0680265e-38
-0.14311671 0.19822048 0.87300003 9.850855e-39
-0.070718661 0.19837068 0.8736667 1.0409054e-38
-0.14536229 0.20135936 0.875 1.1237045e-38
-0.1427158 0.20245712 0.8736667 1.0130672e-38
-0.072872914 0.20327708 0.875 1.0317244e-38
-0.07133875 0.2017429 0.875 1.0869319e-38
-0.14173138 0.20608376 0.87388897 8.9335664e-39
-0.13791247 0.2061799 0.87300009 9.9462736e-39
-0.081217028 0.207642 0.87400001 9.2126728e-39
-0.078242496 0.20711249 0.875 9.5803847e-39
-0.075088248 0.20534426 0.87400007 1.0039561e-38
-0.1419104 0.21018082 0.875 7.6442863e-39
-0.1383307 0.20992514 0.875 9.2090673e-39
-0.13423958 0.21018085 0.875 5.7060117e-39
-0.08877828 0.21199641 0.87300003 8.2863977e-39
-0.085765615 0.20982096 0.87349999 9.1190408e-39
-0.082046062 0.21010105 0.87466669 8.6591473e-39
-0.079009578 0.21018082 0.875 7.6454031e-39
-0.14191042 0.21248208 0.875 7.5578851e-39
-0.13884208 0.21248208 0.875 6.3568237e-39
-0.093370259 0.21505773 0.87300003 8.1949041e-39
-0.089646183 0.21453874 0.87400001 8.2882068e-39
-0.086169027 0.21299347 0.875 8.1974391e-39
-0.083612077 0.21248208 0.875 8.1066966e-39
-0.11326884 0.2196497 0.87300003 7.1804257e-39
-0.10638087 0.21964972 0.87300003 6.629735e-39
-0.10146365 0.21786131 0.87349999 3.7717139e-39
-0.098074451 0.21760356 0.87400007 5.7967724e-39
-0.094351254 0.21708457 0.875 8.0112598e-39
-0.091282912 0.21708457 0.875 8.38295e-39
-0.11339946 0.22143373 0.87400001 7.0903923e-39
-0.10960817 0.22151819 0.87433338 6.7226817e-39
-0.10585749 0.22168708 0.875 6.446078e-39
-0.10355625 0.22092 0.875 5.7996268e-39
-0.11352833 0.22552249 0.875 6.4320721e-40
-0.11122708 0.22552249 0.875 1.5633558e-39
-0.097753584 0.1439364 0.87800002 2.1924109e-38
-0.11713055 0.14718269 0.87900001 2.3491443e-38
-0.11374691 0.14661257 0.87866676 2.1365518e-38
-0.11019437 0.14641123 0.87900007 2.1549917e-38
-0.10586744 0.14569555 0.87933338 2.0353204e-38
-0.102438 0.14556949 0.87857157 1.9247539e-38
-0.09621416 0.14547582 0.87800002 2.3499377e-38
-0.12574905 0.15146463 0.88 1.9433015e-38
-0.12187128 0.15060723 0.87800014 2.1460236e-38
-0.11776614 0.15009411 0.87800014 2.2660602e-38
-0.11391757 0.14932439 0.87800002 1.9063507e-38
-0.110069 0.1493244 0.87800014 1.8232314e-38
-0.1060665 0.14978622 0.87800008 1.5741995e-38
-0.1025643 0.15028653 0.87800014 1.601889e-38
-0.099406108 0.15103652 0.87900001 2.2661343e-38
-0.14194986 0.15506479 0.88 2.155353e-38
-0.13963546 0.15506479 0.88 1.8695833e-38
-0.13346373 0.15429333 0.88 1.9431207e-38
-0.13028027 0.15417644 0.87933338 2.0814882e-38
-0.12623298 0.15394266 0.87800002 2.0631216e-38
-0.12238442 0.15394266 0.87800014 2.1737909e-38
-0.16972266 0.1596936 0.88 1.9431586e-38
-0.16123652 0.1596936 0.88 1.8968409e-38
-0.15815067 0.1596936 0.88 1.8974915e-38
-0.15429333 0.1596936 0.88 1.9895444e-38
-0.150436 0.1596936 0.88 1.8694361e-38
-0.14558677 0.15859151 0.88000011 1.9337945e-38
-0.1418429 0.15803027 0.87933338 2.0261709e-38
-0.13858275 0.15862337 0.87919998 1.8419256e-38
-0.13415937 0.1588314 0.87950003 1.722032e-38
-0.13014819 0.15787071 0.87844455 1.9891456e-38
-0.12623298 0.15702152 0.87800002 2.0540104e-38
-0.12392385 0.15702152 0.87800002 1.7589834e-38
-0.17306569 0.16175084 0.88 1.7684919e-38
-0.16991422 0.16260195 0.87800014 1.5469346e-38
-0.16586839 0.16240117 0.87900007 1.5837393e-38
-0.16200799 0.16200799 0.88 1.693831e-38
-0.15782389 0.16244698 0.87925005 1.860327e-38
-0.15394264 0.16087008 0.87800002 1.9713217e-38
-0.15009409 0.16087008 0.87800002 1.8325572e-38
-0.14598897 0.16138323 0.87800002 1.9708545e-38
-0.14220454 0.16221708 0.87800014 1.9617415e-38
-0.13817695 0.16218007 0.87914294 1.7129208e-38
-0.1340324 0.16253226 0.87866676 1.6479846e-38
-0.13162097 0.16163979 0.87800002 1.8416716e-38
-0.069326803 0.16253167 0.87866676 2.0724829e-38
-0.066603288 0.16226515 0.88 2.1095416e-38
-0.17666586 0.16740826 0.88 1.5101292e-38
-0.17395978 0.16594632 0.87880003 1.5839579e-38
-0.17010665 0.16548836 0.87800002 1.5656621e-38
-0.16532986 0.16563843 0.87880003 1.593068e-38
-0.16223243 0.16597705 0.87942863 1.5373913e-38
-0.15816671 0.16608974 0.87885725 1.7219587e-38
-0.14239697 0.16548836 0.87800002 1.7127794e-38
-0.13716531 0.16567567 0.87900007 1.6114704e-38
-0.13469984 0.16548836 0.87800002 1.648243e-38
-0.073289327 0.16432239 0.88 1.8698347e-38
-0.07166487 0.16490537 0.87900001 1.8975302e-38
-0.065729402 0.1659635 0.87950003 2.1464197e-38
-0.17666586 0.16972266 0.88 1.4917652e-38
-0.17434007 0.16972178 0.87800002 1.4177899e-38
-0.16933693 0.17164607 0.87800002 1.6023918e-38
-0.16625807 0.17164607 0.87800002 1.5655867e-38
-0.16269355 0.17001064 0.8785001 1.5838131e-38
-0.15772636 0.16983238 0.87885725 1.6852996e-38
-0.13700898 0.17010665 0.87800014 1.5467914e-38
-0.065498978 0.16952953 0.87900007 1.8790544e-38
-0.062488798 0.17049412 0.88 2.1460976e-38
-0.17666586 0.17203707 0.88 1.1691849e-38
-0.17383014 0.17383131 0.87866676 1.3165523e-38
-0.17010665 0.1739552 0.87800014 1.5008743e-38
-0.16625807 0.17395522 0.87800002 1.4732526e-38
-0.16234666 0.17379442 0.87885725 1.6206553e-38
-0.15874183 0.17338157 0.87900007 1.713028e-38
-0.13700897 0.1731855 0.87800002 1.5009465e-38
-0.064031735 0.17203707 0.88 1.9527408e-38
-0.063047759 0.17373009 0.87919998 1.9069304e-38
-0.17319426 0.17859453 0.88 1.0953587e-38
-0.16996264 0.17766242 0.87825012 1.1506383e-38
-0.16625807 0.1778038 0.87800014 1.1781158e-38
-0.16240951 0.1778038 0.87800014 1.4822885e-38
-0.15856093 0.17626436 0.87800002 1.5103074e-38
-0.063187502 0.17800628 0.87900007 1.722647e-38
-0.16972266 0.18206613 0.88 8.6519474e-39
-0.16586532 0.18206613 0.88000005 1.1415629e-38
-0.16163979 0.18242207 0.87800014 1.0306403e-38
-0.064728685 0.18339953 0.87900001 1.7318656e-38
-0.063187502 0.18108866 0.87900001 1.7504145e-38
-0.16470812 0.18553773 0.88 8.2838726e-39
-0.16163979 0.18627062 0.87800002 8.8359673e-39
-0.15933065 0.18704033 0.87800002 1.0032337e-38
-0.065425634 0.18627062 0.87800002 1.5105597e-38
-0.16432239 0.18900932 0.88 8.5622419e-39
-0.16200799 0.18978079 0.88 9.3895083e-39
-0.15779123 0.18986261 0.87800014 1.0126684e-38
-0.065425634 0.18934947 0.87800002 1.4646423e-38
-0.15815067 0.19260952 0.88 9.9437442e-39
-0.15403076 0.19407865 0.87849998 9.4845597e-39
-0.15163352 0.19396776 0.87800002 1.0684193e-38
-0.066161335 0.1938587 0.87960005 1.2620667e-38
-0.15429333 0.19672398 0.88 9.6704041e-39
-0.1500735 0.19784918 0.87900007 1.0313248e-38
-0.069069646 0.19899398 0.87866676 1.0960435e-38
-0.066731863 0.19788118 0.88 1.1516113e-38
-0.14929458 0.20171456 0.87933338 1.0590201e-38
-0.14701524 0.2032043 0.87800002 1.2436307e-38
-0.070095927 0.20207399 0.87866676 1.0775335e-38
-0.067117594 0.20135279 0.88 8.660571e-39
-0.14889306 0.20443866 0.88 1.1883825e-38
-0.14641297 0.20651811 0.87900001 8.9332287e-39
-0.07312277 0.20628318 0.87800002 7.9230508e-39
-0.071583338 0.20628318 0.87800002 1.9317852e-39
-0.14609158 0.20982385 0.87800008 7.4674719e-39
-0.13777868 0.21167117 0.87800002 7.7332449e-39
-0.077159993 0.2099196 0.87840003 6.0802214e-39
-0.074261263 0.20942339 0.87933338 1.65592e-39
-0.071746394 0.20906745 0.88 4.5917748e-40
-0.13700897 0.2132106 0.87800002 5.7081627e-39
-0.13469984 0.2132106 0.87800002 1.2921541e-39
-0.085438177 0.21475002 0.87800002 7.9233941e-39
-0.082051441 0.21413426 0.87800008 3.7767656e-39
-0.077595517 0.21385857 0.87885725 2.7730576e-40
-0.074832261 0.21369627 0.88 9.2911693e-41
-0.09621416 0.21936829 0.87800002 7.8272146e-39
-0.093905017 0.21936829 0.87800002 7.646066e-39
-0.089748584 0.21875253 0.87800008 6.3553664e-39
-0.086207889 0.2178289 0.87800014 2.946656e-39
-0.08257477 0.21769844 0.87825012 1.8367099e-40
-0.078214444 0.21692151 0.87900007 3.6770072e-40
-0.11391757 0.22398657 0.87800002 3.4976424e-39
-0.110069 0.22398657 0.87800002 3.7745908e-39
-0.10622044 0.22398657 0.87800002 4.2355689e-39
-0.10215657 0.22234194 0.87880003 5.7992835e-39
-0.097976267 0.22218238 0.88000005 6.9999777e-39
-0.094012849 0.22115931 0.87900001 6.0769578e-39
-0.090056464 0.22090773 0.87800002 8.2759566e-40
-0.086207896 0.22090772 0.87800002 0
-0.083898753 0.22090772 0.87800002 4.2038954e-45
-0.10929929 0.22629571 0.87800002 1.0127128e-39
-0.10622044 0.22629571 0.87800002 2.115822e-39
-0.10252616 0.22561073 0.87933344 6.0751585e-39
-0.098169133 0.22584687 0.88000005 2.7619018e-39
-0.10593115 0.14304569 0.88200009 2.247692e-38
-0.10206504 0.14304569 0.88200003 2.1825036e-38
-0.098508231 0.14242712 0.88200009 2.1366584e-38
-0.095106058 0.14304569 0.88200003 1.971387e-38
-0.12448841 0.14768502 0.88200003 1.8511731e-38
-0.12216876 0.14768502 0.88200003 2.0905986e-38
-0.11830267 0.14665407 0.88200009 2.3123744e-38
-0.11366334 0.14510763 0.88200009 2.2288587e-38
-0.10979724 0.14459214 0.88200003 2.3303763e-38
-0.10747758 0.14459214 0.88200003 2.34889e-38
-0.12603486 0.15000468 0.88200003 2.0078368e-38
-0.12294198 0.14923146 0.88200003 1.9707792e-38
-0.16933517 0.15541722 0.88200003 1.8511772e-38
-0.1662423 0.15541723 0.88200009 1.8880553e-38
-0.16129369 0.15479864 0.88200009 1.8512862e-38
-0.14923146 0.15541722 0.88200003 2.1273345e-38
-0.14575197 0.15503061 0.88200003 2.0447907e-38
-0.14227247 0.15387078 0.88200003 2.2106335e-38
-0.13801977 0.154644 0.88200003 1.8692924e-38
-0.13428256 0.15387079 0.88200009 1.8693285e-38
-0.12990096 0.15232435 0.88200003 2.1736839e-38
-0.17010841 0.15773688 0.88200003 2.0260979e-38
-0.1662423 0.15773688 0.88200009 1.8327396e-38
-0.16160297 0.15773688 0.88200009 1.6575667e-38
-0.15773688 0.15773688 0.88200003 1.8419959e-38
-0.15387078 0.15773688 0.88200009 2.0447192e-38
-0.15000468 0.15773688 0.88200003 1.9062447e-38
-0.1469118 0.15696366 0.88200003 1.9338684e-38
-0.13763316 0.15773688 0.88200003 1.9064244e-38
-0.13454027 0.15696366 0.88200003 1.9063514e-38
-0.069589794 0.1585101 0.88200003 1.952989e-38
-0.17706738 0.1623762 0.88200003 1.8885985e-38
-0.17459308 0.1609844 0.88200009 1.9067136e-38
-0.1662423 0.16005653 0.88200009 1.6945179e-38
-0.16314942 0.16005653 0.88200003 1.4266432e-38
-0.070749626 0.16121636 0.88200003 1.9713561e-38
-0.064950481 0.1623762 0.88200003 2.0818115e-38
-0.18615271 0.1664356 0.88200003 1.9341557e-38
-0.18170671 0.16701552 0.88200009 1.8238831e-38
-0.17799523 0.16593301 0.88200009 1.6946644e-38
-0.17552094 0.16469586 0.88200003 1.84225e-38
-0.06417726 0.16469586 0.88200003 2.1189796e-38
-0.062630817 0.16778874 0.88200003 2.1924127e-38
-0.1855728 0.16933517 0.88200003 1.7774905e-38
-0.18139742 0.16995375 0.88200009 1.5102735e-38
-0.17861381 0.17010841 0.88200003 1.47329e-38
-0.062630817 0.16933517 0.88200003 2.1369506e-38
-0.18093348 0.1739745 0.88200009 1.1601115e-38
-0.17799525 0.17428379 0.88200009 1.0865342e-38
-0.17552094 0.17552094 0.88200003 1.1875145e-38
-0.061084379 0.17474772 0.88200003 1.851753e-38
-0.18093348 0.17784059 0.88200003 1.0493709e-38
-0.17784061 0.17784059 0.88200003 1.0310741e-38
-0.17552094 0.17784059 0.88200003 1.0954662e-38
-0.18016027 0.18170671 0.88200009 8.0076724e-39
-0.17822722 0.1813201 0.88200003 8.8363219e-39
-0.1739745 0.18196446 0.88200009 9.0207313e-39
-0.062630817 0.18325314 0.88200003 1.7320101e-38
-0.17320128 0.18479958 0.88200003 8.1942105e-39
-0.16995376 0.18603674 0.88200009 8.2846054e-39
-0.16717017 0.18665531 0.88200009 8.5619056e-39
-0.06417726 0.18634602 0.88200009 1.5474735e-38
-0.062630817 0.18634602 0.88200009 1.5475094e-38
-0.16933517 0.18943891 0.88200003 8.4700841e-39
-0.1662423 0.1899544 0.88200009 8.4697044e-39
-0.06417726 0.19021213 0.88200003 1.483084e-38
-0.16160297 0.19304727 0.88200009 9.9430436e-39
-0.15799463 0.19510919 0.88200009 8.6540914e-39
-0.15773688 0.19717109 0.88200003 9.486736e-39
-0.154644 0.19871753 0.88200003 9.8544451e-39
-0.065723695 0.19871753 0.88200003 1.2436646e-38
-0.15342894 0.20158949 0.88200009 9.3016328e-39
-0.15077789 0.20335685 0.88200003 1.0130682e-38
-0.069589794 0.20335685 0.88200003 8.4740274e-39
-0.066496916 0.20181042 0.88200003 4.1412069e-39
-0.15000468 0.20567653 0.88200003 9.1186779e-39
-0.069589794 0.2049033 0.88200003 5.8947372e-39
-0.067270137 0.2049033 0.88200003 0
-0.0734559 0.21108906 0.88200003 0
-0.071909457 0.21108906 0.88200003 0
-0.0734559 0.21340871 0.88200003 0
-0.093559615 0.2234606 0.88200009 3.3150742e-39
-0.093559615 0.22578023 0.88200009 0
-0.10206504 0.2280999 0.88200003 1.8392281e-39
-0.096652493 0.2280999 0.88200003 4.2038954e-45
-0.10108843 0.139191 0.88700002 2.3495392e-38
-0.097978018 0.1384134 0.88700002 2.3491075e-38
-0.094867602 0.139191 0.88700002 2.2564446e-38
-0.12130612 0.14385661 0.88700002 2.1088536e-38
-0.1181957 0.14385661 0.88700002 2.2935739e-38
-0.11417999 0.14291741 0.88600004 2.3399249e-38
-0.10951729 0.14239901 0.88600004 2.3494312e-38
-0.10563482 0.14136337 0.88600004 2.3214846e-38
-0.10199332 0.141113 0.8854 2.312264e-38
-0.097498477 0.14094608 0.88499999 2.1554598e-38
-0.094668947 0.14192618 0.88660002 2.1370145e-38
-0.08164835 0.14307901 0.88700002 2.2292868e-38
-0.12908214 0.14696702 0.88700002 2.2475853e-38
-0.12582971 0.14602374 0.88599998 1.9618107e-38
-0.12194609 0.14602374 0.88600004 1.9798512e-38
-0.11792919 0.14508393 0.88499999 2.3492128e-38
-0.11560165 0.14508393 0.88499999 2.3488894e-38
-0.17340554 0.15163265 0.88700002 2.2661709e-38
-0.17029512 0.15163265 0.88700002 2.0816004e-38
-0.16718471 0.15163265 0.88700002 2.017096e-38
-0.16137677 0.15129074 0.88499999 2.0816671e-38
-0.1582734 0.15129074 0.88499999 1.9524506e-38
-0.15429175 0.15087381 0.88619995 2.1461329e-38
-0.15007746 0.15085506 0.88700002 2.0908874e-38
-0.14610745 0.15076958 0.88650006 1.998439e-38
-0.14214098 0.1506841 0.88600004 2.1182227e-38
-0.1376358 0.15163265 0.88700002 1.8875876e-38
-0.13348858 0.15111426 0.88700002 1.8968447e-38
-0.12973526 0.14993243 0.88614291 2.2381853e-38
-0.12646355 0.14818735 0.88499999 2.1093208e-38
-0.072317109 0.15163265 0.88700002 2.2567325e-38
-0.070761904 0.15163265 0.88700002 2.1919761e-38
-0.17729355 0.15474306 0.88700002 2.2662034e-38
-0.17405222 0.15462559 0.88633341 2.0725214e-38
-0.17018817 0.15400015 0.88528585 1.952487e-38
-0.16579047 0.15367039 0.88620007 1.9341189e-38
-0.16215265 0.1533597 0.88499999 1.9434823e-38
-0.1582734 0.15439415 0.88500011 1.8050797e-38
-0.15439413 0.15439413 0.88500011 2.0170591e-38
-0.14996073 0.15395081 0.88500011 2.0352822e-38
-0.1461184 0.1533597 0.88499999 1.9893649e-38
-0.14198053 0.15284245 0.88499999 2.1185472e-38
-0.1383599 0.15335968 0.88499999 1.8048614e-38
-0.1349979 0.15284245 0.88499999 1.7864588e-38
-0.072906576 0.15436153 0.88660002 2.2106702e-38
-0.0698791 0.15450929 0.88566673 2.0630853e-38
-0.066446945 0.15504377 0.88650006 1.9432285e-38
-0.18195918 0.15940869 0.88700002 1.5751311e-38
-0.17756996 0.1580243 0.88671434 2.1832999e-38
-0.1737904 0.1582734 0.88499999 1.8603629e-38
-0.073185004 0.15802145 0.88620007 1.9617769e-38
-0.069826499 0.15749754 0.88499999 2.0355694e-38
-0.065826923 0.15786859 0.88600004 1.9342617e-38
-0.062467467 0.15889029 0.88700002 2.1463131e-38
-0.19206803 0.1625191 0.88700002 2.008238e-38
-0.18940854 0.16268216 0.88619995 1.9342658e-38
-0.18622532 0.16265498 0.88633341 2.0172765e-38
-0.18205751 0.16253038 0.88585722 1.7778925e-38
-0.17893466 0.16185544 0.88550001 1.842425e-38
-0.073317826 0.16176471 0.88499999 1.8699057e-38
-0.065559328 0.16098885 0.88499999 2.0356425e-38
-0.062467467 0.1614823 0.88700002 2.2476212e-38
-0.19388244 0.16562951 0.88700002 1.5195654e-38
-0.19039358 0.16587673 0.88500005 1.5378595e-38
-0.18232474 0.16525605 0.88499999 1.9529569e-38
-0.062137842 0.16544162 0.88600004 2.1280184e-38
-0.19673364 0.16951752 0.88700002 1.0225436e-38
-0.19466004 0.16925833 0.88700002 1.0775329e-38
-0.19014461 0.1699665 0.88528585 1.3535027e-38
-0.18620399 0.17146283 0.88499999 1.7039901e-38
-0.18387644 0.17146283 0.88499999 1.6303094e-38
-0.061384495 0.17016831 0.88633341 2.1372373e-38
-0.19206803 0.17496075 0.88700002 1.2246865e-38
-0.18952218 0.17398676 0.88600004 1.2338312e-38
-0.18620399 0.1737904 0.88499999 1.3167692e-38
-0.18387644 0.1737904 0.88499999 1.261452e-38
-0.061292149 0.17301454 0.88499999 1.9342975e-38
-0.059875458 0.17418315 0.88700002 1.9160743e-38
-0.19206803 0.17651595 0.88700002 1.1234158e-38
-0.18923989 0.17758285 0.88650006 1.1604357e-38
-0.18634485 0.17780408 0.88566673 1.2526283e-38
-0.18387644 0.17766964 0.88499999 1.0128818e-38
-0.061292149 0.17844549 0.88499999 1.7041004e-38
-0.059875458 0.17807117 0.88700002 1.787111e-38
-0.18652004 0.18185705 0.8865 1.077641e-38
-0.18294542 0.18201439 0.88500005 8.5615581e-39
-0.1771524 0.18335921 0.88499999 9.4827829e-39
-0.061292153 0.18232474 0.88499999 1.6675464e-38
-0.059875458 0.18195918 0.88700002 1.6122285e-38
-0.18532878 0.18532878 0.88700002 9.0279536e-39
-0.18154889 0.18620399 0.88499999 8.3822255e-39
-0.17773657 0.18627384 0.88533342 8.6548551e-39
-0.1737904 0.18697985 0.88499999 8.0087388e-39
-0.06136141 0.18641353 0.88600004 1.5846061e-38
-0.059875458 0.18506959 0.88700002 1.6399243e-38
-0.18156382 0.18933401 0.88633341 8.2932781e-39
-0.17793673 0.18959318 0.88633335 8.1982042e-39
-0.1737904 0.18930739 0.88499999 7.3651799e-39
-0.17029907 0.19047116 0.88499999 7.7332295e-39
-0.16680774 0.19163494 0.88499999 7.6388591e-39
-0.062067993 0.19008324 0.88499999 1.4001437e-38
-0.17418315 0.19206803 0.88700002 8.0138199e-39
-0.16990632 0.19362323 0.88700002 7.0014603e-39
-0.16622038 0.19418167 0.88600004 8.3782248e-39
-0.16292849 0.19473834 0.88499999 9.4838703e-39
-0.064395547 0.19396248 0.88499999 1.3265305e-38
-0.062024344 0.19384696 0.88660002 1.2712504e-38
-0.16873991 0.19673364 0.88700002 7.4642503e-39
-0.16607386 0.19828886 0.88700008 9.3045405e-39
-0.1618135 0.19774882 0.88557154 9.1176157e-39
-0.1582734 0.19939344 0.88499999 9.4871101e-39
-0.064492568 0.19814098 0.88633341 1.0689599e-38
-0.062208265 0.19828884 0.88700002 3.684563e-39
-0.16525605 0.20172098 0.88499999 9.3059979e-39
-0.16233529 0.20194863 0.88600004 9.2127134e-39
-0.1582734 0.20172098 0.88499999 9.026862e-39
-0.15594584 0.20249684 0.88499999 9.1186723e-39
-0.065318681 0.20217687 0.88700002 9.1835496e-41
-0.062985867 0.20139925 0.88700002 0
-0.16060093 0.20404854 0.88499999 1.102026e-39
-0.1582734 0.20404854 0.88499999 1.3775324e-39
-0.15451047 0.2052379 0.88566673 9.7612223e-39
-0.15129074 0.20715193 0.88499999 8.1052476e-39
-0.15007745 0.20995291 0.88700002 8.1121364e-39
-0.072154045 0.21335874 0.88499999 7.1746481e-43
-0.090257213 0.22473787 0.88499999 0
-0.11369693 0.13919333 0.89033335 2.2660227e-38
-0.1100541 0.13893296 0.89033335 2.2475453e-38
-0.1059925 0.13872547 0.889 2.3307395e-38
-0.10221057 0.13784033 0.88999999 2.2752038e-38
-0.097638749 0.13669424 0.89099997 2.3489997e-38
-0.093852721 0.13778862 0.88966668 2.3026492e-38
-0.090157777 0.13830131 0.88985711 2.3492161e-38
-0.16090864 0.14294311 0.89099997 2.2763567e-38
-0.15778421 0.14294311 0.89099997 2.330776e-38
-0.15465978 0.14294311 0.89099997 2.2751719e-38
-0.14138091 0.14294311 0.89099997 2.3489253e-38
-0.13981868 0.14294311 0.89099997 2.3490338e-38
-0.12966424 0.14294311 0.89099997 2.3303783e-38
-0.12575871 0.14242238 0.89099997 1.9707401e-38
-0.12215666 0.14212573 0.88980001 2.0443553e-38
-0.11815345 0.14187746 0.89019996 2.256552e-38
-0.11378607 0.14106354 0.889 2.3491091e-38
-0.11066864 0.14106354 0.889 2.3495029e-38
-0.092743441 0.1418429 0.889 2.2013094e-38
-0.089692056 0.14116934 0.88966668 2.3492891e-38
-0.085826539 0.14122222 0.88999999 2.3493937e-38
-0.08159364 0.14181398 0.88980001 2.2844975e-38
-0.17340641 0.14762978 0.89099997 2.2292185e-38
-0.17028198 0.14762978 0.89099997 2.3029371e-38
-0.16598585 0.14723922 0.89099997 2.2477647e-38
-0.16168976 0.14606756 0.89099991 2.2660955e-38
-0.15772548 0.14601234 0.8906666 2.2937904e-38
-0.15398715 0.14578944 0.89049995 2.2107787e-38
-0.15043688 0.14653307 0.89066666 2.0815591e-38
-0.14579074 0.14618 0.89049989 2.3027577e-38
-0.14216201 0.14606756 0.89099997 2.1829045e-38
-0.13825646 0.14658831 0.89099997 2.3302705e-38
-0.13325946 0.14601234 0.89066666 2.2936463e-38
-0.12989938 0.14549281 0.88940001 2.256874e-38
-0.12625578 0.14418097 0.889 1.9153872e-38
-0.12391771 0.14418097 0.889 1.8690695e-38
-0.1804364 0.15075423 0.89099997 2.1460976e-38
-0.1779598 0.15064026 0.89033335 2.2937179e-38
-0.17399202 0.15032408 0.88999999 2.2384377e-38
-0.17009085 0.14980391 0.88999999 2.2569832e-38
-0.16604109 0.15043117 0.89024991 2.2015949e-38
-0.16238014 0.14988852 0.89049995 2.2660602e-38
-0.15820938 0.14963648 0.88900006 2.0353888e-38
-0.15431261 0.14885712 0.889 2.2476515e-38
-0.15041584 0.14885712 0.88900006 2.1554948e-38
-0.14573967 0.14885712 0.88900006 2.1643533e-38
-0.1418429 0.14885712 0.889 2.1274749e-38
-0.13799843 0.1496923 0.88933337 2.2379692e-38
-0.13430914 0.14937669 0.88900006 2.0075516e-38
-0.13171127 0.14885712 0.889 2.2471907e-38
-0.073862374 0.15006369 0.88999999 2.2659141e-38
-0.070181996 0.15049955 0.88949996 2.1275482e-38
-0.066394344 0.15075424 0.89099997 2.0723029e-38
-0.18512306 0.15544088 0.89099997 1.48301e-38
-0.18175271 0.15403032 0.89074993 1.9803566e-38
-0.17769331 0.15353325 0.889 2.2201425e-38
-0.066319838 0.15292484 0.88999999 2.0169137e-38
-0.061964024 0.15467644 0.89019996 1.9431219e-38
-0.19762081 0.15856533 0.89099997 1.5290387e-38
-0.19331054 0.15896626 0.89033335 2.2201091e-38
-0.18995105 0.15904646 0.89019996 2.2109965e-38
-0.18595502 0.15890636 0.88999999 1.7688904e-38
-0.18172686 0.1575475 0.88966668 1.9251104e-38
-0.061602928 0.15712845 0.88949996 1.9341901e-38
-0.20074525 0.16325198 0.89099997 8.1099714e-39
-0.19794042 0.16136238 0.8904286 1.3908535e-38
-0.19439235 0.16164652 0.88933337 1.9711742e-38
-0.19094236 0.16132683 0.889 2.2199223e-38
-0.18548688 0.16132683 0.889 1.9807218e-38
-0.061569177 0.16288553 0.889 2.1831926e-38
-0.20074527 0.16637641 0.89099997 8.294011e-39
-0.19795659 0.16600296 0.88900006 1.2250835e-38
-0.19561851 0.16444424 0.889 1.6670393e-38
-0.060145464 0.16793863 0.89099997 1.8422483e-38
-0.20074525 0.17028198 0.89099997 8.6627921e-39
-0.19873594 0.16989973 0.889 9.6726224e-39
-0.19405979 0.17067909 0.889 1.1143757e-38
-0.060077965 0.17008997 0.88999999 2.0635887e-38
-0.058583245 0.17028198 0.89099997 1.833248e-38
-0.20074525 0.17340641 0.89099997 8.7553422e-39
-0.19787654 0.17424414 0.8901428 9.857364e-39
-0.19405979 0.1733512 0.88900006 1.1603655e-38
-0.060010463 0.17223781 0.889 2.2107421e-38
-0.058583245 0.17418753 0.89099997 1.8147348e-38
-0.19657934 0.17783269 0.89099997 9.5822078e-39
-0.19383129 0.1782196 0.89033335 1.0224689e-38
-0.19094236 0.17847267 0.889 1.1328519e-38
-0.058517497 0.17789231 0.88999999 1.8146287e-38
-0.1960586 0.18121752 0.89099997 9.3049007e-39
-0.19342598 0.18172568 0.88966668 9.396746e-39
-0.19031888 0.18190183 0.88900006 1.0777874e-38
-0.058495581 0.18172744 0.88966668 1.5844269e-38
-0.193165 0.18536678 0.88966668 9.2152456e-39
-0.190163 0.18626623 0.88900006 9.4918227e-39
-0.18730538 0.18730538 0.88900006 9.3992641e-39
-0.060010463 0.18782495 0.889 1.5662028e-38
-0.058583245 0.18590418 0.89099997 1.6398877e-38
-0.19293416 0.18902861 0.89099997 8.848963e-39
-0.19033048 0.19033048 0.89099997 8.4801861e-39
-0.18626624 0.19016302 0.88900006 8.7560569e-39
-0.1831488 0.19094236 0.889 7.9266592e-39
-0.060010463 0.19016302 0.889 1.3264229e-38
-0.058583245 0.18980972 0.89099997 1.2992317e-38
-0.18824749 0.19293416 0.89099997 8.8482567e-39
-0.18590418 0.19293416 0.89099997 8.940102e-39
-0.18130343 0.19299902 0.88950002 8.3862038e-39
-0.17753744 0.19374804 0.88900006 8.7542646e-39
-0.17379652 0.19483916 0.88900006 8.110326e-39
-0.17067909 0.19561851 0.889 8.1996503e-39
-0.060010463 0.19405979 0.88900006 8.3796891e-39
-0.17301717 0.19717722 0.889 8.2947228e-39
-0.16989973 0.19795658 0.889 9.0315802e-39
-0.060145464 0.19762081 0.89099997 1.8367099e-40
-0.16444424 0.20029466 0.889 9.3027553e-39
-0.15353325 0.20808823 0.889 8.2035936e-39
-0.15197454 0.20964694 0.889 7.5571522e-39
-0.20855635 0.24526852 0.89099997 2.2122302e-38
-0.20636927 0.24636208 0.89099997 1.4197101e-38
-0.2038697 0.24683073 0.89099997 2.8621087e-39
-0.16536914 0.13558702 0.89399999 1.7979224e-38
-0.16223417 0.13558702 0.89399999 2.2035113e-38
-0.15909921 0.13558702 0.89399999 2.3509886e-38
-0.16536914 0.13715449 0.89399999 2.3509886e-38
-0.1619207 0.13778149 0.89399999 2.3509886e-38
-0.15909921 0.13793823 0.89399999 2.3509876e-38
-0.11677725 0.13872197 0.89399999 2.2472218e-38
-0.1136423 0.13767698 0.89399999 2.1552447e-38
-0.1097236 0.13715449 0.89399999 2.1089291e-38
-0.10580489 0.13715449 0.89399999 2.2748116e-38
-0.088562615 0.13872197 0.89399999 2.349323e-38
-0.086211398 0.13872197 0.89399999 2.3494661e-38
-0.083076432 0.13872197 0.89399999 2.2477287e-38
-0.16850409 0.14342442 0.89399999 1.6761054e-38
