# .PCD v0.7 - Point Cloud Data file format
VERSION 0.7
FIELDS x y z rgb
SIZE 4 4 4 4
TYPE F F F F
COUNT 1 1 1 1
WIDTH 1012
HEIGHT 1
VIEWPOINT 0 0 0 1 0 0 0
POINTS 1012
DATA ascii
0.11918633 0.16657367 0.81900001 9.9524449e-39
0.12205829 0.16621467 0.81900001 1.23488e-38
0.12466393 0.16540717 0.81820005 1.5298724e-38
0.11918633 0.16944563 0.81900001 9.6772971e-39
0.12205829 0.16944563 0.81900001 9.2163218e-39
0.12457126 0.17052262 0.81900001 9.4936402e-39
0.12820636 0.16903184 0.81699997 9.124129e-39
-0.078260913 0.19098532 0.81900012 1.5837053e-38
-0.074240163 0.19112892 0.81900007 1.5929225e-38
-0.078028969 0.19409662 0.81871432 1.4915456e-38
-0.074131809 0.19409664 0.81871432 1.556226e-38
-0.069645032 0.1938573 0.81900012 1.3626163e-38
-0.10482653 0.19888322 0.81900001 2.100324e-38
-0.10195458 0.19888322 0.81900001 1.8974931e-38
-0.098364636 0.19888322 0.81900001 2.0263887e-38
-0.094056688 0.19888322 0.81900001 1.9526667e-38
-0.091184728 0.19888322 0.81900001 1.9064988e-38
-0.081132866 0.19888322 0.81900001 1.6480617e-38
-0.078393504 0.19750574 0.81850004 1.3625053e-38
-0.073727444 0.19750574 0.81850004 1.5011619e-38
-0.07021942 0.19687285 0.81900007 1.4087486e-38
-0.10841648 0.20319116 0.81900001 2.1923749e-38
-0.10578018 0.20136945 0.8186 2.044791e-38
-0.10208369 0.20140228 0.8175714 1.9157178e-38
-0.098230787 0.20148028 0.81788892 1.749512e-38
-0.094030775 0.20170005 0.81877786 1.7495831e-38
-0.089953884 0.20216547 0.81900012 1.7033437e-38
-0.085440807 0.20319116 0.81900001 1.2793523e-38
-0.081850857 0.20175517 0.81900012 1.5190608e-38
-0.078260906 0.20175517 0.81900012 1.3164821e-38
-0.073952965 0.20175518 0.81900012 1.3260255e-38
-0.11703236 0.2074991 0.81900001 1.9989085e-38
-0.11353096 0.20653617 0.8186 1.9619946e-38
-0.10983076 0.20550577 0.81750005 1.9803624e-38
-0.10671926 0.20412743 0.81699997 2.1093289e-38
-0.1017056 0.20412743 0.81699997 1.8973158e-38
-0.098124415 0.20412743 0.81700003 1.6667526e-38
-0.093704917 0.20550579 0.8175 1.5285678e-38
-0.089650951 0.20583831 0.81811112 1.4084982e-38
-0.085417241 0.20600684 0.81877786 1.2243597e-38
-0.081850857 0.20606314 0.81900012 1.3349543e-38
-0.078440405 0.20588364 0.81900012 1.2614199e-38
-0.073952965 0.20606314 0.81900012 1.187626e-38
-0.14000805 0.21180704 0.81900001 5.7453237e-44
-0.13751744 0.21128979 0.81699997 9.1866325e-41
-0.13426414 0.21180706 0.81900001 0
-0.12995619 0.21180706 0.81900001 0
-0.12564825 0.21108904 0.81900001 1.2889367e-39
-0.1223092 0.21092229 0.81779999 1.0673752e-38
-0.11825137 0.20926866 0.8175 2.1095461e-38
-0.11459786 0.20842485 0.81699997 2.01735e-38
-0.093110763 0.20985733 0.81700003 1.2336164e-38
-0.089529574 0.20985731 0.81699997 1.2243964e-38
-0.085417241 0.21031435 0.81877786 1.2429397e-38
-0.081850857 0.21037106 0.81900012 1.2426178e-38
-0.079122506 0.21008387 0.81900007 1.2430872e-38
-0.073234975 0.20893508 0.81900001 1.1970997e-38
-0.14000805 0.21396101 0.81900001 2.1019477e-44
-0.13751744 0.21415477 0.81700003 8.4077908e-45
-0.13404554 0.21432832 0.81766671 0
-0.13016981 0.21376404 0.8173334 0
-0.12605764 0.21272227 0.81699997 0
-0.1231927 0.21272227 0.81699997 0
-0.093110755 0.21272227 0.81699997 1.3536884e-38
-0.089120306 0.21395011 0.81700003 1.2246122e-38
-0.085585333 0.21411844 0.81842858 1.2430853e-38
-0.14510639 0.21859209 0.8186 4.4246503e-39
-0.14188917 0.21821041 0.81788892 9.1838299e-41
-0.13966614 0.21773593 0.81699997 1.8367099e-40
-0.092872016 0.21940714 0.81700003 1.0586916e-38
-0.089529574 0.21845219 0.81699997 1.031361e-38
-0.085685574 0.21715753 0.8186 1.0036297e-38
-0.14862393 0.2218589 0.81900001 8.109984e-39
-0.1463993 0.22181962 0.81779999 6.8196025e-39
-0.14396356 0.22131711 0.81699997 0
-0.093631677 0.22239473 0.81779999 1.0128863e-38
-0.089676276 0.22239628 0.81833333 1.0038824e-38
-0.086876795 0.2218589 0.81900001 1.0683485e-38
-0.14844245 0.2251727 0.81799996 8.2954543e-39
-0.14682852 0.22489828 0.81699997 7.5578907e-39
-0.097953595 0.22610322 0.81728572 1.0315406e-38
-0.094871633 0.22576988 0.8186 1.0868598e-38
-0.089748755 0.22473089 0.81900001 9.8544311e-39
-0.086876787 0.22473088 0.81900001 1.1972071e-38
-0.096691944 0.22847947 0.81699997 1.0315401e-38
-0.094871633 0.23064871 0.8186 8.0098066e-39
-0.095259465 0.2327769 0.81699997 7.7288897e-39
-0.10600302 0.23922303 0.81699997 0
-0.13266596 0.24238515 0.81799996 0
-0.13035506 0.2428042 0.81699997 0
-0.11244915 0.2428042 0.81699997 0
-0.10929227 0.24259466 0.81749994 0
-0.10583172 0.24167542 0.81900007 8.2940194e-40
-0.10195458 0.24196261 0.81900001 8.8417407e-39
-0.13282815 0.24483457 0.81900001 0
-0.1294394 0.24489462 0.81799996 0
-0.12639984 0.24539213 0.81766665 0
-0.12390893 0.24566916 0.81699997 0
-0.11254092 0.2458708 0.81766665 0
-0.10970304 0.24593762 0.81788892 0
-0.11674656 0.24853411 0.81699997 2.1122164e-39
-0.11459786 0.24853411 0.81699997 2.9441169e-39
0.11399646 0.15079281 0.82300001 2.3509886e-38
0.11616097 0.15079281 0.82300001 2.3509886e-38
0.107503 0.15440029 0.82300001 2.3509886e-38
0.11020861 0.15385917 0.82300001 2.3509886e-38
0.11399647 0.15367879 0.82300007 2.3509886e-38
0.11742358 0.15385917 0.82300001 2.3509886e-38
0.12163661 0.15402508 0.82100004 2.3509886e-38
0.12451559 0.15330532 0.82099998 2.3509886e-38
0.107503 0.15872926 0.82300001 2.3140744e-38
0.11038898 0.15800776 0.82300001 2.341733e-38
0.11439776 0.15799482 0.82200003 2.3509886e-38
0.11781061 0.15752685 0.82157153 2.3509886e-38
0.12122533 0.15741816 0.82100004 2.3509886e-38
0.107503 0.16233675 0.82300007 1.8526651e-38
0.11038899 0.16233675 0.82300001 1.963336e-38
0.11446977 0.16198646 0.82122225 2.0557467e-38
0.1180379 0.16194224 0.82100004 2.1479422e-38
0.12091687 0.16194223 0.82100004 2.1664174e-38
0.11111049 0.16594423 0.82300001 1.2624329e-38
0.11472349 0.16596465 0.82157147 1.2901622e-38
0.11767802 0.16590083 0.82099998 1.3547717e-38
0.12163661 0.16530105 0.82099998 1.6036266e-38
0.11464739 0.1687272 0.82249999 9.1252052e-39
0.11731815 0.16985941 0.82099998 9.7698683e-39
-0.084827721 0.18719611 0.82233334 2.0633398e-38
-0.081669971 0.1866394 0.82200003 1.9527767e-38
-0.078343317 0.18676287 0.82175004 1.7958633e-38
-0.075304344 0.1866397 0.82200003 1.952702e-38
-0.069263674 0.18686762 0.82300001 1.6207998e-38
-0.062048711 0.18686762 0.82300001 1.5649794e-38
-0.088744089 0.19119661 0.82300001 1.8883095e-38
-0.085799493 0.19003364 0.82242858 1.869727e-38
-0.082050741 0.19001222 0.82099998 1.7775307e-38
-0.078452021 0.18929248 0.82099998 1.5837023e-38
-0.073772959 0.18935883 0.82233334 1.7588396e-38
-0.069891073 0.18949625 0.82188892 1.6575332e-38
-0.065620348 0.18965037 0.8225556 1.8512187e-38
-0.062048715 0.18975362 0.82300007 1.408389e-38
-0.05988422 0.18975362 0.82300007 1.4636693e-38
-0.10100953 0.19552559 0.82300001 2.1187275e-38
-0.098123543 0.1948041 0.82300001 2.0264965e-38
-0.094440088 0.19464573 0.82233334 2.026423e-38
-0.089978874 0.19420359 0.82274997 1.8603648e-38
-0.085789718 0.19392537 0.82233334 1.8235213e-38
-0.082050741 0.19361095 0.82100004 1.8880567e-38
-0.069815099 0.19217148 0.82099998 1.4729263e-38
-0.065496646 0.19361094 0.82100004 1.399422e-38
-0.062048715 0.1940826 0.82300007 1.2887511e-38
-0.05988422 0.1940826 0.82300007 1.3258816e-38
-0.108946 0.19985458 0.82300001 2.1555689e-38
-0.10590537 0.19812158 0.82179993 2.1556043e-38
-0.10156679 0.19736922 0.82166672 2.007949e-38
-0.097885087 0.19720966 0.82099998 2.0356797e-38
-0.094286375 0.19720966 0.82100004 1.8974919e-38
-0.089896686 0.19798967 0.82199997 1.878947e-38
-0.085788943 0.19825047 0.82233334 1.6576056e-38
-0.082194686 0.19764151 0.82100004 1.5837751e-38
-0.069095358 0.19864914 0.82099998 1.4825784e-38
-0.065531321 0.19803695 0.82144445 1.4365518e-38
-0.062048703 0.19841158 0.82300007 1.2153229e-38
-0.05988422 0.19696859 0.82300001 1.2614531e-38
-0.11327497 0.20274055 0.82300001 2.1190522e-38
-0.11043567 0.20231339 0.82199997 2.164859e-38
-0.10724175 0.20080838 0.82099998 2.0080189e-38
-0.089248165 0.20080838 0.82099998 2.0631916e-38
-0.085649453 0.20152812 0.82100004 1.5929962e-38
-0.069815099 0.20224786 0.82100004 1.1692939e-38
-0.065769657 0.20204724 0.82185721 1.187661e-38
-0.062048711 0.20201907 0.82300001 1.1146972e-38
-0.059162721 0.20201907 0.82300001 7.0900349e-39
-0.12048995 0.20634803 0.82300001 2.1096539e-38
-0.11777753 0.20600247 0.8222 2.0541554e-38
-0.11454999 0.20532532 0.82180005 2.0727013e-38
-0.069815099 0.20584659 0.82100004 1.1420294e-38
-0.065944791 0.20533796 0.82300007 9.208361e-39
-0.062048715 0.20562655 0.82300007 4.9673901e-39
-0.05988422 0.20418355 0.82300001 5.1499877e-39
-0.13363233 0.21040496 0.82099998 1.4012985e-44
-0.13027355 0.21016502 0.82100004 0
-0.12631495 0.20980518 0.82099998 2.9452183e-39
-0.12146654 0.20907222 0.82180005 2.0173463e-38
-0.11875764 0.20800582 0.82099998 1.9621044e-38
-0.077012531 0.2094453 0.82099998 1.1321627e-38
-0.074493431 0.21052492 0.82099998 1.1971342e-38
-0.070118427 0.20932609 0.8221429 8.564079e-39
-0.067099191 0.20923403 0.82300001 6.2595218e-39
-0.14550184 0.2152465 0.82300007 7.9266536e-39
-0.14268364 0.21474475 0.82200003 2.7654919e-39
-0.082050741 0.2144835 0.82099998 1.0956108e-38
-0.078272089 0.21394369 0.82100004 1.095933e-38
-0.074313492 0.21358381 0.82100004 4.6911465e-39
-0.14898686 0.21880196 0.82099998 7.925583e-39
-0.14668368 0.21750644 0.82100004 7.2812912e-39
-0.14322892 0.21664272 0.82099998 1.2871319e-39
-0.084689796 0.21904187 0.82099998 9.1172374e-39
-0.081906788 0.21779433 0.82100004 9.7618725e-39
-0.078631952 0.21790227 0.82100004 6.9049122e-39
-0.075093217 0.21712255 0.82099998 3.49226e-39
-0.084929705 0.2209612 0.82099998 8.7495226e-39
-0.082972117 0.22005647 0.82300001 8.9328391e-39
-0.092846885 0.22599939 0.82099998 9.025769e-39
-0.089967906 0.22671913 0.82099998 7.6388829e-39
-0.093422674 0.2293102 0.82100004 8.8421064e-39
-0.090255804 0.22873442 0.82100004 7.5491788e-39
-0.10508252 0.24327323 0.82099998 5.7056838e-39
-0.13347688 0.24747334 0.82300001 0
-0.13099328 0.24687195 0.82099998 0
-0.10461701 0.24458736 0.82300001 9.2069429e-39
-0.10317402 0.24458736 0.82300001 9.1157912e-39
-0.13027355 0.24831145 0.82099998 0
-0.11347954 0.25071058 0.82099998 4.9698788e-39
-0.11012074 0.2504707 0.82100004 5.9815182e-39
0.10657549 0.15080069 0.82700002 2.3509886e-38
0.10929783 0.15055756 0.82566667 2.3509886e-38
0.1125859 0.15019491 0.82499999 2.3509886e-38
0.10295047 0.15587571 0.82700002 2.3509886e-38
0.10613084 0.15449093 0.82579994 2.3509886e-38
0.11210375 0.15260574 0.82499999 2.3509886e-38
0.10295048 0.15805072 0.82700002 2.3048191e-38
0.10590447 0.15818511 0.82499999 2.314074e-38
0.10295048 0.16167575 0.82700008 2.0187972e-38
0.10559449 0.16200799 0.82499999 1.9449325e-38
0.10319214 0.16505909 0.82700002 1.603484e-38
0.10620093 0.16590631 0.82549995 1.3086019e-38
0.10921074 0.1663475 0.82499999 1.2255894e-38
0.11092551 0.16892578 0.82700002 9.2163134e-39
0.11310051 0.16965078 0.82700002 9.4010704e-39
-0.069600314 0.17907582 0.82700002 1.9893649e-38
-0.065975308 0.17907582 0.82700002 1.9157894e-38
-0.061625283 0.17907582 0.82700002 1.740148e-38
-0.058000267 0.17907582 0.82700002 1.7585526e-38
-0.081925377 0.18342584 0.82700002 1.9712143e-38
-0.077789612 0.1823784 0.82620001 1.9157893e-38
-0.074312404 0.1826684 0.82620001 1.9615616e-38
-0.070325315 0.18197584 0.82700008 2.0078036e-38
-0.065975301 0.18197584 0.82700008 1.9985494e-38
-0.061625283 0.18197584 0.82700008 1.7588747e-38
-0.058000267 0.18197584 0.82700008 1.8049367e-38
-0.054375257 0.18284585 0.82700008 1.7035214e-38
-0.050991904 0.18294251 0.82700002 1.7958272e-38
-0.093162932 0.18741335 0.82700002 2.1924108e-38
-0.089846492 0.18693732 0.8265 2.1002516e-38
-0.086393133 0.18571796 0.82614291 2.0541549e-38
-0.082139276 0.18490215 0.82550001 2.0449353e-38
-0.078110993 0.18442874 0.82499999 1.8882388e-38
-0.074042097 0.1854676 0.8253333 1.8051546e-38
-0.070361897 0.18546195 0.82499999 1.6852279e-38
-0.065833479 0.18592493 0.82522219 1.7127075e-38
-0.061311685 0.18558972 0.82557142 1.7863547e-38
-0.057906758 0.18602428 0.82566667 1.915464e-38
-0.054360252 0.18627539 0.82677782 1.5835569e-38
-0.049997956 0.18622495 0.82655555 1.7405804e-38
-0.047125217 0.18632585 0.82700002 1.279712e-38
-0.10077546 0.19067587 0.82700002 2.1740434e-38
-0.097360715 0.19047724 0.82614291 2.1647518e-38
-0.094022498 0.19021475 0.82499999 2.1186188e-38
-0.090587057 0.19003394 0.82499993 2.0448627e-38
-0.087513246 0.18876824 0.82499999 2.1739009e-38
-0.057859994 0.19021474 0.82499999 1.5190953e-38
-0.05447299 0.19020598 0.82574999 1.4268999e-38
-0.049984321 0.18979833 0.8263334 1.454993e-38
-0.047125217 0.18995087 0.82700002 1.0956821e-38
-0.11310051 0.19502591 0.82700002 1.6030103e-38
-0.11092551 0.19502591 0.82700002 1.79669e-38
-0.10512548 0.19502591 0.82700002 2.1004332e-38
-0.10198285 0.19363922 0.8265 2.1188702e-38
-0.098060429 0.19286227 0.82550001 2.1924101e-38
-0.09402249 0.19310774 0.82499999 2.0633736e-38
-0.091852747 0.19310774 0.82499999 1.9157537e-38
-0.057859994 0.19383098 0.82499999 1.3259179e-38
-0.054110743 0.19378905 0.82614291 1.2892202e-38
-0.050025228 0.1935759 0.82700008 1.1696535e-38
-0.047125217 0.1935759 0.82700002 7.7335644e-39
-0.11672553 0.19865091 0.82700002 1.6952462e-38
-0.11382551 0.1979259 0.82700008 2.0639167e-38
-0.10985197 0.19764988 0.82671434 2.1742604e-38
-0.10638218 0.19684277 0.82550001 2.1741158e-38
-0.10342474 0.19600074 0.82499999 2.1095083e-38
-0.060029745 0.19889374 0.82499999 1.2154259e-38
-0.057929259 0.19768658 0.82599998 1.2245757e-38
-0.054556504 0.19774465 0.82700008 1.0312891e-38
-0.050387733 0.19683841 0.82700002 8.1023722e-39
-0.1212649 0.20275109 0.82499999 1.5568766e-38
-0.11777994 0.20208898 0.82550001 2.0452612e-38
-0.11407888 0.20138554 0.8253333 2.1190512e-38
-0.11065724 0.20034024 0.82499999 2.1097215e-38
-0.060029745 0.20034024 0.82499999 1.2062824e-38
-0.05760226 0.20179202 0.82650006 9.298756e-39
-0.055341922 0.20130926 0.82700002 9.2079925e-39
-0.12570553 0.20725714 0.82566667 1.3257832e-38
-0.1227282 0.20606187 0.82557142 2.0637339e-38
-0.11788975 0.20467973 0.82499999 2.1279845e-38
-0.064851418 0.20709059 0.82499999 6.6261841e-39
-0.12801524 0.20901924 0.82499999 6.4284847e-40
-0.12584549 0.20901924 0.82499999 1.1312332e-38
-0.12367574 0.20901924 0.82499999 1.9253338e-38
-0.069431998 0.21191223 0.82499999 4.4174309e-39
-0.065092497 0.20974249 0.82499999 6.9956687e-39
-0.062922746 0.20901924 0.82499999 6.8116208e-39
-0.070963532 0.21361735 0.82599998 5.3354271e-39
0.099805862 0.15080157 0.83099997 2.3509886e-38
0.10223423 0.1503159 0.83100003 2.3509886e-38
0.10522103 0.15007451 0.82966661 2.3509886e-38
0.10828674 0.1489851 0.829 2.3509886e-38
0.098931648 0.15429841 0.83099997 2.3509886e-38
0.10241328 0.15371189 0.82999992 2.3509886e-38
0.10546329 0.15298331 0.82966661 2.3509886e-38
0.09446346 0.15857235 0.83099997 2.2586845e-38
0.098216176 0.1578749 0.82988882 2.3047827e-38
0.10101917 0.1577062 0.829 2.2955277e-38
0.091063753 0.16245772 0.83100003 2.0095776e-38
0.093952268 0.1624139 0.8307777 1.9911023e-38
0.098112151 0.16206671 0.829 2.0003216e-38
0.10101917 0.16206673 0.829 2.0095772e-38
0.093939513 0.16603392 0.83066666 1.5208324e-38
0.098293841 0.16624556 0.829 1.3086016e-38
0.10198818 0.16691177 0.829 1.2439212e-38
0.0954348 0.1682858 0.83099997 1.0966228e-38
0.098348841 0.16925715 0.83100003 1.0136829e-38
0.10263633 0.16960666 0.83033335 9.6776615e-39
0.10610647 0.17006105 0.829 9.586549e-39
0.10944956 0.17020641 0.829 9.1244905e-39
0.11264727 0.17078781 0.829 9.9545847e-39
-0.069208443 0.17557091 0.83099997 2.2936806e-38
-0.066041186 0.17440945 0.83042854 2.1183999e-38
-0.061889842 0.17401998 0.8305555 2.0538286e-38
-0.057552289 0.1748424 0.83099997 1.8600734e-38
-0.054638244 0.17557091 0.83099997 1.8416355e-38
0.11119376 0.17224132 0.829 9.6783705e-39
0.11337403 0.17224132 0.829 1.0138996e-38
-0.081593111 0.17994195 0.83099997 2.1737547e-38
-0.077586308 0.17957769 0.83099997 1.9619581e-38
-0.073822349 0.17848495 0.83099997 2.0631925e-38
-0.070495397 0.17781314 0.829 2.1460956e-38
-0.066134863 0.17732863 0.829 1.9432651e-38
-0.061774313 0.17732863 0.829 1.9614518e-38
-0.057731479 0.17726849 0.8294 1.9153927e-38
-0.054357495 0.17834359 0.82950002 1.7770998e-38
-0.0504057 0.17865428 0.82985717 1.7587316e-38
-0.047353148 0.17994195 0.83099997 1.6019657e-38
-0.085860729 0.18336269 0.82999992 2.0817062e-38
-0.082222566 0.18190745 0.83000004 2.1276949e-38
-0.077826664 0.18110794 0.82966661 1.9617779e-38
-0.074129179 0.18096241 0.829 2.0169861e-38
-0.054506745 0.18132579 0.829 1.703342e-38
-0.049661703 0.18193142 0.829 1.7497296e-38
-0.047315162 0.18270813 0.83033335 1.4731426e-38
-0.09689182 0.18722706 0.83099997 2.2847507e-38
-0.094133489 0.18608318 0.82980007 2.256984e-38
-0.089498013 0.18481798 0.82999998 2.1001438e-38
-0.045130797 0.18562043 0.83033335 1.3441389e-38
-0.10490543 0.1908696 0.83099997 1.9991269e-38
-0.10232891 0.19024804 0.8301999 2.0911768e-38
-0.098535575 0.18870687 0.82949996 2.0635193e-38
-0.045112386 0.18991229 0.83000004 1.141562e-38
-0.10897334 0.19452129 0.82979995 2.1004001e-38
-0.10635421 0.19393916 0.82980007 2.1557157e-38
-0.1039262 0.1925905 0.829 2.0726988e-38
-0.045896124 0.19378364 0.83099997 7.4544594e-39
-0.053053234 0.19985808 0.829 6.3502811e-39
-0.050146207 0.19888908 0.829 8.1005435e-39
0.067022912 0.23895127 0.83099997 1.3996748e-38
0.067022912 0.2411368 0.83099997 1.2338671e-38
0.089306027 0.15152745 0.83499998 2.3509886e-38
0.098176442 0.15079865 0.83366668 2.3509886e-38
0.10077634 0.14970398 0.833 2.3509886e-38
0.086064242 0.15466467 0.83499998 2.3509886e-38
0.089855038 0.15463851 0.83499998 2.3509886e-38
0.094541356 0.15471427 0.83414292 2.3509886e-38
0.097913578 0.15344691 0.83349997 2.3509886e-38
0.085825287 0.15837446 0.83471429 2.2862718e-38
0.089846738 0.15850903 0.83322227 2.194005e-38
0.093230292 0.15749346 0.83300006 2.3323698e-38
0.085359484 0.16176406 0.83399999 2.1202114e-38
0.089092121 0.16211845 0.833 2.0650019e-38
0.085622765 0.16612394 0.83477777 1.7327744e-38
0.08963982 0.16595234 0.83300006 1.6959681e-38
-0.068809569 0.17055987 0.83499998 2.1738636e-38
-0.066224985 0.17119108 0.83380002 2.1460251e-38
-0.062171731 0.17042254 0.83433336 2.1275491e-38
-0.057783142 0.17042254 0.83433336 2.0629774e-38
-0.05416923 0.17055987 0.83499998 2.0445006e-38
0.086377963 0.16909584 0.83499998 1.4006588e-38
0.090001516 0.16976038 0.83466667 1.2440645e-38
0.093911864 0.16956715 0.833 1.0873326e-38
0.097125024 0.17015135 0.833 1.0043913e-38
-0.084181905 0.17495197 0.83499998 2.3490024e-38
-0.081985861 0.17495197 0.83499998 2.2752452e-38
-0.07803297 0.17436635 0.83499998 2.3121569e-38
-0.07387495 0.17407939 0.83433336 2.247476e-38
-0.07028199 0.17366679 0.83385724 2.2843533e-38
-0.067184225 0.17307241 0.833 2.1830109e-38
-0.057690799 0.17307243 0.83300006 2.0445742e-38
-0.053972237 0.17360742 0.83357155 1.8693644e-38
-0.050582964 0.17440668 0.83380002 1.8230522e-38
-0.046679869 0.17486747 0.83459997 1.675504e-38
-0.10028628 0.17934407 0.83499998 3.3190399e-39
-0.085401937 0.17788005 0.83499998 2.2936822e-38
-0.082158566 0.17778338 0.83357155 2.1829032e-38
-0.07839109 0.1774299 0.83375007 2.2107057e-38
-0.07521712 0.17745399 0.833 2.1092909e-38
-0.049657904 0.17745399 0.833 1.740076e-38
-0.045878369 0.17784871 0.83399999 1.6018189e-38
-0.042456966 0.17788005 0.83499998 1.4726721e-38
-0.10101829 0.18227214 0.83499998 1.2988771e-38
-0.098334238 0.18324816 0.83499998 2.155895e-38
-0.089443371 0.1825407 0.83400005 2.183192e-38
-0.086171068 0.1811053 0.833 2.2200697e-38
-0.083980277 0.18037504 0.833 2.2843204e-38
-0.045276325 0.18183558 0.83300006 1.5559739e-38
-0.042456966 0.18227214 0.83499998 1.4361541e-38
-0.10150661 0.18621714 0.83300006 2.0730644e-38
-0.09809532 0.18610246 0.83380002 2.2847858e-38
-0.094280526 0.18490449 0.83366668 2.0819939e-38
-0.091282912 0.18475662 0.833 2.1001794e-38
-0.042541299 0.18610318 0.83380002 1.3165558e-38
-0.10564622 0.1895204 0.83339995 1.8242831e-38
-0.10296713 0.18913819 0.833 2.063883e-38
-0.043085534 0.18986845 0.833 1.335321e-38
-0.10880923 0.19205925 0.833 1.9720456e-38
-0.10734871 0.19205925 0.833 2.0730636e-38
-0.044599537 0.1944841 0.83399999 9.2987293e-39
-0.043188982 0.19252037 0.83499998 8.559721e-39
0.0352832 0.20979595 0.83499998 1.9062097e-38
0.037332848 0.21008877 0.83499998 1.9247566e-38
0.050509147 0.2115528 0.83499998 1.7496582e-38
0.035868812 0.21301684 0.83499998 2.0539332e-38
0.038064864 0.21374887 0.83499998 2.0908158e-38
0.042355269 0.21542768 0.833 1.6205123e-38
0.050661467 0.21435155 0.83450001 1.7680609e-38
0.05416923 0.21448088 0.83499998 1.5559765e-38
0.057411019 0.21469003 0.83499998 1.5468292e-38
0.042355269 0.2168882 0.833 1.6205068e-38
0.050630383 0.21808073 0.83357155 1.8326676e-38
0.054083318 0.21852289 0.83366674 1.7221092e-38
0.057829313 0.21814096 0.83499998 1.5744834e-38
0.050509147 0.220337 0.83499998 1.8050811e-38
0.054326739 0.22193488 0.83366668 1.7956062e-38
0.057829309 0.22180104 0.83499998 1.6484567e-38
0.061489396 0.22180104 0.83499998 1.5657337e-38
0.057829313 0.22472911 0.83499998 1.6206199e-38
0.062221415 0.22765717 0.83499998 1.8052973e-38
0.065149479 0.22765717 0.83499998 1.6578925e-38
0.062221415 0.22985321 0.83499998 1.7680958e-38
0.065881498 0.22985321 0.83499998 1.6209072e-38
0.068077549 0.22985321 0.83499998 1.5196733e-38
0.058561325 0.23278129 0.83499998 1.5284954e-38
0.062404417 0.23333031 0.83499998 1.473072e-38
0.066072322 0.23430057 0.83433336 1.4732522e-38
0.069541581 0.23351331 0.83499998 1.5749526e-38
0.063685447 0.23644136 0.83499998 1.390527e-38
0.066127844 0.23784405 0.83350003 1.436482e-38
0.07021749 0.23771429 0.83433336 1.0953933e-38
0.072469644 0.23936942 0.83499998 1.0954665e-38
0.070147797 0.24113198 0.83350003 1.0310729e-38
0.072469644 0.24083348 0.83499998 1.0770268e-38
0.079980925 0.15189038 0.83700001 2.3509451e-38
0.082182236 0.15189038 0.83700001 2.3509867e-38
0.08637505 0.15097135 0.83733338 2.3509866e-38
0.090617903 0.15025878 0.83842856 2.3509886e-38
0.094072178 0.1506613 0.83833331 2.3509886e-38
0.096710883 0.15012935 0.83700001 2.3509886e-38
0.062494062 0.15439825 0.83866662 2.2113958e-38
0.066158086 0.15436742 0.83849996 1.9071814e-38
0.068894021 0.15470508 0.83899999 1.7779612e-38
0.079980925 0.1540917 0.83700001 2.3509886e-38
0.082182236 0.1540917 0.83700001 2.3509886e-38
0.084383547 0.1540917 0.83700001 2.3509886e-38
0.091721244 0.15335792 0.83700001 2.3509886e-38
0.093922555 0.15335792 0.83700001 2.3509886e-38
0.058841862 0.1581375 0.83899993 2.2020999e-38
0.062370446 0.15776055 0.83699995 1.8979282e-38
0.066119075 0.15794903 0.838 1.8244233e-38
0.068992093 0.15784329 0.83899993 1.584531e-38
0.081512176 0.15788621 0.83766663 2.3416612e-38
0.058255628 0.16196428 0.83814281 1.8334983e-38
0.062387396 0.16220583 0.83722222 1.9162607e-38
0.065461569 0.16181512 0.83899999 1.7136073e-38
0.078700989 0.16181512 0.83899999 2.2029321e-38
0.081679687 0.16207616 0.83749998 2.1109201e-38
-0.061783958 0.16696379 0.83899999 2.0721586e-38
0.058596693 0.16500241 0.83899999 1.990122e-38
0.062421292 0.16522974 0.83766669 1.7138638e-38
0.065461569 0.1640217 0.83899999 1.7413375e-38
0.081512168 0.16547374 0.83766669 1.8342614e-38
-0.08017204 0.17137693 0.83899999 2.349034e-38
-0.077658936 0.17075041 0.83833331 2.349144e-38
-0.074199311 0.17043714 0.838 2.3121942e-38
-0.069791429 0.16945761 0.838 2.2752791e-38
-0.066118196 0.16896784 0.838 2.1829762e-38
-0.062421292 0.16816716 0.83766669 2.1458442e-38
-0.058059003 0.16830099 0.83833331 2.1088581e-38
-0.053629205 0.16945761 0.838 2.0628326e-38
-0.05022043 0.17075041 0.83833331 1.8692556e-38
-0.047073491 0.17137693 0.83899999 1.9796026e-38
0.082280129 0.16970456 0.838 1.6312867e-38
0.085534617 0.17070365 0.83750004 1.446824e-38
-0.085680664 0.17444633 0.83820003 2.2937904e-38
-0.082280427 0.17337573 0.838 2.1738277e-38
-0.078880265 0.17280284 0.83700001 2.330487e-38
-0.049896359 0.17243595 0.83700001 1.8691857e-38
-0.046000276 0.17327018 0.83820003 1.8320903e-38
-0.041880023 0.17413318 0.83811104 1.7492948e-38
-0.038614973 0.17468679 0.83899999 1.7032348e-38
0.087036923 0.17333834 0.83899999 1.188855e-38
0.090175152 0.1734364 0.83899993 1.0137203e-38
0.094033897 0.17264196 0.838 9.7684376e-39
0.096123867 0.17243595 0.83700001 1.004538e-38
-0.088927612 0.17858897 0.83833331 2.1924818e-38
-0.087318629 0.17757234 0.83700001 2.2383642e-38
-0.040357348 0.1783061 0.83700007 1.4174966e-38
-0.038338561 0.17818232 0.83779997 1.6019619e-38
-0.09697248 0.18292701 0.838 2.1558231e-38
-0.094146982 0.1831453 0.83899999 2.1924482e-38
-0.090814769 0.18138437 0.83766669 2.2662026e-38
-0.040357348 0.18197495 0.83700001 1.408246e-38
-0.038062938 0.18179454 0.83820003 1.5098749e-38
-0.096123867 0.18417627 0.83700001 2.1740446e-38
-0.093922555 0.18417627 0.83700001 2.1186915e-38
-0.040357348 0.18564379 0.83700007 1.3071168e-38
-0.038170945 0.18571715 0.83733332 1.3255558e-38
-0.041139334 0.19027349 0.838 1.2615628e-38
-0.038492389 0.18951985 0.83899999 1.3629759e-38
-0.042608626 0.19394584 0.838 7.2693563e-39
-0.043395873 0.19638473 0.83899999 1.2987978e-38
0.047220599 0.19814998 0.83899993 1.7588742e-38
0.049936101 0.19754016 0.83766669 2.0263509e-38
0.053325437 0.19895905 0.83899999 1.7036328e-38
-0.036040641 0.20300442 0.83899999 1.4088571e-38
-0.034569595 0.20300442 0.83899999 1.3911102e-38
0.033753417 0.20325428 0.83700001 1.6388045e-38
0.038982734 0.20373996 0.83899999 1.6666074e-38
0.042415179 0.2032496 0.83899999 1.6021055e-38
0.046437688 0.20209116 0.83749998 1.6849358e-38
0.049896359 0.20178674 0.83700001 1.768023e-38
0.053622875 0.20200022 0.83788884 1.7035574e-38
0.057223707 0.20256312 0.83899993 1.6760791e-38
0.03155211 0.2054556 0.83700001 2.1368053e-38
0.034303747 0.2063728 0.83699995 1.989436e-38
0.037879892 0.20618936 0.83785713 1.8788387e-38
0.041869696 0.20640717 0.83788884 2.0630474e-38
0.046251275 0.20629844 0.83744437 1.8604333e-38
0.049896359 0.20618936 0.83700001 1.7220682e-38
0.053629212 0.20570195 0.838 1.7497993e-38
0.057646967 0.2065403 0.83842856 1.6484596e-38
0.063255005 0.20668206 0.83899999 1.5007317e-38
0.033019651 0.20912445 0.83700001 1.8876258e-38
0.038889807 0.20985821 0.83700001 1.8879495e-38
0.041824888 0.20985822 0.83700001 1.7311086e-38
0.046227507 0.20985822 0.83700001 1.7586954e-38
0.049896359 0.20985821 0.83700001 1.795718e-38
0.053607877 0.20928986 0.83766663 1.7958624e-38
0.05819777 0.20961465 0.83728576 1.7038467e-38
0.062452469 0.20940129 0.83811104 1.5014863e-38
0.065357551 0.20928983 0.83766669 8.8435217e-39
0.034487188 0.21205953 0.83700001 1.9892574e-38
0.038889807 0.21205953 0.83700001 1.805337e-38
0.041824888 0.21352705 0.83699995 1.7313984e-38
0.046227507 0.21352705 0.83699995 1.6572065e-38
0.049162589 0.21499459 0.83700001 1.8784431e-38
0.054298978 0.21205953 0.83700001 1.5282406e-38
0.058554847 0.21294005 0.83700001 1.5467904e-38
0.062370453 0.21352704 0.83699995 1.6761179e-38
0.065305531 0.21352707 0.83700007 1.161229e-38
0.038889807 0.21646215 0.83700001 1.777135e-38
0.040357348 0.21646215 0.83700001 1.777135e-38
0.046227507 0.21792968 0.83699995 1.6943737e-38
0.062224701 0.21787687 0.83749998 1.5008021e-38
0.065461569 0.21771489 0.83899999 1.2892555e-38
0.047695052 0.22086476 0.83700001 1.8419589e-38
0.049651772 0.22184312 0.83700007 1.7588745e-38
0.06383799 0.2223323 0.83700007 1.4827949e-38
0.065847896 0.22299856 0.83766669 1.4920501e-38
0.055032749 0.2252674 0.83700001 1.6849402e-38
0.057967827 0.22673492 0.83700007 1.6390576e-38
0.062370449 0.22600114 0.83700001 1.5841383e-38
0.066217959 0.22566786 0.83739996 1.4551365e-38
0.070058592 0.22598952 0.83899987 1.5655889e-38
0.072816804 0.22727671 0.83899999 1.6760483e-38
0.058151275 0.22948657 0.83699995 1.7126338e-38
0.066773064 0.22820246 0.83700001 1.5288186e-38
0.07012745 0.22946037 0.83700001 1.6579679e-38
0.074016303 0.23012739 0.83799994 1.3074433e-38
0.073972471 0.23402855 0.83749998 1.2705998e-38
0.077229947 0.2338964 0.83899999 1.1414934e-38
0.074361935 0.23795386 0.83774996 1.114012e-38
0.073465541 0.2424325 0.838 1.0312171e-38
0.054688219 0.14632794 0.84299999 1.0320876e-38
0.058383368 0.14632794 0.84300005 1.8795967e-38
0.061832175 0.14657429 0.84300005 2.1559983e-38
0.065034635 0.14706697 0.84299999 2.2941484e-38
0.054836024 0.1503187 0.84300005 1.7785807e-38
0.058383364 0.15002309 0.84299999 2.0818861e-38
0.062004592 0.14984396 0.84200001 2.1924469e-38
0.065669633 0.14978462 0.8416667 2.3218082e-38
0.070059404 0.14970632 0.84122229 2.3041305e-38
0.073815629 0.1498463 0.84200001 1.8159296e-38
0.076120086 0.15002309 0.84299999 8.297276e-39
0.054101069 0.15454996 0.84249997 1.9624645e-38
0.058291033 0.15421179 0.8416667 1.9619573e-38
0.061931238 0.15261626 0.84100002 2.3494677e-38
0.065617621 0.15261626 0.84100002 2.1280575e-38
0.070532799 0.15359929 0.84100002 2.1099774e-38
0.073163971 0.15445726 0.84300005 1.9348805e-38
0.079076201 0.15519628 0.84299999 2.1946512e-38
0.050993066 0.15815242 0.84299999 1.9256212e-38
0.054103982 0.1583076 0.84214288 1.8332448e-38
0.056770306 0.15851448 0.84100002 1.8239864e-38
0.071024321 0.15851448 0.84100002 1.6032609e-38
0.073163964 0.15815242 0.84299999 1.9352365e-38
0.079076201 0.15815242 0.84299999 2.3509886e-38
0.050993066 0.1603695 0.84299999 2.1832297e-38
0.054151695 0.16171899 0.84233344 1.8608317e-38
0.067092173 0.16220087 0.84100002 1.9072181e-38
0.069660813 0.16171956 0.84233332 1.6770551e-38
0.078337178 0.16184756 0.84299999 2.1663441e-38
-0.077598147 0.16775981 0.84300005 2.2937911e-38
-0.073902994 0.16775979 0.84299999 2.2660599e-38
-0.070207849 0.16775981 0.84300005 2.155424e-38
-0.065447547 0.16708897 0.84260005 2.31212e-38
-0.062078517 0.16628174 0.84299999 2.1736485e-38
-0.058314115 0.16682176 0.84200001 2.1090391e-38
-0.054085948 0.16631725 0.84224999 2.0352832e-38
-0.049494848 0.16695444 0.84266675 2.0814142e-38
-0.04655889 0.16775979 0.84299999 2.0077656e-38
0.055427246 0.16628174 0.84300005 1.7040999e-38
0.057682037 0.16655667 0.84140009 1.8516468e-38
0.061931238 0.1673618 0.84100002 2.1009767e-38
0.066006161 0.16642025 0.84219998 1.824352e-38
0.078372419 0.16574943 0.84180003 1.8986158e-38
0.080363154 0.1673618 0.84100002 1.7419935e-38
-0.084786817 0.17178546 0.84100002 2.3493971e-38
-0.081948921 0.17054135 0.84214288 2.2846427e-38
-0.078459613 0.16946171 0.8416667 2.3216298e-38
-0.074464947 0.16883636 0.84100002 2.2292896e-38
-0.071515836 0.16883636 0.84100002 2.2015591e-38
-0.052346643 0.16883636 0.84100002 2.0537556e-38
-0.049889058 0.16932788 0.84100002 1.979927e-38
-0.046253063 0.16994698 0.84128577 2.0905614e-38
-0.042058077 0.17044476 0.8416667 1.8694403e-38
-0.039122127 0.1712507 0.84200001 1.7403278e-38
0.055427246 0.16923787 0.84299999 1.197348e-38
0.058359694 0.16990998 0.84266663 1.8143364e-38
0.062042136 0.16987652 0.84249997 1.9071154e-38
0.064295605 0.16923787 0.84299999 1.9072974e-38
0.079076201 0.16997689 0.84299999 1.7603952e-38
0.080363154 0.16957363 0.84100002 1.7327371e-38
-0.092378743 0.1751501 0.84299999 2.1929526e-38
-0.090161659 0.1751501 0.84299999 2.1467115e-38
-0.086998641 0.17399728 0.84100002 2.1831909e-38
-0.036893055 0.1733962 0.8416667 1.6847961e-38
-0.03414318 0.17396764 0.84300005 1.7309989e-38
-0.03103926 0.1751501 0.84299999 1.8325601e-38
0.059122398 0.17219399 0.84299999 1.7131043e-38
0.062078517 0.17219399 0.84299999 1.5569152e-38
0.082032338 0.17317936 0.84300005 1.5758977e-38
0.085345551 0.17438158 0.8416667 1.4007241e-38
0.092896849 0.17473456 0.84100002 9.4925569e-39
-0.097404152 0.17840183 0.84300005 1.6953154e-38
-0.093856804 0.17884526 0.84300005 2.1928449e-38
-0.090316385 0.17731503 0.84100002 2.2663103e-38
-0.036126554 0.17768368 0.84100002 1.5835263e-38
-0.033995375 0.17810623 0.84300005 1.6111091e-38
-0.03030023 0.17810622 0.84299999 1.7033036e-38
-0.026077202 0.17852852 0.84300005 1.7679873e-38
0.087944567 0.17662817 0.84299999 9.5840071e-39
0.090054706 0.17715767 0.84200001 9.1248534e-39
0.092871428 0.17712085 0.84300005 9.4014389e-39
-0.098134935 0.18151323 0.8416667 1.934629e-38
-0.093708932 0.18151323 0.8416667 2.2385451e-38
-0.036126554 0.18210733 0.84100002 1.5007977e-38
-0.033942193 0.1822511 0.84166664 1.5005464e-38
-0.030243928 0.18220279 0.84144449 1.5004742e-38
-0.02586605 0.18180138 0.84300005 1.7772792e-38
-0.022909928 0.18180138 0.84299999 1.5931408e-38
-0.036126554 0.18579371 0.84100002 1.3900207e-38
-0.033914726 0.18579371 0.84100002 1.3809453e-38
-0.030228343 0.18579373 0.84100002 1.5283485e-38
-0.025851632 0.18539836 0.84255552 1.5743755e-38
-0.02290993 0.18549651 0.84300005 1.3715105e-38
-0.036495194 0.18984875 0.84100002 1.4920851e-38
-0.03391473 0.18948011 0.84100002 1.5104857e-38
-0.030228343 0.18948013 0.84100002 1.4640318e-38
-0.026269816 0.18959132 0.84242862 1.2058819e-38
-0.022909928 0.18845263 0.84299999 1.224862e-38
0.036951497 0.19140877 0.84299999 1.8419223e-38
0.042124711 0.19140878 0.84300005 2.0449346e-38
0.04581986 0.19140877 0.84299999 1.9064631e-38
0.048775978 0.19140877 0.84299999 1.7131741e-38
-0.041073881 0.19504169 0.8416667 7.3615519e-39
-0.03760111 0.19390376 0.84100002 1.1694375e-38
-0.033968493 0.19421236 0.84233332 1.5197463e-38
-0.030235941 0.19395462 0.84122229 1.51049e-38
-0.025866048 0.19436489 0.84299999 1.7323776e-38
-0.02290993 0.19436488 0.84300005 2.3231868e-38
0.022909928 0.19584295 0.84299999 1.8504932e-38
0.02586605 0.19584295 0.84300005 1.8877697e-38
0.036951497 0.19362585 0.84299999 1.768025e-38
0.042309467 0.19418013 0.84299999 1.7867487e-38
0.046104532 0.19444329 0.84242857 1.8598937e-38
0.049669959 0.19406396 0.84250003 1.8696208e-38
0.052471127 0.19584295 0.84299999 1.666864e-38
-0.045711152 0.19832742 0.84100002 1.2154953e-38
-0.042124711 0.19781369 0.84300005 1.3541165e-38
-0.037690531 0.19806004 0.84300005 1.5569094e-38
-0.033995375 0.19806004 0.84299999 1.2803279e-38
-0.030048504 0.19810826 0.84185719 1.4924134e-38
-0.026035026 0.19849551 0.84249997 2.3045322e-38
-0.022909928 0.19806004 0.84299999 2.1479448e-38
0.01995381 0.19879906 0.84299999 1.6483131e-38
0.022307834 0.19840842 0.84259999 1.7397873e-38
0.025646633 0.19830889 0.84271425 1.8137928e-38
0.037690528 0.19879906 0.84300005 1.5653734e-38
0.042271111 0.19843656 0.84224999 1.6390568e-38
0.045342516 0.19795878 0.84100002 1.6020336e-38
0.053884316 0.19782421 0.84200001 1.6113282e-38
0.057306826 0.19946769 0.8416667 1.5469678e-38
-0.036705155 0.20076983 0.84300005 1.6117205e-38
-0.03383179 0.20136313 0.84259999 1.363125e-38
-0.030440496 0.20163946 0.84175003 1.9631185e-38
-0.0256023 0.2017657 0.84128582 2.120142e-38
-0.022318704 0.20205079 0.84300005 2.0555359e-38
0.01865459 0.20187967 0.84274995 2.1276954e-38
0.021991182 0.2017622 0.84180003 1.9157907e-38
0.026021 0.20169972 0.84200001 1.8233747e-38
0.03030023 0.20175518 0.84299999 1.7958625e-38
0.033995382 0.20175517 0.84300005 1.7221063e-38
0.03767027 0.20164803 0.84255552 1.6665378e-38
0.041549321 0.20160149 0.84133339 1.6388065e-38
0.044973876 0.20127653 0.84100002 1.721527e-38
0.059322573 0.20208833 0.84233332 1.6392011e-38
0.06133949 0.20323324 0.84299999 1.6023954e-38
-0.03317745 0.20422563 0.84100002 2.2303455e-38
-0.030228343 0.20422563 0.84100002 2.1664919e-38
-0.025804684 0.20422563 0.84100002 1.9910686e-38
-0.022909928 0.2047113 0.84299999 1.4755307e-38
0.018467858 0.2053694 0.84266675 2.1181504e-38
0.0221183 0.20422563 0.84100002 1.9341575e-38
0.027344109 0.2047113 0.84299999 1.869583e-38
0.030275099 0.20454942 0.84233332 1.7590912e-38
0.036863834 0.20422563 0.84100002 1.6665361e-38
0.042024769 0.20422563 0.84100002 1.6667484e-38
0.05971941 0.20496291 0.84100002 1.6670421e-38
0.061636239 0.20594388 0.84200001 1.5562996e-38
0.064295605 0.20618935 0.84299999 1.5837791e-38
0.067251727 0.21875286 0.84299999 1.2247187e-38
0.065944448 0.22114038 0.84139997 1.3997118e-38
0.070124567 0.22292143 0.84200001 1.5380407e-38
0.073163964 0.22392608 0.84299999 1.8607247e-38
0.068566732 0.22486937 0.84100002 1.4828298e-38
0.073945962 0.22626363 0.84180003 1.7038474e-38
0.076120086 0.22614315 0.84299999 1.4272963e-38
0.075939491 0.22929303 0.84100002 1.2887871e-38
0.077967346 0.2294704 0.84242857 1.2427633e-38
0.080554269 0.23057735 0.84299999 1.1230536e-38
0.078519963 0.23334806 0.84100002 1.1598961e-38
0.080554269 0.23427251 0.84300005 1.077207e-38
0.078041382 0.23795871 0.84140009 9.7604516e-39
0.075939491 0.24182674 0.84100002 1.0679148e-38
0.078029469 0.24147169 0.84233332 1.0587691e-38
0.07446494 0.24403857 0.84100002 1.0220331e-38
0.076120086 0.24461891 0.84299999 1.0312527e-38
0.052595615 0.14741588 0.84500003 9.3081643e-39
0.062966585 0.14519353 0.84500003 2.0363262e-38
0.065982312 0.14580195 0.84566677 2.1470341e-38
0.070144035 0.14696141 0.84580004 2.0461655e-38
0.072958246 0.14665842 0.84633338 8.6728954e-39
0.051114049 0.15186058 0.84500003 1.0599607e-38
0.052966006 0.15000862 0.84500003 1.142829e-38
0.051114049 0.15408294 0.84500003 9.6740027e-39
0.052595615 0.15334216 0.84500003 1.5115022e-38
0.074819118 0.15408294 0.84500003 1.4567896e-38
0.076481268 0.15519015 0.847 8.2118178e-39
0.074819118 0.15778685 0.84500003 1.8158551e-38
0.077041462 0.15778685 0.84500015 2.2308447e-38
-0.054817967 0.16371311 0.84500003 2.1275861e-38
0.051114049 0.16223155 0.84500003 2.1371301e-38
0.052595615 0.16297233 0.84500003 2.0449345e-38
0.070374414 0.16223155 0.84500003 1.4740476e-38
0.073738009 0.16186932 0.84619999 1.8063471e-38
0.077086613 0.16158676 0.84550005 2.1937866e-38
-0.086134255 0.16707075 0.847 2.2940067e-38
-0.083906636 0.16707075 0.847 2.3495053e-38
-0.073511124 0.16707075 0.847 2.3121217e-38
-0.070374414 0.16667625 0.84500003 2.1462395e-38
-0.065929711 0.16568854 0.84500003 2.3212691e-38
-0.061840244 0.16475706 0.84580004 2.2750994e-38
-0.057849478 0.16464764 0.84600002 2.2012345e-38
-0.052657858 0.16464764 0.84600002 2.0076955e-38
-0.049691223 0.16464764 0.84600008 2.0445372e-38
-0.046247967 0.16644423 0.84633338 1.9430882e-38
-0.04380966 0.16707075 0.847 1.9061741e-38
0.051235031 0.16558567 0.847 2.0080905e-38
0.053336397 0.16593546 0.84500003 1.8514667e-38
0.069496587 0.16545534 0.84633338 1.6309926e-38
-0.089104399 0.17078343 0.847 2.2756037e-38
-0.086067043 0.16990647 0.84633344 2.3492874e-38
-0.082646877 0.16862769 0.84549999 2.3216288e-38
-0.045187782 0.16815782 0.84500003 1.9524482e-38
-0.042290106 0.16842315 0.84633338 1.8784786e-38
-0.037537288 0.17047291 0.84619999 1.7679167e-38
-0.034115486 0.17132345 0.84600002 1.7403276e-38
0.051235028 0.16929835 0.847 1.9622097e-38
0.053707231 0.17002311 0.84585726 1.6395975e-38
0.066476755 0.17026767 0.84566677 1.1882037e-38
0.077904984 0.16990823 0.84633338 1.7603599e-38
-0.094820261 0.17556565 0.84500003 1.6674006e-38
-0.089422628 0.17365487 0.84580004 2.1742256e-38
-0.08667165 0.17260252 0.84500003 2.3495032e-38
-0.03333525 0.17260252 0.84500003 1.7496194e-38
-0.030191274 0.17383586 0.84585726 1.8140134e-38
-0.026472997 0.17492187 0.84666675 1.8045781e-38
0.05463504 0.17379624 0.84600008 1.445629e-38
0.057632942 0.17438041 0.84500009 1.4731072e-38
0.061485019 0.17482486 0.84500015 1.1231976e-38
0.065861993 0.17420793 0.84650004 1.0956812e-38
0.079263814 0.17260252 0.84500003 1.7695077e-38
0.082355529 0.17534766 0.84633338 1.4837024e-38
-0.09407948 0.17704722 0.84500003 2.0361155e-38
-0.025186632 0.17704721 0.84500003 1.7677361e-38
-0.022487378 0.17817578 0.84566677 1.7034509e-38
0.058165371 0.17796129 0.847 1.0401094e-38
0.061187387 0.177628 0.84600008 1.0676266e-38
0.064600691 0.17746626 0.847 1.4918403e-38
0.086313389 0.17782161 0.84633338 1.2625387e-38
0.088153213 0.17852879 0.84500003 1.0320127e-38
-0.021891242 0.18144369 0.84649998 1.5008728e-38
-0.020765603 0.18615666 0.84600008 1.4825837e-38
-0.018563416 0.18711923 0.847 2.3505222e-38
-0.01336566 0.18786177 0.847 2.3509886e-38
0.027473856 0.18786177 0.847 1.9800401e-38
0.030711561 0.18709031 0.84619999 1.8233777e-38
0.033882879 0.18721887 0.84633338 1.9428703e-38
0.037869371 0.18786177 0.847 1.8879508e-38
0.041582052 0.18786177 0.847 1.7405094e-38
0.046037272 0.18786177 0.847 1.6665358e-38
-0.024445849 0.1911221 0.84500003 1.7129922e-38
-0.021506971 0.1903591 0.84600008 2.1568017e-38
-0.018068392 0.19033688 0.847 2.3048197e-38
-0.013811181 0.19023788 0.84700006 2.3509886e-38
-0.01113805 0.19083191 0.847 2.3509886e-38
0.01782088 0.19083191 0.847 1.9153554e-38
0.022505496 0.19117558 0.84633338 1.8602892e-38
0.025968326 0.19068053 0.84633338 1.6571362e-38
0.030372117 0.19038132 0.84500015 1.7124537e-38
0.034076035 0.19038133 0.84500015 1.8048269e-38
0.037991602 0.18995802 0.84500015 1.8418153e-38
0.042224653 0.18964052 0.84500015 1.8604366e-38
0.045928568 0.18964052 0.84500003 1.6482407e-38
0.049691223 0.19035852 0.84600008 1.5930695e-38
-0.020758297 0.19349584 0.84566677 2.2954922e-38
-0.017792827 0.19349584 0.84566677 2.2862013e-38
-0.014096313 0.19364877 0.84633338 2.3509886e-38
-0.01113805 0.19380209 0.847 2.3509886e-38
0.01559327 0.1945446 0.847 2.0355347e-38
0.017792827 0.19349581 0.84566677 1.9248275e-38
0.021309795 0.19364318 0.84550011 1.9248627e-38
0.025927417 0.19408524 0.84500015 1.7774958e-38
0.030372117 0.19408524 0.84500015 1.6944474e-38
0.034076035 0.19408524 0.84500003 1.8420682e-38
0.039261516 0.19408524 0.84500003 1.8512869e-38
0.053647324 0.19406712 0.84600008 1.5838144e-38
-0.041483864 0.19927071 0.84500003 1.4552821e-38
-0.020741934 0.19778916 0.84500015 2.1940063e-38
-0.017778801 0.19778916 0.84500015 2.3507733e-38
-0.014078195 0.19784077 0.84522235 2.3509886e-38
-0.010395514 0.1982573 0.84700006 2.2864157e-38
0.015212797 0.19851065 0.84650004 1.9433749e-38
0.017778799 0.19778916 0.84500015 1.8880578e-38
0.020495005 0.19680145 0.84500003 1.7218168e-38
0.030372117 0.19778916 0.84500015 1.6666076e-38
0.034076035 0.19778916 0.84500015 1.7313616e-38
0.03777995 0.19704837 0.84500015 1.6113273e-38
0.040743083 0.19630758 0.84500003 1.8233012e-38
0.055064898 0.19680145 0.84500003 1.5190983e-38
0.057579175 0.19794403 0.84566677 1.6297636e-38
0.061630547 0.19974236 0.847 1.6210504e-38
-0.045956183 0.20161274 0.84549999 1.3262369e-38
-0.042241305 0.20157287 0.84533346 1.3814168e-38
-0.038520731 0.20223385 0.84500003 1.454883e-38
-0.020371541 0.20186345 0.84500003 1.9543365e-38
-0.017778799 0.20223385 0.84500015 1.5855537e-38
-0.014074883 0.20223385 0.84500015 1.3458426e-38
-0.0098258983 0.20228711 0.84600008 7.0979999e-39
0.014826771 0.20239282 0.84566677 2.0631219e-38
0.017038018 0.20075229 0.84500003 2.0817038e-38
0.061978877 0.20174 0.84500015 1.6208351e-38
0.065164208 0.20231906 0.84660006 1.6761162e-38
-0.041582052 0.20419757 0.847 1.5383969e-38
-0.03935444 0.20419757 0.847 1.1327e-38
-0.021216912 0.20637944 0.84620011 2.6773026e-39
-0.017799839 0.20618236 0.84600008 9.8090893e-45
-0.014074883 0.20593777 0.84500015 1.0130785e-39
-0.0094267968 0.20582844 0.84585726 7.3757064e-40
-0.0066828299 0.20716773 0.847 5.5606466e-40
0.014815667 0.20519698 0.84500003 2.2190246e-38
0.062966585 0.20519698 0.84500003 1.6022169e-38
0.065637343 0.20543894 0.84600008 1.629985e-38
0.074253663 0.20568267 0.84700006 1.3623658e-38
0.077966347 0.20716773 0.847 1.8877745e-38
0.065929718 0.20816012 0.84500003 1.4547433e-38
0.074253663 0.20865279 0.847 3.0305882e-39
0.078151979 0.20995221 0.84700006 1.7775327e-38
0.069055907 0.21904831 0.847 7.6490101e-39
0.070078097 0.22090159 0.84500009 1.2989105e-38
0.073935434 0.22180632 0.84700006 1.4552084e-38
0.074819118 0.22445734 0.84500003 1.7500922e-38
0.078114681 0.22634149 0.84540004 1.381307e-38
0.080745384 0.2266797 0.84500003 1.2614185e-38
0.080745384 0.22890206 0.84500003 1.2243966e-38
0.082421564 0.23464157 0.847 1.1047225e-38
0.081583478 0.23807196 0.84600008 9.6664315e-39
0.079263814 0.24297693 0.84500003 1.3351761e-38
0.080936491 0.24206693 0.847 1.031542e-38
0.078615963 0.24623199 0.84600008 9.5771365e-39
-0.14479464 0.26285797 0.847 0
-0.14330956 0.26285797 0.847 0
-0.14479464 0.26582813 0.847 0
-0.1418245 0.26582813 0.84700006 0
-0.14479464 0.26879826 0.847 0
-0.14219576 0.26842701 0.847 0
0.067730382 0.14513654 0.84899998 2.1932776e-38
0.070046544 0.1453075 0.85000002 1.7328405e-38
0.077927075 0.15421319 0.84980005 9.4957939e-39
-0.073112249 0.16338348 0.85100001 2.3120847e-38
-0.070874117 0.16338348 0.85100001 2.2752415e-38
-0.066068925 0.16270986 0.85060006 2.2937521e-38
-0.061680511 0.16193393 0.85024995 2.3123714e-38
-0.058123291 0.1617 0.85000002 2.3027926e-38
-0.054600675 0.16209881 0.84985721 2.2658783e-38
-0.049926169 0.16244546 0.85000002 2.099855e-38
-0.045508645 0.16338348 0.85100001 1.8875911e-38
-0.088570505 0.16746524 0.84899998 1.8883448e-38
-0.081871897 0.16746524 0.84899998 2.3122289e-38
-0.077961519 0.16748673 0.85100001 2.3398878e-38
-0.073998056 0.16577429 0.8501429 2.2844615e-38
-0.070004024 0.16532923 0.8495 2.2567309e-38
-0.066653848 0.16495709 0.8495 2.2473313e-38
-0.060287487 0.16448808 0.84899998 2.1830111e-38
-0.045454286 0.16505396 0.85000002 1.9060295e-38
-0.042027276 0.16608737 0.84957147 1.9060648e-38
-0.03802795 0.16627999 0.85055548 1.8137613e-38
-0.034566678 0.16736238 0.85100001 1.7861385e-38
0.070707545 0.16672096 0.84899998 1.5571631e-38
0.073741794 0.16610777 0.84966666 1.760214e-38
0.07666187 0.16597667 0.84899998 1.9077998e-38
-0.088570505 0.16895382 0.84899998 2.3307782e-38
-0.037958786 0.16895382 0.84899998 1.7586252e-38
-0.033313207 0.17018816 0.84985715 1.7401471e-38
-0.029806666 0.17138745 0.85000002 1.795357e-38
-0.027571164 0.17138743 0.85000002 1.7952864e-38
0.050363623 0.1704424 0.84899998 1.9157164e-38
0.070004903 0.16979849 0.8495 1.3911716e-38
0.073828779 0.17003153 0.8506667 1.72341e-38
0.076752156 0.16989887 0.85000002 1.7603596e-38
-0.025192415 0.17336558 0.85020012 1.7584794e-38
-0.023100168 0.17436811 0.85000002 1.7676982e-38
0.050700698 0.17372596 0.85050005 1.5469337e-38
0.052844588 0.17490815 0.84899998 1.3440694e-38
0.070128076 0.1738281 0.85100001 1.4188728e-38
0.074977353 0.17345509 0.85100001 1.6680927e-38
0.077775232 0.17418867 0.85033333 1.6865319e-38
-0.021600191 0.17802617 0.84966671 1.7310367e-38
0.054374665 0.17703144 0.84966671 1.2608393e-38
0.057445336 0.17979644 0.85100001 1.1232283e-38
0.062594876 0.17958516 0.85000002 1.279603e-38
0.06669198 0.17809571 0.85000002 1.4642459e-38
0.069382027 0.17681226 0.85100001 1.4368787e-38
0.079080589 0.17681226 0.85100001 1.5668938e-38
0.08196833 0.17809571 0.85000002 1.474627e-38
0.084666997 0.17901854 0.84966671 1.2994538e-38
-0.02012739 0.18263625 0.85033339 1.3257012e-38
-0.01790504 0.18278061 0.85100001 1.2523807e-38
-0.014174823 0.18278061 0.85100001 2.3508449e-38
-0.0096985633 0.18278061 0.85100001 2.3509886e-38
-0.0067143897 0.18278061 0.85100001 2.3509886e-38
0.027603602 0.18278061 0.85100001 1.9248611e-38
0.029841732 0.18278061 0.85100001 1.8878761e-38
0.033944972 0.18240759 0.85100001 1.8507457e-38
0.037675187 0.18240759 0.85100001 1.8324853e-38
0.086052373 0.18180016 0.85060006 9.7673067e-39
0.089419998 0.18182153 0.85000002 1.0782895e-38
-0.017730935 0.18520372 0.84980005 2.0735026e-38
-0.014152613 0.18547256 0.8496666 2.3509168e-38
-0.0096956408 0.18571588 0.85077769 2.3509886e-38
-0.0059683467 0.18576479 0.85100001 2.3509886e-38
-0.0037302165 0.18576479 0.85100001 1.880755e-38
0.0223813 0.18725687 0.85100001 1.9986549e-38
0.026266905 0.18573169 0.84999996 1.8048281e-38
0.029650796 0.18520372 0.84980005 1.78639e-38
0.033739518 0.1850885 0.84985715 1.9152842e-38
0.037988596 0.18547256 0.84966666 1.8971335e-38
0.041570656 0.18579984 0.84980005 1.7035937e-38
0.045508645 0.18725687 0.85100001 1.6573912e-38
-0.01711867 0.18904966 0.84899998 2.3232944e-38
-0.015630089 0.18904966 0.84899998 2.3509886e-38
-0.0094945189 0.1897192 0.8495 2.3509886e-38
-0.005963671 0.19009084 0.85033339 2.3139651e-38
-0.0033571948 0.19061406 0.85100001 1.077676e-38
0.01119065 0.19173312 0.85100001 1.6944835e-38
0.014465876 0.19104616 0.85060006 1.9798208e-38
0.017883999 0.18927145 0.85000002 2.0353161e-38
0.021385783 0.18949538 0.84957141 2.0630128e-38
0.025305858 0.18830536 0.84899998 2.0444287e-38
0.043913107 0.18830536 0.84899998 1.6573551e-38
0.049867429 0.18880157 0.84899998 1.6207277e-38
0.054057017 0.19124745 0.85049999 1.6667879e-38
0.070874117 0.19173312 0.85100001 1.5468553e-38
0.072366208 0.19173312 0.85100001 1.5469294e-38
-0.0089314794 0.19425967 0.84899998 2.3509886e-38
