# .PCD v0.7 - Point Cloud Data file format
VERSION 0.7
FIELDS x y z rgb
SIZE 4 4 4 4
TYPE F F F F
COUNT 1 1 1 1
WIDTH 555
HEIGHT 1
VIEWPOINT 0 0 0 1 0 0 0
POINTS 555
DATA ascii
-0.16835068 0.08199463 0.995 5.9096217e-39
-0.16660611 0.08199463 0.995 8.6653663e-39
-0.17235792 0.078742199 0.99800003 5.1745846e-39
-0.16973318 0.078742199 0.99800003 1.2533644e-38
-0.16710845 0.079617113 0.99800003 1.742384e-38
-0.17060809 0.081366941 0.99800003 7.4780251e-39
-0.17691483 0.074814729 1.0039999 5.1770748e-39
-0.1742743 0.074814729 1.0039999 2.0915864e-38
-0.17163378 0.074814729 1.0039999 2.3509886e-38
-0.17691483 0.076575071 1.0039999 6.6490057e-39
-0.1742743 0.076575071 1.0039999 9.6770645e-39
-0.17024341 0.076346271 1.001 2.1018804e-38
-0.16585569 0.078978896 1.001 2.3140739e-38
-0.16497815 0.082489073 1.001 1.7793416e-38
-0.16601962 0.085206747 1.0020001 7.3807679e-39
-0.16195187 0.089777663 1.0039999 1.005589e-38
-0.17744346 0.067975856 1.007 8.4079688e-39
-0.17479505 0.067093045 1.007 9.4203116e-39
-0.18538868 0.071507066 1.007 3.5204653e-39
-0.18185747 0.071507066 1.007 1.7139452e-38
-0.17744346 0.070624262 1.007 2.3509886e-38
-0.17391226 0.070624262 1.007 1.3934211e-38
-0.17038104 0.070624262 1.007 4.2753714e-39
-0.18538868 0.073272668 1.007 7.7571511e-39
-0.18185747 0.073272668 1.007 7.8403434e-39
-0.17744346 0.073272668 1.007 1.6960463e-38
-0.17391226 0.073272668 1.007 2.2403555e-38
-0.1697925 0.074449748 1.007 1.4671399e-38
-0.16684982 0.075038284 1.007 1.4208872e-39
-0.16861542 0.076803878 1.007 2.3509886e-38
-0.16567275 0.077392422 1.007 9.0536506e-39
-0.1633186 0.078569494 1.007 3.5445845e-41
-0.16261236 0.082453825 1.007 1.5500432e-38
-0.16508421 0.087397523 1.007 6.9176794e-39
-0.1624358 0.086514726 1.007 1.9820663e-38
-0.1597874 0.087397523 1.007 2.1297576e-38
-0.16508421 0.089163132 1.007 5.0852715e-39
-0.1597874 0.090045929 1.007 2.166636e-38
-0.161553 0.093577147 1.007 1.0975327e-38
-0.15890458 0.093577147 1.007 1.7337174e-38
-0.15272497 0.10946761 1.007 5.5101298e-40
-0.15095936 0.10946761 1.007 1.0127254e-39
-0.17797211 0.065817207 1.01 3.3484069e-39
-0.17354491 0.06552206 1.01 1.1813057e-38
-0.17088862 0.066407494 1.01 1.1165545e-38
-0.18930565 0.070303403 1.0100001 1.088028e-38
-0.18594098 0.069063798 1.01 1.7977817e-38
-0.18239926 0.069063798 1.01 1.9732772e-38
-0.17974298 0.069949232 1.01 1.8537496e-38
-0.17265949 0.068178363 1.01 1.1627233e-38
-0.16956048 0.069506511 1.01 9.5993191e-39
-0.16675662 0.071129814 1.01 9.8762605e-39
-0.17974296 0.073490962 1.01 1.1152139e-38
-0.16911776 0.073490962 1.01 1.1994217e-38
-0.16616634 0.074081257 1.01 2.7873298e-39
-0.16321486 0.074671544 1.01 1.5005763e-39
-0.1616801 0.077741042 1.0100001 3.9243784e-40
-0.15849255 0.078803562 1.01 3.9315951e-40
-0.16085371 0.081164718 1.01 1.951451e-39
-0.15849255 0.081459865 1.01 1.5040136e-41
-0.16026342 0.085001595 1.01 8.5771139e-39
-0.15760714 0.08588703 1.0100001 2.3148428e-39
-0.15760712 0.090314202 1.01 1.1528491e-38
-0.1567217 0.093855925 1.01 1.3650076e-38
-0.16026342 0.096512228 1.01 1.3561492e-38
-0.15760712 0.097397663 1.01 1.8074727e-38
-0.15760714 0.10182483 1.0100001 1.7797421e-38
-0.15760712 0.10536657 1.01 1.9086715e-38
-0.15317996 0.106252 1.01 5.6051939e-45
-0.15140909 0.106252 1.01 0
-0.1540654 0.11510633 1.01 1.1077825e-39
-0.19359779 0.063052498 1.013 1.3741602e-38
-0.17761266 0.063052498 1.013 4.3578799e-39
-0.1740604 0.063052498 1.013 1.052449e-38
-0.17139623 0.063052498 1.013 1.3194894e-38
-0.19626199 0.066604748 1.013 1.7981051e-38
-0.19359779 0.065716684 1.013 2.2404258e-38
-0.18915749 0.065716684 1.013 2.3509527e-38
-0.18678932 0.06601271 1.013 2.2591531e-38
-0.18240821 0.065539077 1.013 4.0819908e-39
-0.17850073 0.064828619 1.013 3.8954738e-39
-0.17317234 0.064828619 1.013 1.2826117e-38
-0.17021215 0.065420665 1.013 1.2179681e-38
-0.16642307 0.065894298 1.013 1.1349574e-38
-0.19715005 0.069268934 1.013 9.5985273e-39
-0.19342019 0.06980177 1.013 9.9640743e-39
-0.1909336 0.06838087 1.013 1.9903907e-38
-0.16547582 0.069564953 1.013 9.4134831e-39
-0.16192354 0.07134109 1.013 3.7053456e-39
-0.1613315 0.074301302 1.013 2.9692267e-39
-0.15896332 0.075485386 1.013 1.4959127e-39
-0.15777925 0.077853553 1.013 4.8391741e-40
-0.15718719 0.081701823 1.013 2.048334e-40
-0.15481904 0.081997842 1.013 6.6540938e-40
-0.15452302 0.086142138 1.013 1.5347021e-41
-0.15185884 0.087030202 1.013 1.4864918e-39
-0.15452302 0.09058246 1.013 7.0863663e-42
-0.15185884 0.09058246 1.013 2.4030195e-39
-0.15452302 0.094134711 1.013 2.1314689e-39
-0.15052673 0.094578743 1.013 6.5340025e-40
-0.15452302 0.097686961 1.013 7.8406601e-39
-0.15008271 0.097686969 1.013 1.3851485e-39
-0.15470062 0.10248251 1.013 1.0972039e-38
-0.15059017 0.10187355 1.013 1.2914591e-39
-0.15807526 0.10745566 1.013 1.908815e-38
-0.15541108 0.10656759 1.013 1.7147691e-38
-0.15008271 0.10567953 1.013 2.7665906e-39
-0.15541108 0.10923178 1.013 1.6040498e-38
-0.15363495 0.11278404 1.013 9.2587993e-41
-0.15185884 0.11278404 1.013 3.225087e-39
-0.19340451 0.062085975 1.0190001 5.6442943e-39
-0.18949561 0.062172618 1.0180001 1.7801018e-38
-0.18633813 0.063301474 1.0170001 1.0713144e-38
-0.18170144 0.063239224 1.016 4.0249496e-40
-0.16973144 0.063425958 1.0190001 1.3098754e-38
-0.16705146 0.063425958 1.0190001 1.1536115e-38
-0.19149905 0.065911308 1.016 2.3509168e-38
-0.1861549 0.065020613 1.016 1.1170086e-38
-0.16477826 0.065020613 1.016 1.29158e-38
-0.16234422 0.066008613 1.0175 8.862096e-39
-0.1618093 0.069177181 1.016 5.5459904e-39
-0.15930933 0.069977 1.0190001 2.5100492e-39
-0.15791723 0.074052297 1.0177144 1.9550888e-39
-0.15454493 0.075932488 1.0190001 8.4624134e-40
-0.21767315 0.078910224 1.0190001 1.8069636e-38
-0.21529092 0.078612447 1.0190001 1.8900491e-38
-0.15509439 0.078438215 1.0167501 3.8956938e-40
-0.21797091 0.081292421 1.0190001 1.7698688e-38
-0.15305227 0.08172667 1.0170001 9.4018859e-40
-0.15230855 0.084615864 1.016 5.6922565e-40
-0.15097165 0.085759044 1.0190001 5.6886132e-40
-0.1508235 0.090135366 1.0180001 2.7725293e-39
-0.14948599 0.093019299 1.0170001 2.0327011e-39
-0.14718136 0.094551571 1.0175 2.0297808e-39
-0.14696439 0.097085573 1.016 4.0533875e-39
-0.15408994 0.10064835 1.016 6.1657132e-44
-0.15877749 0.11061035 1.0175 1.8900131e-38
-0.15587133 0.11133667 1.016 1.1421083e-38
-0.15788548 0.11417575 1.0175 3.3230041e-39
-0.15587133 0.11311805 1.016 5.6051939e-45
-0.15765272 0.11668083 1.016 0
-0.19621377 0.06002887 1.022 7.1118686e-39
-0.19352591 0.06002887 1.022 6.5579857e-39
-0.18994209 0.06002887 1.022 1.5587998e-38
-0.18635827 0.060924821 1.022 2.09306e-38
-0.18187851 0.060924824 1.022 8.2196076e-39
-0.17739874 0.061820775 1.022 4.6323102e-39
-0.17023112 0.061820775 1.022 1.4757532e-38
-0.16575135 0.063612677 1.022 1.1996728e-38
-0.1630635 0.063612677 1.022 9.5110555e-39
-0.16037562 0.066300541 1.022 2.4196487e-39
-0.15858373 0.067196488 1.022 2.4207249e-39
-0.15738913 0.069585711 1.0220001 2.6933615e-39
-0.15499993 0.070780307 1.022 1.7710605e-39
-0.15679182 0.072572216 1.022 2.4160614e-39
-0.15440261 0.07376682 1.0220001 1.1253394e-39
-0.2145808 0.077499956 1.022 1.6232253e-38
-0.153208 0.077947937 1.0220001 1.3990284e-39
-0.2186126 0.083323658 1.022 1.6681285e-38
-0.21592472 0.081531748 1.022 2.1204661e-38
-0.15141609 0.082427703 1.022 9.3873965e-40
-0.2186126 0.085115559 1.022 1.5484893e-38
-0.1496242 0.089595318 1.022 4.1507315e-39
-0.14663768 0.094075099 1.0220001 2.5818406e-39
-0.16037562 0.11378606 1.022 2.2310598e-38
-0.18474872 0.054072797 1.028 1.1636202e-38
-0.1820451 0.054072797 1.028 1.7525512e-38
-0.19409397 0.058407914 1.025 7.8483364e-39
-0.18960106 0.058407914 1.025 5.4591884e-39
-0.18564729 0.057689048 1.025 2.0012962e-38
-0.18151382 0.057509329 1.025 1.8536399e-38
-0.1783094 0.057634916 1.0272501 7.8565788e-39
-0.17393416 0.058578864 1.0280001 4.6326689e-39
-0.1703293 0.058578864 1.028 4.8195685e-39
-0.16582325 0.058578864 1.028 6.4744011e-39
-0.17791948 0.060205076 1.025 1.7854098e-39
-0.17432515 0.061103661 1.025 9.8805653e-39
-0.16950591 0.06069842 1.02575 1.1904175e-38
-0.16533932 0.061103661 1.025 4.9095935e-39
-0.16144547 0.062601306 1.025 4.4500741e-39
-0.15838209 0.062991567 1.0265 3.8922452e-39
-0.15530908 0.063385338 1.0280001 3.1557676e-39
-0.15785113 0.066195637 1.025 3.2479618e-39
-0.15380588 0.066560045 1.026 2.6022421e-39
-0.15050262 0.067590997 1.028 3.9460284e-40
-0.1534761 0.069991842 1.0262001 9.4597596e-40
-0.15050262 0.070294634 1.028 4.8536074e-40
-0.15365773 0.072785251 1.025 7.5979384e-40
-0.15035447 0.073827609 1.027 1.2171622e-39
-0.21296424 0.078176752 1.025 1.107075e-38
-0.21137309 0.078251265 1.026 9.5996021e-39
-0.15039654 0.078008644 1.0257499 8.461979e-40
-0.21655858 0.083568245 1.025 2.2584705e-38
-0.21417448 0.082790643 1.0265 1.7985039e-38
-0.14924549 0.082274102 1.0268 1.302832e-39
-0.14689776 0.082911618 1.028 3.1394999e-39
-0.21779323 0.086816892 1.0280001 2.1296096e-38
-0.21538998 0.086516477 1.028 2.2958873e-38
-0.14916483 0.086263999 1.025 2.0363992e-39
-0.14689776 0.086516477 1.028 2.0348816e-39
-0.14826624 0.089858323 1.025 1.6618083e-39
-0.14689776 0.090121329 1.028 1.3847323e-39
-0.14646907 0.092554078 1.025 1.2914451e-39
-0.16131717 0.11625651 1.028 1.5496457e-38
-0.15861353 0.11986136 1.028 9.2266255e-40
-0.17841868 0.05441137 1.031 1.6234424e-38
-0.17263408 0.055134442 1.031 3.2554952e-39
-0.17082639 0.055134442 1.031 4.7306028e-39
-0.17624944 0.056942131 1.031 4.9092516e-39
-0.17353791 0.056942131 1.031 3.7135965e-39
-0.16962127 0.057544693 1.031 5.3712989e-39
-0.16721101 0.056942131 1.031 6.1077766e-39
-0.16178794 0.058749814 1.031 5.8308351e-39
-0.15998027 0.058749814 1.031 5.7386409e-39
-0.1626918 0.060557503 1.031 4.360391e-39
-0.15817258 0.060557507 1.031 3.9862331e-39
-0.15455721 0.062365185 1.031 3.7071393e-39
-0.15274951 0.064172879 1.031 2.143066e-39
-0.15003799 0.066884406 1.031 1.3133165e-39
-0.14913414 0.070499778 1.031 2.0877385e-40
-0.14732647 0.077730522 1.031 1.5794161e-39
-0.21240318 0.082249738 1.031 1.2181817e-38
-0.14642262 0.081345901 1.031 2.3090428e-39
-0.21421087 0.086768955 1.031 2.1024229e-38
-0.14551876 0.08586511 1.031 2.821038e-40
-0.21873009 0.089480489 1.031 1.7697981e-38
-0.14551876 0.090384334 1.031 2.4910799e-39
-0.1767623 0.053481925 1.034 1.3563671e-38
-0.17434505 0.054086238 1.0340002 6.8384836e-39
-0.17011485 0.054086238 1.0340002 6.1070591e-39
-0.16588461 0.054388396 1.034 6.1988946e-39
-0.16135225 0.054388396 1.034 6.2871428e-39
-0.164676 0.057712138 1.0340002 6.6577133e-39
-0.16135225 0.057107821 1.034 6.6577133e-39
-0.15772635 0.058014296 1.034 5.1840406e-39
-0.15500695 0.058920763 1.034 4.9045881e-39
-0.15379833 0.06133803 1.0340002 4.2588697e-39
-0.15138105 0.062546656 1.034 3.0621384e-39
-0.15047458 0.06526608 1.034 2.6000911e-39
-0.14775515 0.067985497 1.034 2.9652807e-39
-0.14775515 0.070704922 1.034 8.5015236e-40
-0.21030182 0.075237289 1.034 1.0795268e-38
-0.2075824 0.075237289 1.034 1.0609086e-38
-0.14775515 0.074330814 1.034 1.7677688e-39
-0.2103018 0.077956706 1.034 1.0704153e-38
-0.2075824 0.077050239 1.034 1.0977862e-38
-0.1459422 0.077956706 1.034 1.9481986e-39
-0.21120828 0.081582598 1.034 1.0982186e-38
-0.14503573 0.081582598 1.034 2.217126e-39
-0.21302125 0.086114965 1.0340002 1.7250364e-38
-0.14412926 0.084302016 1.034 1.1985432e-39
-0.21664712 0.089740857 1.034 2.3509886e-38
-0.18472594 0.05186886 1.038 8.5909223e-39
-0.18199599 0.05186886 1.038 1.4763631e-38
-0.17835608 0.05186886 1.038 1.7801018e-38
-0.17471614 0.05186886 1.038 1.3010853e-38
-0.17016625 0.050958879 1.0380001 5.3687724e-39
-0.16561635 0.05186886 1.038 6.1971009e-39
-0.16197643 0.05186886 1.038 6.2885777e-39
-0.15833652 0.05186886 1.038 6.2875015e-39
-0.15833652 0.054598801 1.038 5.4588296e-39
-0.15469658 0.055508777 1.038 4.6287228e-39
-0.15439326 0.057935387 1.038 3.6153038e-39
-0.15196665 0.058238715 1.038 2.8784674e-39
-0.15075335 0.061575308 1.038 1.8646896e-39
-0.14923671 0.065518558 1.038 1.4033556e-39
-0.14650677 0.070068464 1.038 1.3093397e-39
-0.14590012 0.074921682 1.038 1.4893701e-39
-0.20838541 0.079168253 1.038 1.107006e-38
-0.1446868 0.078258276 1.038 3.2338465e-39
-0.21020538 0.081898198 1.038 1.0795983e-38
-0.1446868 0.080988213 1.038 2.4965856e-39
-0.14226019 0.082201526 1.038 2.2170616e-39
-0.13922693 0.082808174 1.038 5.2544475e-39
-0.21202533 0.085538119 1.038 1.5038409e-38
-0.1446868 0.086448096 1.038 3.9460565e-42
-0.14195687 0.085538119 1.038 3.226847e-39
-0.13922693 0.084628135 1.038 5.1608029e-39
-0.21839517 0.091907971 1.038 2.3506598e-38
-0.2138453 0.089481369 1.038 2.0748722e-38
-0.1446868 0.090088025 1.038 2.3985395e-39
-0.14226019 0.088874713 1.038 4.2420836e-39
-0.18221781 0.049585145 1.0410001 1.1170567e-38
-0.17795895 0.049463462 1.041 1.6051839e-38
-0.17370009 0.048976734 1.0410001 1.5312128e-38
-0.16974546 0.048368327 1.041 8.7720513e-39
-0.16609502 0.050193548 1.041 4.6373324e-39
-0.16244458 0.050193548 1.041 6.4733249e-39
-0.15879413 0.050193548 1.041 6.2871428e-39
-0.1560563 0.052931376 1.041 5.919442e-39
-0.15331846 0.05384399 1.041 4.8127526e-39
-0.15058064 0.058407038 1.041 2.7866319e-39
-0.14875542 0.06205748 1.041 1.0367353e-39
-0.1469302 0.06205748 1.041 6.6795834e-40
-0.14875542 0.064795308 1.041 5.7647457e-40
-0.1469302 0.065707922 1.041 5.7647597e-40
-0.14510497 0.069358349 1.041 1.3078865e-39
-0.20716247 0.074834019 1.041 1.0977503e-38
-0.14510497 0.073008791 1.041 2.4106047e-39
-0.14327976 0.074834019 1.041 1.7630633e-39
-0.20716247 0.077571847 1.041 1.1162255e-38
-0.14327976 0.078484461 1.041 4.676189e-40
-0.20898768 0.081222288 1.041 1.1438834e-38
-0.14145453 0.081222288 1.041 1.6627667e-39
-0.13962932 0.081222288 1.041 3.5063206e-39
-0.21081291 0.085785344 1.041 1.3564372e-38
-0.21263812 0.090348385 1.041 1.9827496e-38
-0.21081291 0.088523164 1.041 1.6880869e-38
-0.21628855 0.092173606 1.041 2.3509886e-38
-0.21355073 0.092173606 1.041 2.2129842e-38
-0.18449187 0.039468411 1.0470001 1.6594825e-38
-0.18265614 0.039468411 1.0470001 1.5676439e-38
-0.18449187 0.042222019 1.0470001 2.2402835e-38
-0.18204424 0.042527974 1.0470002 1.4571682e-38
-0.17806679 0.04313989 1.0470001 8.683834e-39
-0.17531316 0.04313989 1.0470001 1.568091e-38
-0.18449187 0.045893501 1.0470001 1.3370607e-38
-0.18173826 0.045893501 1.0470001 6.3911668e-39
-0.17793989 0.04585997 1.04625 1.3013017e-38
-0.17436813 0.046110034 1.0450001 1.6692535e-38
-0.17023464 0.046677239 1.044 1.208603e-38
-0.16613446 0.046811372 1.0470002 5.0925638e-39
-0.16246299 0.046811372 1.0470001 6.5651604e-39
-0.17847179 0.04850772 1.044 1.6326628e-38
-0.16657367 0.04850772 1.044 4.6323102e-39
-0.1621509 0.048554182 1.0450001 6.6562784e-39
-0.15741777 0.049210809 1.046 6.195666e-39
-0.15420216 0.050482851 1.0470001 5.364483e-39
-0.15144855 0.050482851 1.0470001 5.0857479e-39
-0.15284508 0.052168682 1.044 5.2726475e-39
-0.15031457 0.054074995 1.0455 3.2461681e-39
-0.14731814 0.054613266 1.0470001 2.8773912e-39
-0.14918412 0.058575362 1.044 3.2458094e-39
-0.1458002 0.058687579 1.0460001 1.2193286e-39
-0.14505064 0.061989978 1.0450001 5.768347e-40
-0.14274412 0.062660627 1.046 1.6784795e-39
-0.14552316 0.065897278 1.044 1.5859293e-39
-0.14298126 0.06599196 1.0455 1.3990045e-39
-0.14298126 0.069658175 1.0455 1.7645234e-39
-0.14210574 0.073895112 1.0458001 2.3122097e-39
-0.20611531 0.078592733 1.0465 1.0978945e-38
-0.14084439 0.078205161 1.0446001 1.6627822e-39
-0.13833362 0.077868164 1.0450001 3.4084091e-39
-0.20876765 0.082834482 1.046 1.0335374e-38
-0.20590883 0.082302347 1.0470002 1.0887472e-38
-0.20897323 0.08615616 1.0455 1.1535007e-38
-0.20652075 0.08627978 1.0470001 1.0612697e-38
-0.20970356 0.090082765 1.0464 1.6419898e-38
-0.20652075 0.089951262 1.0470001 1.4391974e-38
-0.21782711 0.094269723 1.044 2.3324415e-38
-0.21416616 0.094269723 1.044 2.341805e-38
-0.20998973 0.093533322 1.046 1.9644901e-38
-0.20652075 0.093622744 1.0470001 1.835526e-38
-0.21793935 0.096896216 1.046 2.2586465e-38
-0.21373855 0.097254775 1.0446 2.3509886e-38
-0.20970359 0.09705542 1.0464 2.2222395e-38
-0.20652075 0.096376352 1.0470001 2.0105515e-38
-0.21386369 0.10188357 1.0470001 2.2584999e-38
-0.20943215 0.10127735 1.0455 2.3509886e-38
-0.20618111 0.10223974 1.0452858 2.341805e-38
-0.18133849 0.039581496 1.05 1.1527637e-38
-0.17857698 0.039581496 1.05 8.678729e-39
-0.18133849 0.041422494 1.05 1.1250484e-38
-0.17857698 0.041422494 1.05 7.2966003e-39
-0.17489499 0.042342994 1.05 1.31027e-38
-0.17305398 0.045104496 1.05 1.853642e-38
-0.16937199 0.045104496 1.05 1.402284e-38
-0.16661048 0.045104496 1.05 6.6522819e-39
-0.16108748 0.046945497 1.05 7.0246966e-39
-0.15832599 0.046945497 1.05 7.3005618e-39
-0.15464398 0.046945497 1.05 5.7343361e-39
-0.150962 0.046945497 1.05 3.6174562e-39
-0.15464398 0.048786495 1.05 5.7332599e-39
-0.15004149 0.049706995 1.05 3.4316328e-39
-0.14574581 0.053695828 1.05 2.7848383e-39
-0.14451848 0.056150492 1.05 1.862896e-39
-0.1426775 0.058911994 1.05 1.2193048e-39
-0.14083649 0.066275991 1.05 1.858168e-39
-0.14083649 0.069958001 1.05 2.1289647e-39
-0.13899548 0.069958001 1.05 3.2272857e-39
-0.20649883 0.073946826 1.05 1.024246e-38
-0.20343047 0.074560493 1.05 9.9658805e-39
-0.14083649 0.072719492 1.05 9.2822431e-40
-0.13899548 0.073639989 1.05 2.1180038e-39
-0.20527148 0.076401494 1.05 1.0887468e-38
-0.20343047 0.077321991 1.05 1.0334297e-38
-0.20527148 0.083765492 1.05 1.061197e-38
-0.20343047 0.081924491 1.05 1.0703441e-38
-0.20527148 0.08652699 1.05 9.6914474e-39
-0.20343047 0.08652699 1.05 9.8758387e-39
-0.20527148 0.090208992 1.05 1.3747326e-38
-0.20281681 0.090515837 1.05 1.2272918e-38
-0.20527148 0.093890995 1.05 1.7618065e-38
-0.20281681 0.093584165 1.05 1.6513527e-38
-0.21999948 0.098493494 1.05 1.4745107e-38
-0.20588516 0.097879827 1.05 2.102674e-38
-0.20343047 0.096652485 1.05 1.9461232e-38
-0.20527148 0.1003345 1.05 2.20398e-38
-0.17371325 0.042504303 1.054 1.4945508e-38
-0.17001723 0.043428313 1.054 1.5863863e-38
-0.16539718 0.045276325 1.054 4.5433445e-39
-0.16262516 0.045276325 1.054 6.1988946e-39
-0.15800515 0.045276325 1.0540001 6.7473964e-39
-0.1533851 0.045276325 1.054 4.8152637e-39
-0.14938109 0.045892328 1.0540001 5.4599058e-39
-0.14876507 0.04897235 1.054 3.7996923e-39
-0.14630105 0.050204363 1.0540001 3.5234683e-39
-0.14506903 0.052668381 1.054 2.5068207e-39
-0.14229703 0.057288408 1.054 1.4948183e-39
-0.14137302 0.061908446 1.0540001 1.4922848e-39
-0.13952501 0.066528477 1.054 3.60082e-39
-0.137677 0.070224509 1.054 3.0428944e-39
-0.20235746 0.078540564 1.054 1.0059515e-38
-0.20235746 0.081312582 1.054 1.0612321e-38
-0.20161827 0.086302221 1.054 1.0520125e-38
-0.20235746 0.089628644 1.054 9.7822025e-39
-0.20235746 0.095172688 1.054 1.7986483e-38
-0.17748992 0.039029196 1.0599999 8.8560073e-39
-0.17470211 0.039029196 1.0599999 1.1255945e-38
-0.17005579 0.039958462 1.0599999 1.7062388e-38
-0.16633871 0.039958462 1.0599999 1.3654789e-38
-0.17328106 0.04169865 1.057 1.5586563e-38
-0.1697332 0.0417381 1.0580001 1.7153139e-38
-0.16568457 0.042857952 1.0582001 8.0352262e-39
-0.16146357 0.042684458 1.0585001 5.8290415e-39
-0.15775177 0.042684458 1.0585001 8.3121872e-39
-0.15403996 0.042684458 1.0585001 1.070852e-38
-0.15032816 0.042684458 1.0585001 1.2640294e-38
-0.14682412 0.043675527 1.0599999 6.6530316e-39
-0.14568666 0.046397146 1.0585001 3.7096504e-39
-0.14548196 0.049111746 1.057 3.065367e-39
-0.14238644 0.050309446 1.0588001 1.6820949e-39
-0.14197485 0.053820755 1.0585001 1.4040744e-39
-0.14104733 0.056605048 1.0585001 2.3209833e-39
-0.13919142 0.058460955 1.0585001 1.9514651e-39
-0.13933757 0.061783433 1.0582001 2.0428998e-39
-0.13819949 0.065851696 1.0580001 2.5884771e-39
-0.20293342 0.075057574 1.057 9.4137956e-39
-0.20169792 0.077528611 1.057 9.6907398e-39
-0.19858032 0.077947937 1.0585001 9.5063443e-39
-0.20108014 0.081544027 1.057 1.0243897e-38
-0.19872169 0.081718259 1.05925 9.5996147e-39
-0.20108014 0.084323935 1.057 9.8747541e-39
-0.19872169 0.085431375 1.05925 9.7829242e-39
-0.20108014 0.090810396 1.057 1.0890338e-38
-0.19867456 0.090054706 1.059 1.0428644e-38
-0.17799225 0.036343969 1.063 4.2475641e-39
-0.17302214 0.036965232 1.063 9.9688135e-39
-0.16960518 0.037275866 1.063 1.3470042e-38
-0.16618823 0.037586499 1.063 1.743188e-38
-0.16215 0.038207762 1.063 8.4976252e-39
-0.16494571 0.040071554 1.063 9.0450355e-39
-0.16215 0.040071554 1.063 5.4602646e-39
-0.15842241 0.040071554 1.063 8.9607754e-39
-0.15469483 0.040071554 1.063 1.5772745e-38
-0.15003537 0.040692821 1.063 1.5220656e-38
-0.14506525 0.042556614 1.063 4.1698803e-39
-0.14258018 0.04379914 1.063 1.4116106e-39
-0.14195892 0.046905458 1.063 2.4174963e-39
-0.14071639 0.049390517 1.063 4.8500481e-40
-0.1388526 0.05125431 1.063 1.6788663e-39
-0.1388526 0.054050002 1.063 1.67706e-39
-0.13792071 0.057777587 1.063 2.3155378e-39
-0.13512501 0.058709484 1.063 6.1844696e-39
-0.1369888 0.06150518 1.063 5.2567148e-39
-0.13512501 0.06150518 1.063 9.8664948e-39
-0.1369888 0.065232761 1.063 6.2660925e-39
-0.13512501 0.065232761 1.063 9.4007439e-39
-0.1369888 0.068960346 1.063 3.1350424e-39
-0.13512501 0.06802845 1.063 4.6115962e-39
-0.19663019 0.079211213 1.063 9.3233852e-39
-0.19476639 0.079211213 1.063 8.9542425e-39
-0.19663019 0.082006902 1.063 9.6910859e-39
-0.19476639 0.082006902 1.063 9.5988903e-39
-0.19663019 0.085734487 1.063 9.7825627e-39
-0.19476639 0.08480259 1.063 9.8758373e-39
-0.1702434 0.034609921 1.067 5.0018045e-39
-0.16650179 0.034609921 1.067 1.1082678e-38
-0.16369559 0.034609921 1.067 1.7898952e-38
-0.16556638 0.036480732 1.067 1.7618423e-38
-0.16276018 0.036480732 1.067 1.1905216e-38
-0.15845732 0.037603211 1.067 7.5825255e-39
-0.15340614 0.038351536 1.067 1.6880511e-38
-0.15059993 0.038351536 1.067 1.604861e-38
-0.14872913 0.040222343 1.067 1.5589433e-38
-0.14592293 0.040222343 1.067 8.0341416e-39
-0.14186952 0.042716753 1.0670002 3.061421e-39
-0.13843969 0.043963958 1.067 1.2164546e-39
-0.1412459 0.045834761 1.067 3.5216746e-39
-0.13843969 0.046770167 1.067 2.0451208e-39
-0.13563348 0.046770163 1.067 3.4878319e-42
-0.13812789 0.050199978 1.0670002 2.0458257e-39
-0.13563348 0.050511777 1.067 1.210862e-41
-0.13750428 0.054253392 1.067 2.5031787e-39
-0.13469808 0.054253392 1.067 1.3924843e-39
-0.13189188 0.055188797 1.067 9.5931702e-39
-0.13750428 0.057059605 1.067 1.0294681e-39
-0.13438629 0.057683207 1.0670002 4.984804e-39
-0.13189188 0.057995006 1.067 1.0604019e-38
-0.13376267 0.061736617 1.067 1.1705246e-38
-0.13189188 0.061736617 1.067 1.1889639e-38
-0.13376267 0.06454283 1.067 1.2903053e-38
-0.19362849 0.079509281 1.067 7.5731074e-39
-0.19175768 0.079509281 1.067 5.8213904e-39
-0.19362849 0.08231549 1.067 9.0460822e-39
-0.19175768 0.08231549 1.067 8.9542467e-39
-0.16509387 0.032831166 1.0700001 1.4764348e-38
-0.16165441 0.034081876 1.0700001 1.4397722e-38
-0.15852763 0.034707233 1.0700001 3.8986505e-39
-0.13695288 0.034707233 1.0700001 2.3231151e-38
-0.13320073 0.034707233 1.0700001 2.3509886e-38
-0.13038664 0.034707233 1.0700001 2.3509886e-38
-0.15665156 0.036583301 1.0700001 1.1814492e-38
-0.15383747 0.036583301 1.0700001 1.6880511e-38
-0.14977266 0.037208658 1.0700001 1.558728e-38
-0.14633319 0.038459368 1.0700001 1.2640652e-38
-0.1435191 0.038459368 1.0700001 5.1735645e-39
-0.13695288 0.037521333 1.0700001 1.4377964e-38
-0.13351342 0.037208658 1.0700001 2.3509886e-38
-0.14258108 0.040335432 1.0700001 1.7739205e-39
-0.13789091 0.041273467 1.0700002 6.5716694e-40
-0.13351342 0.041586146 1.0700001 1.0797791e-38
-0.13601483 0.044087566 1.0700001 6.361895e-43
-0.13320073 0.045963638 1.0700002 9.770391e-39
-0.13351342 0.050966479 1.0700001 1.483259e-39
-0.13226271 0.0534679 1.0700001 8.3957382e-39
-0.19042076 0.079732835 1.0700001 4.0710859e-39
-0.15803143 0.027279234 1.073 7.5864715e-39
-0.15520944 0.027279234 1.073 2.9709489e-39
-0.16461608 0.031041885 1.073 3.8004097e-39
-0.16179408 0.030101223 1.073 1.0805736e-38
-0.15803143 0.030101223 1.073 1.1999596e-38
-0.15520944 0.030101225 1.073 3.4297747e-39
-0.16085342 0.032923214 1.073 1.4946226e-38
-0.15771788 0.033550322 1.073 5.5524322e-39
-0.15426877 0.033863876 1.073 1.1173078e-38
-0.15050611 0.034804538 1.073 1.8166208e-38
-0.14674348 0.033863876 1.073 1.7890342e-38
-0.14204016 0.03386388 1.073 1.2814963e-38
-0.13639617 0.032923214 1.073 2.3509886e-38
-0.13357419 0.032923214 1.073 2.3509886e-38
-0.14674348 0.036685869 1.073 1.5310339e-38
-0.14166389 0.0374384 1.073 2.041158e-39
-0.13263352 0.038567193 1.073 2.3509886e-38
-0.13263352 0.04044852 1.073 2.3509886e-38
-0.13263352 0.04985515 1.073 5.0807033e-39
-0.13012509 0.051109374 1.073 8.7560751e-39
-0.13075219 0.054558471 1.073 1.0602865e-38
-0.13075219 0.058321122 1.073 1.1154954e-38
-0.15295553 0.027380928 1.077 1.6500253e-38
-0.15295553 0.03021344 1.077 5.1018909e-39
-0.14917885 0.03021344 1.077 1.3838091e-38
-0.14540218 0.031157609 1.077 1.2826476e-38
-0.15201136 0.033045948 1.077 1.7161757e-38
-0.15012302 0.033045948 1.077 1.8261989e-38
