# .PCD v0.7 - Point Cloud Data file format
VERSION 0.7
FIELDS x y z rgb
SIZE 4 4 4 4
TYPE F F F F
COUNT 1 1 1 1
WIDTH 552
HEIGHT 1
VIEWPOINT 0 0 0 1 0 0 0
POINTS 552
DATA ascii
-0.07347285 0.082412511 0.95600003 6.3796817e-39
-0.070399836 0.082133144 0.95599997 3.9905141e-39
-0.067885555 0.082971238 0.95599997 2.5795102e-41
-0.07375221 0.084647425 0.95599997 1.5358231e-41
-0.070399836 0.084647425 0.95599997 1.770294e-39
-0.067885555 0.084647425 0.95599997 2.2287274e-39
-0.073142923 0.079868712 0.95899999 1.79872e-38
-0.069780037 0.079868719 0.95899999 1.3105921e-38
-0.066417143 0.079868712 0.95899999 2.9055924e-41
-0.084913053 0.083231606 0.95899999 2.6484541e-43
-0.082390882 0.083231606 0.95899999 4.720358e-40
-0.077850975 0.082559027 0.95900005 8.3093019e-39
-0.07482437 0.081550159 0.95899999 1.9180344e-38
-0.06809859 0.081550159 0.95899999 4.7710009e-41
-0.065576419 0.082390882 0.95899999 2.1138587e-41
-0.084913053 0.085753776 0.95899999 1.2436524e-41
-0.082390882 0.085753776 0.95899999 1.1017009e-41
-0.078187265 0.085753784 0.95900005 1.3899479e-41
-0.073983647 0.0865945 0.95899999 1.2440728e-41
-0.069780037 0.086594507 0.95899999 1.2083397e-41
-0.065856665 0.085473537 0.95899999 1.4262416e-41
-0.084913053 0.088275947 0.95899999 1.2789651e-41
-0.082222737 0.089621104 0.95900005 3.8014425e-40
-0.078187265 0.08974722 0.95900005 4.7234128e-40
-0.073983647 0.089957401 0.95900005 1.0427903e-40
-0.070020244 0.089476988 0.95900011 1.2086199e-41
-0.077749804 0.07521449 0.96399999 6.7495488e-39
-0.074369386 0.07521449 0.96399999 5.9180071e-39
-0.070143849 0.07521449 0.96399999 2.0544577e-39
-0.065918311 0.074369378 0.96399999 5.0039569e-39
-0.062115334 0.074791938 0.96399999 1.1995652e-38
-0.058312356 0.07521449 0.96399999 3.9717717e-39
-0.10113108 0.07803151 0.96399999 9.1313751e-39
-0.098877475 0.077749804 0.96399999 3.3252378e-39
-0.093806833 0.078594916 0.96399999 7.2958563e-39
-0.089581303 0.077749804 0.96399999 1.7708106e-38
-0.086200878 0.077749804 0.96399999 1.153896e-38
-0.081975341 0.077749811 0.96399993 2.1502378e-39
-0.077749804 0.077749804 0.96399999 3.6206848e-39
-0.074331254 0.077709042 0.96349996 5.5517413e-39
-0.070071094 0.077668279 0.963 1.1447508e-38
-0.065849937 0.077668279 0.96299994 1.5225319e-38
-0.061692782 0.077749811 0.96399993 4.9016678e-39
-0.058312356 0.076904699 0.96399999 1.3217047e-41
-0.10141279 0.080285132 0.96399999 9.4054214e-39
-0.093806833 0.081975341 0.96399987 9.3618508e-40
-0.089457981 0.081861377 0.96266669 4.2501943e-39
-0.086190715 0.081467927 0.96200001 1.2722424e-38
-0.081805274 0.080961928 0.96200001 1.798146e-38
-0.077588506 0.080118559 0.96200001 1.6970194e-38
-0.075058445 0.080118559 0.96200001 1.7799224e-38
-0.064938203 0.080118559 0.96200001 2.3674938e-41
-0.061648954 0.081918649 0.96333325 1.0861885e-40
-0.093468793 0.086031854 0.96399993 1.4843212e-39
-0.089395449 0.086022042 0.96200001 1.9683899e-40
-0.086865388 0.086022034 0.96200001 1.4595925e-41
-0.064938203 0.086865388 0.96200001 1.6037861e-41
-0.062472142 0.086111456 0.96299994 4.7270001e-40
-0.09268003 0.089299604 0.96399999 1.300653e-39
-0.089489251 0.08948838 0.96299994 2.9009961e-40
-0.086022042 0.090238802 0.96200001 1.2791052e-41
-0.083491974 0.091925509 0.96200001 5.6417397e-40
-0.07843186 0.091925509 0.96200001 1.2081113e-39
-0.069154978 0.091925509 0.96200001 1.5317594e-41
-0.065815307 0.08944235 0.96249998 4.7270281e-40
-0.063382991 0.088736199 0.96399999 4.7377621e-40
-0.089412287 0.093468793 0.96399993 4.7342308e-40
-0.086369894 0.094144873 0.96399993 1.9719352e-40
-0.081890315 0.094554633 0.963 1.9755366e-40
-0.077669159 0.094554633 0.96299994 6.5709828e-40
-0.074292243 0.094554633 0.96299994 1.9755926e-40
-0.070094764 0.094587073 0.96333331 1.5326001e-41
-0.066340864 0.093384281 0.96399999 1.9756487e-40
-0.086200871 0.09803237 0.96399999 1.6400797e-41
-0.081975341 0.098032378 0.96399993 1.495746e-41
-0.077749804 0.09803237 0.96399999 1.0751883e-40
-0.074369386 0.09803237 0.96399999 1.4247001e-41
-0.070481889 0.097863354 0.96399993 1.461274e-41
-0.076904699 0.10056768 0.96399999 1.6044867e-41
-0.07521449 0.10056768 0.96399999 1.5323199e-41
-0.10155886 0.07341399 0.96700001 8.5799964e-39
-0.098337442 0.073753089 0.96700001 6.7419328e-39
-0.094340988 0.074237511 0.96700007 1.0798194e-38
-0.089860089 0.074600823 0.96700001 5.7400758e-39
-0.086469136 0.073753089 0.96700001 3.9869506e-39
-0.082230449 0.073753089 0.96700001 2.4200018e-39
-0.077991769 0.072905347 0.96700001 3.2476031e-39
-0.073753089 0.072905347 0.96700001 2.4174921e-39
-0.069796994 0.073187932 0.96700001 8.4947694e-40
-0.065275721 0.072057612 0.96700001 7.3952672e-39
-0.061545681 0.072735801 0.96700001 8.86607e-39
-0.057476547 0.07341399 0.96700001 4.899528e-39
-0.054255143 0.073753089 0.96700001 3.7884777e-39
-0.097489715 0.077991769 0.96700001 1.1611299e-40
-0.094098769 0.077144042 0.96700001 1.0063862e-38
-0.05736351 0.078274354 0.96700001 1.0357417e-40
-0.054537725 0.077709191 0.96700001 2.3147881e-39
-0.10172839 0.083078191 0.96700001 8.7597157e-39
-0.098337442 0.082230449 0.96700001 1.3906276e-39
-0.058069959 0.081806585 0.96700001 1.3172206e-41
-0.097489715 0.086469136 0.96700001 6.5600106e-40
-0.095794246 0.087316871 0.96700001 1.1180666e-39
-0.060189299 0.086469136 0.96700001 5.6489564e-40
-0.097489715 0.089012347 0.96700001 6.563696e-40
-0.095229089 0.090142667 0.96700001 1.4854114e-39
-0.062732518 0.089860082 0.96700001 1.9898859e-40
-0.093081474 0.093759671 0.96700001 1.210258e-39
-0.090707824 0.095794246 0.96700001 1.6407804e-41
-0.065275721 0.094946504 0.96700001 1.4975677e-41
-0.063580252 0.093251027 0.96700001 2.000788e-40
-0.092403293 0.097489715 0.96700001 5.6885571e-40
-0.089860082 0.098337449 0.96700001 3.8483019e-40
-0.068666667 0.099185184 0.96700001 1.5331606e-41
-0.066406034 0.098054871 0.96700001 1.0717411e-40
-0.089012347 0.10088066 0.96700001 1.7842733e-41
-0.086469144 0.10172839 0.96700001 1.0931389e-40
-0.082230464 0.1017284 0.96700001 3.8519172e-40
-0.078274354 0.10201098 0.96700001 1.0860063e-40
-0.07341399 0.10189795 0.96700001 1.5686135e-41
-0.069514409 0.10172839 0.96700001 1.6044867e-41
-0.06697119 0.10088066 0.96700001 1.6407804e-41
-0.074600823 0.10427161 0.96700001 2.9264297e-40
-0.054423466 0.0663286 0.97000003 7.8464867e-39
-0.102044 0.069730058 0.97000003 8.5807194e-39
-0.098132312 0.069900133 0.97000009 8.3117962e-39
-0.085887037 0.070580438 0.97000003 1.2631684e-38
-0.081635192 0.07058043 0.97000003 1.3001178e-38
-0.078233734 0.07058043 0.97000003 1.4843269e-38
-0.073981896 0.070580438 0.97000003 1.7332155e-38
-0.069730058 0.07058043 0.97000003 2.2126972e-38
-0.0663286 0.07058043 0.97000003 2.3509886e-38
-0.061651587 0.070155241 0.97000003 1.5770929e-38
-0.057824932 0.069730058 0.97000003 8.8613939e-39
-0.054423466 0.069730058 0.97000003 7.0116981e-39
-0.093540333 0.072281167 0.97000003 4.6265508e-39
-0.090138867 0.072281167 0.97000003 4.8536355e-40
-0.068879694 0.072281167 0.97000003 2.0487194e-39
-0.067178965 0.072281167 0.97000003 3.4309083e-39
-0.053573098 0.079084098 0.97000003 5.3489314e-39
-0.056974567 0.082485564 0.97000003 1.2789651e-41
-0.054706924 0.081351742 0.97000003 1.208435e-39
-0.051872365 0.080784827 0.97000003 9.132562e-39
-0.10119363 0.086737394 0.97000003 6.4570866e-39
-0.0994929 0.086737394 0.97000003 1.9398609e-39
-0.057541482 0.085320115 0.97000003 3.8122325e-40
-0.097792163 0.090989232 0.97000003 1.1169974e-39
-0.061226401 0.090138867 0.97000003 1.6758128e-41
-0.096658342 0.093256883 0.97000003 1.0262409e-39
-0.06207677 0.092689969 0.97000003 1.6405001e-41
-0.093965515 0.098217353 0.97000003 5.6813544e-40
-0.065478235 0.0994929 0.97000003 3.8411413e-40
-0.063777499 0.096941799 0.97000003 5.6814385e-40
-0.092689969 0.10119363 0.97000003 2.9370095e-40
-0.090138867 0.102044 0.97000003 1.093195e-40
-0.0663286 0.102044 0.97000003 1.0860203e-40
-0.081635192 0.1045951 0.97000003 7.5182045e-40
-0.078233734 0.1045951 0.97000003 1.0860483e-40
-0.072281167 0.1045951 0.97000003 1.4985486e-41
-0.069730058 0.1045951 0.97000003 1.5328804e-41
-0.090603501 0.055558749 0.97500002 8.5884112e-39
-0.10128787 0.058550373 0.97500002 1.2722268e-38
-0.097441494 0.058123 0.97500002 1.005738e-38
-0.094022498 0.058123 0.97500002 7.3902309e-39
-0.090888426 0.057838082 0.97500008 2.4727313e-41
-0.060687248 0.058977749 0.97500002 8.1270813e-39
-0.058977749 0.058977749 0.97500002 8.5880524e-39
-0.10491858 0.063121751 0.97299999 1.1798532e-38
-0.10177113 0.062087066 0.97350001 1.0421729e-38
-0.097441494 0.061542001 0.97500002 7.0203694e-39
-0.094022498 0.061542001 0.97500002 1.7981102e-38
-0.091458254 0.061541997 0.97500002 2.3509886e-38
-0.060687248 0.061541997 0.97500002 6.3043619e-39
-0.057905059 0.062002953 0.97419995 8.2253712e-39
-0.054876115 0.06340608 0.97299999 9.0435949e-39
-0.10513425 0.065815754 0.97500002 1.189072e-38
-0.10168047 0.066077583 0.9746666 9.7796157e-39
-0.097749718 0.066020392 0.97442853 5.9169113e-39
-0.094022498 0.065815747 0.97500002 2.0927371e-38
-0.08999297 0.066304177 0.97500002 2.3509886e-38
-0.085416555 0.065769583 0.97433329 2.3509886e-38
-0.081999898 0.065769583 0.97433329 2.3509886e-38
-0.078298315 0.066054493 0.97433341 2.3509886e-38
-0.074324243 0.067063242 0.97449994 2.3509886e-38
-0.070089497 0.067525245 0.97500002 2.3509886e-38
-0.065388374 0.067097872 0.97500002 2.3509886e-38
-0.061521254 0.065792665 0.97466671 1.9086356e-38
-0.058198567 0.066048235 0.97340006 7.3840918e-39
-0.096388616 0.069092721 0.97299999 7.1147384e-39
-0.093829632 0.069945723 0.97299999 1.6686078e-38
-0.09051057 0.070016734 0.97399998 1.7514032e-38
-0.086152665 0.069092721 0.97299999 2.3509886e-38
-0.081887677 0.069092721 0.97299999 2.3509886e-38
-0.078475684 0.069092721 0.97299999 2.3509886e-38
-0.074210711 0.069092721 0.97299999 2.3509886e-38
-0.069945723 0.069092721 0.97299999 2.3509886e-38
-0.066533729 0.069092721 0.97299999 2.3509886e-38
-0.063121751 0.069092721 0.97299999 2.3509886e-38
-0.052885793 0.082740672 0.97299999 6.0893999e-39
-0.10321259 0.08700566 0.97299999 9.6801838e-39
-0.058003772 0.087858655 0.97299999 3.8266518e-40
-0.054102082 0.08516448 0.97340006 2.4995521e-39
-0.10251784 0.090557478 0.97449994 7.0116295e-39
-0.099800602 0.090417638 0.97299999 1.390657e-39
-0.06056276 0.09127064 0.97299999 1.5334409e-41
-0.058063388 0.090511449 0.97399998 2.000816e-40
-0.054874945 0.089406848 0.97500002 8.4293147e-40
-0.10114542 0.094307415 0.97500008 3.2353109e-39
-0.098947607 0.093829632 0.97299999 1.0255024e-39
-0.061131425 0.094113968 0.97299999 2.000844e-40
-0.058123 0.094022498 0.97500002 6.5998916e-40
-0.10000575 0.096586749 0.97500002 1.666902e-39
-0.097151667 0.097833373 0.9738 1.4850611e-39
-0.061952453 0.097793736 0.97340006 9.3692497e-40
-0.058123 0.096586749 0.97500002 7.5253931e-40
-0.097441494 0.1008605 0.97500002 1.3021005e-39
-0.094242543 0.10278537 0.97433329 1.0966982e-40
-0.09127064 0.10321259 0.97299999 2.0079626e-40
-0.064893492 0.10331868 0.97399998 9.351243e-40
-0.062089916 0.10139557 0.97466671 1.1195142e-39
-0.094022498 0.10513425 0.97500002 1.7830122e-41
-0.090557478 0.10593508 0.97449994 3.8266658e-40
-0.086152665 0.10577159 0.97299999 5.6705644e-40
-0.081887677 0.10662458 0.97299999 1.9901101e-40
-0.078475684 0.10662458 0.97299999 1.6051874e-41
-0.074210711 0.10662459 0.97299999 1.5334409e-41
-0.069945723 0.10662458 0.97299999 1.4970071e-41
-0.066129945 0.10577492 0.97460002 2.9298769e-40
-0.06239675 0.10513425 0.97500002 7.536071e-40
-0.088893995 0.10855325 0.97500002 1.1173534e-39
-0.085474998 0.10940799 0.97500002 1.9756627e-40
-0.08202824 0.11022564 0.97466671 1.050049e-40
-0.077980377 0.1097107 0.97442865 1.9683759e-40
-0.073508501 0.10940799 0.97500002 1.42456e-41
-0.070089497 0.10940799 0.97500002 1.6755326e-41
-0.082056001 0.11368175 0.97500002 9.329705e-40
-0.079491749 0.11368175 0.97500002 7.4893798e-40
-0.088881724 0.054586526 0.97800004 9.9688135e-39
-0.086595379 0.055729698 0.97799999 5.8261618e-39
-0.10202821 0.057444457 0.97799999 1.2445665e-38
-0.088881724 0.058587633 0.97800004 2.2908427e-41
-0.086023793 0.058587633 0.97800004 2.1110561e-41
-0.082308471 0.058301836 0.97799999 1.7895983e-41
-0.064303495 0.058301836 0.97799999 6.6437102e-40
-0.062588736 0.058301836 0.97799999 4.3557275e-39
-0.089167513 0.061731353 0.97799999 2.3509886e-38
-0.085737996 0.061731357 0.97799999 2.3509886e-38
-0.082308471 0.061731353 0.97799999 2.3509886e-38
-0.078021578 0.061731361 0.97800004 2.3509886e-38
-0.073734671 0.062588736 0.97799999 2.3509886e-38
-0.070305154 0.062588736 0.97799999 2.3509886e-38
-0.065589562 0.062160045 0.97799999 2.3509886e-38
-0.062588736 0.061731353 0.97799999 1.9546564e-38
-0.089167513 0.064303495 0.97799999 2.3509886e-38
-0.077164203 0.064303495 0.97799999 2.3509886e-38
-0.073448882 0.064875081 0.97800004 2.3509886e-38
-0.070305154 0.065160871 0.97799999 2.3509886e-38
-0.066361211 0.064989395 0.97799999 2.3509886e-38
-0.052300178 0.086595379 0.97799999 5.079592e-39
-0.10545774 0.090024889 0.97800004 1.1617731e-38
-0.052871764 0.090024889 0.97800004 2.2240639e-39
-0.10545773 0.093454413 0.97799999 1.1986874e-38
-0.10374297 0.094311789 0.97799999 7.6540337e-39
-0.054872315 0.094311789 0.97799999 9.3513971e-40
-0.10145663 0.09802711 0.97800004 2.405916e-39
-0.058301836 0.098598696 0.97799999 1.212786e-39
-0.055729698 0.096883938 0.97799999 1.2113609e-39
-0.10031345 0.10117084 0.97799999 4.78081e-40
-0.09802711 0.10317139 0.97800004 1.1180652e-39
-0.060873974 0.10374297 0.97799999 1.8534779e-39
-0.058587633 0.10088505 0.97800004 1.5786902e-39
-0.096883938 0.10545773 0.97799999 8.422e-40
-0.094311789 0.1071725 0.97799999 6.5780874e-40
-0.064303495 0.1071725 0.97799999 5.6885571e-40
-0.061731353 0.10631511 0.97799999 8.454412e-40
-0.093454413 0.10888726 0.97799999 7.5000437e-40
-0.09045358 0.11017332 0.97799999 9.329663e-40
-0.066875637 0.10974464 0.97799999 1.7474192e-41
-0.089167513 0.11317416 0.97799999 5.6418799e-40
-0.085737996 0.11403155 0.97800004 7.4894078e-40
-0.082308471 0.1157463 0.97799999 1.394313e-39
-0.077531658 0.11427651 0.97800004 1.9719492e-40
-0.073563196 0.11368859 0.97799999 1.4602931e-41
-0.070476629 0.11368859 0.97799999 1.42456e-41
-0.081451096 0.11746105 0.97799999 8.3970428e-40
-0.079736337 0.11746105 0.97799999 6.5531302e-40
-0.085934199 0.053900797 0.98220009 7.6679038e-39
-0.082299463 0.05425014 0.9822858 7.5760683e-39
-0.076774962 0.054346319 0.98400003 6.558685e-39
-0.073750466 0.054809198 0.98200005 2.7887843e-39
-0.070807487 0.055327307 0.98100007 3.7103679e-39
-0.067080781 0.055900648 0.98100001 7.6679038e-39
-0.085140988 0.057620667 0.98100001 1.5424092e-41
-0.08022552 0.056071602 0.98400003 5.9151373e-39
-0.078105077 0.057878412 0.98175001 1.3111417e-39
-0.074178629 0.057998862 0.98159999 6.6469752e-40
-0.070520818 0.058480676 0.98100001 1.6105123e-41
-0.067080781 0.05848068 0.98100001 1.8991798e-41
-0.073960856 0.061060708 0.98100001 2.3509886e-38
-0.070520818 0.061060708 0.98100001 2.3509886e-38
-0.067080781 0.061060708 0.98100001 2.3509886e-38
-0.10578123 0.095461108 0.98100001 1.143405e-38
-0.052460607 0.093741089 0.98100007 9.3513411e-40
-0.10406121 0.098041132 0.98100001 6.3633103e-39
-0.054809198 0.098428629 0.98200005 1.0283989e-39
-0.10437944 0.10092888 0.98400003 4.7077603e-39
-0.10234118 0.10062116 0.98100001 1.2152817e-39
-0.057620667 0.10234118 0.98100001 1.8538338e-39
-0.055123486 0.10163634 0.98250002 1.4861359e-39
-0.097478315 0.10783 0.98400003 7.5000437e-40
-0.061060708 0.10750125 0.98100001 1.4893729e-39
-0.057945143 0.10576906 0.98287505 1.119147e-39
-0.095082395 0.11059238 0.98300004 6.5816607e-40
-0.064500742 0.11008128 0.98100001 4.7737755e-40
-0.062207386 0.10979461 0.98100007 1.2131461e-39
-0.092952751 0.11360876 0.98175001 7.492897e-40
-0.066253647 0.11357962 0.98150009 3.8338685e-40
-0.062972717 0.11300584 0.98400003 7.536015e-40
-0.092302479 0.11645639 0.98400003 7.5000717e-40
-0.08943262 0.11769459 0.98280001 1.0258822e-39
-0.086000994 0.11868137 0.98100001 3.8051839e-40
-0.082318343 0.11938556 0.98325002 1.9612713e-40
-0.077519253 0.11886416 0.98250002 1.42456e-41
-0.074223332 0.1183116 0.98220009 1.4960262e-41
-0.070132636 0.11769354 0.98280001 1.4594524e-41
-0.066423282 0.11645639 0.98400003 2.9082829e-40
-0.086263999 0.12163224 0.98400003 1.0788597e-40
-0.081950799 0.12163224 0.98400009 1.4964466e-41
-0.077637598 0.12163224 0.98400003 1.3163798e-41
-0.08652699 0.051050927 0.98699999 1.2450524e-38
-0.083065912 0.051050927 0.98699999 1.3004048e-38
-0.080470107 0.05278147 0.98699999 1.0523414e-38
-0.07816273 0.053358316 0.98699999 9.968096e-39
-0.075278483 0.05278147 0.98699999 5.8272478e-39
-0.05278147 0.09864077 0.98699999 2.9119683e-40
-0.10296712 0.10296712 0.98699999 3.862497e-40
-0.05278147 0.10210185 0.98699999 5.6562151e-40
-0.10123658 0.10469767 0.98699999 1.7832924e-41
-0.099506043 0.10642821 0.98699999 6.5780874e-40
-0.05364674 0.10556294 0.98699999 1.7616396e-39
-0.098352358 0.10988928 0.98699999 5.6633197e-40
-0.061434165 0.11161982 0.98699999 1.2120741e-39
-0.058319192 0.11023539 0.98699999 1.0283975e-39
-0.05364674 0.10815874 0.98699999 2.3140861e-39
-0.049320389 0.10902402 0.98699999 3.7583525e-40
-0.047589846 0.10902402 0.98699999 1.2252794e-38
-0.096044965 0.11335036 0.98699999 7.5000437e-40
-0.062299438 0.11421563 0.98699999 1.029115e-39
-0.093737587 0.11796513 0.98699999 5.6741097e-40
-0.068356328 0.11854198 0.98699999 8.4255593e-40
-0.065760523 0.11767671 0.98699999 5.6741518e-40
-0.063164711 0.11681144 0.98699999 6.6105835e-40
-0.092583887 0.12113778 0.98699999 7.5000437e-40
-0.089988068 0.12200306 0.98699999 5.6633898e-40
-0.08652699 0.1237336 0.98699999 2.9047376e-40
-0.082200646 0.1237336 0.98699999 1.53246e-41
-0.077874303 0.1237336 0.98699999 1.5667918e-41
-0.07441321 0.12286832 0.98699999 1.5323199e-41
-0.070375293 0.12200306 0.98699999 3.8303372e-40
-0.066625789 0.12027252 0.98699999 1.2091903e-39
-0.089122802 0.12546416 0.98699999 3.8229944e-40
-0.086238563 0.126041 0.98699999 1.0570275e-40
-0.082200646 0.12632942 0.98699999 1.9970045e-40
-0.077874303 0.12632942 0.98699999 1.9935012e-40
-0.07441321 0.12632942 0.98699999 1.4239995e-41
-0.071817406 0.12546416 0.98699999 1.4254008e-41
-0.080633171 0.051154375 0.98900002 1.4295126e-38
-0.078899123 0.051154375 0.98900002 1.3464302e-38
-0.10664387 0.097973637 0.98900002 1.1525898e-38
-0.051154375 0.098840654 0.98900002 3.2310131e-39
-0.10628151 0.10164511 0.99100006 8.3019507e-39
-0.050324827 0.10238568 0.98975003 5.4426222e-39
-0.047830928 0.10261908 0.99199998 1.0231637e-38
-0.10259777 0.10606585 0.98900002 1.7472791e-41
-0.050287351 0.10577685 0.98900002 1.1205946e-39
-0.047686283 0.10577685 0.98900002 1.1061409e-38
-0.10222664 0.10917684 0.99100006 6.6139045e-40
-0.099707678 0.11097898 0.98900002 1.9790818e-40
-0.056356516 0.11097898 0.98900002 8.4472514e-40
-0.053755447 0.11097898 0.98900002 1.6712446e-39
-0.051154375 0.11011197 0.98900002 5.6310478e-40
-0.10001013 0.11392458 0.99199998 5.6559909e-40
-0.097494684 0.11485269 0.99000001 1.025864e-39
-0.061558656 0.1153141 0.98900002 1.3046229e-39
-0.058119055 0.11450538 0.98949999 9.3692076e-40
-0.053836975 0.11462197 0.99050003 1.578693e-39
-0.050401099 0.11383845 0.99124998 8.3608193e-40
-0.047830928 0.11305492 0.99199998 2.9759936e-40
-0.096239582 0.11791517 0.98900002 3.8373858e-40
-0.065026753 0.11878219 0.98900002 4.7666288e-40
-0.062136672 0.11820418 0.98900002 1.3046243e-39
-0.058176912 0.11809444 0.99049997 1.6705243e-39
-0.053918503 0.11740319 0.99199998 1.3935801e-39
-0.096385553 0.12156868 0.99049997 5.6632777e-40
-0.093927532 0.12225029 0.98900002 6.585234e-40
-0.091037445 0.12398433 0.98900002 6.5816186e-40
-0.068494841 0.12311731 0.98900002 2.8940036e-40
-0.065720372 0.1225971 0.98900002 6.5853741e-40
-0.061681382 0.12162872 0.99099994 1.3013859e-39
-0.058266766 0.12088181 0.99199998 1.6694495e-39
-0.093852207 0.12600438 0.99125004 7.4999456e-40
-0.090551488 0.12700328 0.99000001 7.4963723e-40
-0.087569356 0.12745243 0.98900002 8.4694479e-42
-0.069923632 0.12683612 0.9896 1.2812072e-41
-0.066043027 0.12687404 0.99125004 5.6778372e-40
-0.062180206 0.12479526 0.99199998 2.9298769e-40
-0.090154052 0.13015811 0.99199998 8.4110558e-40
-0.085879587 0.1301197 0.98949999 1.2081014e-39
-0.081500188 0.13005349 0.98900002 1.2791052e-41
-0.078032099 0.13005349 0.98900002 1.3153989e-41
-0.07456401 0.13005349 0.98900002 1.2781243e-41
-0.070333652 0.1302512 0.99049997 2.8939195e-40
-0.0669633 0.12957834 0.99199998 1.9755506e-40
-0.085226022 0.13305695 0.99199998 3.7978271e-40
-0.081747405 0.13305695 0.99199998 1.064132e-40
-0.078268796 0.1339266 0.99199998 7.4997494e-40
-0.073920533 0.13305697 0.99199998 1.0533561e-40
-0.070441917 0.13305695 0.99199998 3.7942678e-40
-0.10903541 0.098568007 0.995 1.2903403e-38
-0.10903541 0.10118486 0.995 1.2167665e-38
-0.1061278 0.10670932 0.99500006 5.6290257e-39
-0.10380171 0.11077998 0.995 1.1227329e-39
-0.10205714 0.11339682 0.995 1.6749721e-41
-0.10031258 0.11775824 0.99500006 1.1187743e-39
-0.098568007 0.11863053 0.995 9.3510188e-40
-0.054081567 0.11950281 0.995 1.8523919e-39
-0.098568007 0.12124739 0.995 1.0251367e-39
-0.057279937 0.12241043 0.99500006 1.5768868e-39
-0.096823446 0.12473652 0.995 1.0273003e-39
-0.061059825 0.12648107 0.995 5.6921304e-40
-0.057861459 0.12531805 0.99500006 1.2106126e-39
-0.094206601 0.12909794 0.995 7.4854561e-40
-0.091589741 0.13171478 0.995 1.1346314e-41
-0.066002771 0.13113326 0.99500006 1.9683899e-40
-0.062181342 0.12947176 0.995 2.9047095e-40
-0.088682137 0.13404088 0.99500006 1.1699441e-41
-0.08548376 0.13520391 0.995 1.0617638e-41
-0.08199463 0.13520391 0.995 1.0461534e-40
-0.07414408 0.13520393 0.99500006 1.0389367e-40
-0.069782667 0.13433163 0.995 1.172046e-41
-0.06629353 0.13345934 0.995 1.2079193e-41
-0.08199463 0.13694848 0.995 1.2415504e-41
-0.078505501 0.13694848 0.995 4.7303212e-40
-0.11111399 0.098865204 0.99800003 1.1797057e-38
-0.11111399 0.10061503 0.99800003 1.1614131e-38
-0.10761434 0.1049896 0.99800003 9.5015855e-39
-0.10673942 0.11023907 0.99800003 6.54918e-39
-0.10551455 0.11356375 0.99800009 4.0603338e-39
-0.10411468 0.11636347 0.99800003 8.8435946e-42
-0.10236486 0.1181133 0.99800003 8.4399786e-40
-0.049870059 0.11694675 0.99800003 5.5983555e-40
-0.10119831 0.12219623 0.99800003 9.3402288e-40
-0.098865204 0.12336278 0.99800003 3.808491e-40
-0.055119537 0.12161295 0.99800003 1.8534652e-39
-0.10061503 0.12511261 0.99800003 6.5778912e-40
-0.098281935 0.12627918 0.99800003 9.3365714e-40
-0.056869365 0.12686244 0.99800003 7.4999175e-40
-0.097698651 0.12919556 0.99800003 1.3009921e-39
-0.095365554 0.13036209 0.99800003 1.3906724e-39
-0.05774428 0.12948719 0.99800003 2.9009401e-40
-0.094199002 0.13269518 0.99800003 3.7940156e-40
-0.091282628 0.1350283 0.99800003 1.169804e-41
-0.06911815 0.13561156 0.99800003 1.1354721e-41
-0.066493407 0.13561156 0.99800003 1.2070785e-41
-0.06190012 0.13408045 0.99800009 1.0390348e-40
-0.058619194 0.13211191 0.99800003 3.8048336e-40
-0.089241162 0.13736139 0.99800003 1.134211e-41
-0.085741505 0.13823631 0.99800003 1.1693836e-41
-0.082241856 0.13911122 0.99800003 1.24113e-41
-0.077429831 0.13867377 0.99800003 4.7158878e-40
-0.073492721 0.13823631 0.99800003 1.0616237e-41
-0.069993064 0.13823631 0.99800003 1.0623244e-41
-0.066493407 0.13736139 0.99800003 1.0354054e-40
-0.10559772 0.11788332 1.0010002 1.4802855e-39
-0.050019972 0.11846835 1.001 9.9949014e-41
-0.10519334 0.12170062 1.0016 9.8861607e-42
-0.10267257 0.12373361 1.001 1.9968783e-40
-0.054115172 0.12314858 1.0010002 1.4846799e-39
-0.051291719 0.12105043 1.003 1.2988453e-39
-0.10562079 0.12586477 1.0039999 9.5288296e-42
-0.10208754 0.12665877 1.0010002 4.7411813e-40
-0.05528523 0.12636624 1.001 8.4003079e-40
-0.10170589 0.1298434 1.003 5.6343689e-40
-0.0991624 0.13075395 1.001 2.0378327e-39
-0.054753676 0.13029955 1.0020001 7.4745961e-40
-0.09843345 0.13358647 1.0025001 8.425251e-40
-0.09565223 0.13426413 1.001 1.204416e-41
-0.057625346 0.13367909 1.0010002 2.8864506e-40
-0.054753676 0.13322644 1.0020001 1.9320543e-40
-0.097699232 0.13642685 1.0039999 1.0269093e-39
-0.093978293 0.13789304 1.0018572 1.1332301e-41
-0.08950942 0.13952939 1.001 1.0623244e-41
-0.065424971 0.13919516 1.00175 1.0979173e-41
-0.061520077 0.13886093 1.0024999 9.8868613e-41
-0.057960596 0.13699999 1.00175 9.8135734e-41
-0.055450913 0.13642685 1.0039999 1.9898438e-43
-0.093229324 0.14248222 1.00325 1.9968503e-42
-0.08950942 0.14216202 1.001 4.8695122e-42
-0.08599925 0.14216202 1.001 7.0275118e-42
-0.082489073 0.14216202 1.001 1.1335103e-41
-0.078101367 0.14216204 1.001 1.0244893e-40
-0.073713645 0.14216202 1.001 9.1728997e-42
-0.070360601 0.14248222 1.00325 9.8494466e-41
-0.066893168 0.1417079 1.0039999 2.8540526e-40
-0.092418194 0.14522858 1.0039999 7.6861221e-42
-0.089777671 0.14522858 1.0039999 2.4943113e-43
-0.086256981 0.14610875 1.0039999 1.3354374e-42
-0.081773713 0.14596412 1.003 2.0150672e-42
-0.077748641 0.14581537 1.0039999 4.8863277e-42
-0.073934555 0.14522858 1.0039999 5.5351289e-43
-0.071294032 0.14522858 1.0039999 1.821688e-43
-0.048554178 0.11917844 1.007 1.835701e-43
-0.046788573 0.11917844 1.007 8.4893856e-39
-0.049436983 0.12182686 1.007 9.7062339e-41
-0.046788573 0.12094405 1.007 6.4614447e-39
-0.052968197 0.12535806 1.007 3.8048476e-40
-0.10328799 0.13153769 1.007 1.0987581e-41
-0.053851001 0.12888928 1.007 4.7159999e-40
-0.10152237 0.13330328 1.007 1.1682625e-41
-0.053851001 0.13506891 1.007 1.6955711e-43
-0.097991161 0.13860011 1.007 1.9752143e-40
-0.055616606 0.13860011 1.007 1.863727e-43
-0.09622556 0.14124852 1.007 2.3822074e-43
-0.065768845 0.14345554 1.007 9.0523881e-43
-0.061796229 0.14213133 1.007 1.863727e-43
-0.059147816 0.14036572 1.007 1.849714e-43
-0.067093045 0.14566255 1.007 1.7235971e-43
-0.048698831 0.12307522 1.01 3.4163657e-42
-0.052240565 0.12661695 1.01 1.2764428e-41
-0.050469697 0.1248461 1.01 1.0609231e-41
-0.106252 0.12927327 1.01 9.2345569e-43
-0.052240565 0.13015869 1.01 1.0253301e-41
-0.10271026 0.13458586 1.01 7.0289131e-42
-0.052240565 0.13458586 1.01 1.849714e-43
-0.10005396 0.1381276 1.01 1.200917e-39
-0.053126 0.1381276 1.01 6.5403069e-39
-0.10005396 0.14166933 1.01 2.3140552e-39
-0.098283097 0.14166933 1.01 2.2701035e-43
-0.058143452 0.14196448 1.01 2.7715021e-40
-0.055782299 0.14078389 1.01 1.2442527e-38
-0.049435526 0.12640102 1.013 7.0106962e-42
-0.050027572 0.12936121 1.013 9.1602881e-42
-0.10567953 0.13232143 1.013 7.7449766e-42
-0.10390341 0.13587368 1.013 3.4598059e-42
-0.05061961 0.13587368 1.013 1.2541642e-38
-0.10212728 0.13853787 1.013 1.9337919e-43
-0.05061961 0.13853787 1.013 2.3505581e-38
-0.10987877 0.12774524 1.0190001 5.2664762e-39
-0.10987877 0.13042521 1.0190001 1.2174653e-38
-0.10777389 0.13093191 1.016 4.5166288e-39
-0.048988134 0.13093191 1.016 5.9499133e-42
-0.10599251 0.13449469 1.016 9.3326478e-43
-0.049951151 0.13380125 1.0175 3.5039931e-39
