# .PCD v0.7 - Point Cloud Data file format
VERSION 0.7
FIELDS x y z rgb
SIZE 4 4 4 4
TYPE F F F F
COUNT 1 1 1 1
WIDTH 721
HEIGHT 1
VIEWPOINT 0 0 0 1 0 0 0
POINTS 721
DATA ascii
-0.046270467 0.14758684 0.91000003 3.0305714e-39
-0.049461532 0.14998013 0.91000003 1.1414506e-38
-0.046270467 0.14998013 0.91000003 1.0765201e-38
-0.042281635 0.14998013 0.91000003 1.1687502e-38
-0.046270467 0.15317118 0.91000003 2.1282715e-38
-0.043079399 0.15237342 0.91000003 2.1464129e-38
-0.064974152 0.13877194 0.91500002 2.3498574e-38
-0.061765548 0.13877194 0.91500008 2.3509886e-38
-0.064974152 0.14198056 0.91500008 1.0212394e-38
-0.061765552 0.14198053 0.91500008 1.8046846e-38
-0.058022182 0.14305007 0.91500008 2.275277e-38
-0.0545462 0.14358485 0.91500002 2.3509785e-38
-0.036096748 0.14358485 0.91500002 2.3509872e-38
-0.033690296 0.14358485 0.91500002 1.4560876e-38
-0.0304817 0.14358485 0.91500002 7.8228776e-39
-0.061765552 0.14518915 0.91500008 7.2654074e-39
-0.056952652 0.1459913 0.91500002 1.3055707e-38
-0.053744048 0.14599131 0.91500008 1.6293378e-38
-0.049678944 0.14583087 0.91399997 1.6762307e-38
-0.045672577 0.14583087 0.91399997 1.6497923e-38
-0.04166621 0.14583087 0.91400003 1.5848976e-38
-0.037686732 0.14593783 0.91466665 1.4829811e-38
-0.033690296 0.1459913 0.91500002 7.5563773e-39
-0.0304817 0.1459913 0.91500002 1.0948523e-38
-0.056952652 0.15000205 0.91500008 1.482542e-38
-0.053640019 0.14971021 0.91322231 1.0033757e-38
-0.049624592 0.14807338 0.91299999 2.8469004e-39
-0.044021815 0.14807338 0.91299999 2.4795584e-39
-0.041620627 0.14807338 0.91299999 2.7550649e-39
-0.037618641 0.14967418 0.91299999 1.2242855e-38
-0.033652604 0.14983812 0.91400003 1.5928438e-38
-0.030642131 0.1496812 0.91500008 1.7956718e-38
-0.056952652 0.1540128 0.91500002 1.9525829e-38
-0.053666901 0.15378837 0.91366667 1.8882284e-38
-0.049624592 0.15367615 0.91299999 2.2018391e-38
-0.044021815 0.15447655 0.91299999 1.9344349e-38
-0.041353829 0.15394296 0.91299999 2.24751e-38
-0.037658677 0.15384477 0.91400003 2.0906752e-38
-0.033690296 0.1540128 0.91500002 1.9340749e-38
-0.031283852 0.15321064 0.91500002 2.0170806e-38
-0.05370567 0.15790921 0.91433334 1.915457e-38
-0.049643002 0.15773629 0.91333336 2.1462797e-38
-0.045622606 0.15767813 0.91299999 2.0449685e-38
-0.041635528 0.15773629 0.91333342 1.768089e-38
-0.037691504 0.15798555 0.91477787 1.6941155e-38
-0.033690296 0.15802355 0.91500008 1.5464246e-38
-0.053423192 0.16187386 0.91500008 9.562371e-39
-0.049733296 0.1620343 0.91500002 1.0851655e-38
-0.045722552 0.1620343 0.91500008 1.0946002e-38
-0.0417118 0.16203429 0.91500002 1.0947437e-38
-0.037701052 0.1620343 0.91500008 1.0951024e-38
-0.034492448 0.16123214 0.91500002 8.28349e-39
-0.048931152 0.16524288 0.91500002 9.9365289e-39
-0.045722552 0.16508245 0.91500008 9.0170978e-39
-0.0417118 0.1652429 0.91500002 1.0398935e-38
-0.0385032 0.16444074 0.91500002 1.1411642e-38
-0.028228667 0.13469106 0.92000002 2.3509816e-38
-0.025809066 0.13469106 0.92000002 2.3509862e-38
-0.022582933 0.13469106 0.92000002 2.3507554e-38
-0.068406299 0.13922693 0.91799998 1.0221004e-38
-0.066152915 0.13729547 0.91800004 2.2116363e-38
-0.061989974 0.13686198 0.91833341 2.3139295e-38
-0.058296584 0.13889146 0.91933334 2.3047457e-38
-0.033067867 0.13953027 0.92000002 2.3509835e-38
-0.02961665 0.13800552 0.91925001 2.3509886e-38
-0.025752958 0.13761738 0.9180001 2.2586793e-38
-0.022565983 0.13781667 0.9193334 1.3355299e-38
-0.068406299 0.14083649 0.91799998 1.049651e-38
-0.066796735 0.14164126 0.91799998 1.1407691e-38
-0.057675898 0.14137301 0.91799998 2.3509886e-38
-0.054312654 0.14198703 0.91919994 2.3509886e-38
-0.050005067 0.14275639 0.92000002 2.3509886e-38
-0.046778932 0.14275639 0.92000002 2.3509876e-38
-0.041939735 0.14275639 0.92000002 2.3509886e-38
-0.037484072 0.14227554 0.91949999 2.3509886e-38
-0.033837579 0.14179468 0.91900003 2.3509886e-38
-0.029776856 0.14164126 0.9180001 2.0280847e-38
-0.025752958 0.14164126 0.91799998 9.2047316e-39
-0.02281788 0.14147529 0.91866672 1.6295445e-38
-0.066211127 0.14611474 0.9188 1.49208e-38
-0.061968055 0.14727473 0.91799998 1.252409e-38
-0.058748938 0.14646995 0.91799998 6.6143081e-39
-0.052310698 0.1440556 0.91799998 2.3509881e-38
-0.049896356 0.1440556 0.91799998 2.3509886e-38
-0.045972403 0.14436947 0.92000002 2.3509886e-38
-0.041939735 0.14436947 0.92000002 2.3509886e-38
-0.038629435 0.1440556 0.91799998 2.3509886e-38
-0.0281673 0.14566517 0.91799998 1.426894e-38
-0.025936356 0.1454709 0.9188 1.6941878e-38
-0.023389466 0.14436947 0.92000002 1.7956785e-38
-0.066100232 0.14993411 0.91949999 1.8972705e-38
-0.062035561 0.14985302 0.91900003 1.7132376e-38
-0.058748938 0.14968908 0.91799998 1.4368354e-38
-0.0281673 0.14968908 0.91799998 1.896977e-38
-0.026615599 0.15001521 0.92000002 2.0813671e-38
-0.065329202 0.1524348 0.92000002 2.1175654e-38
-0.061872631 0.15404788 0.92000008 2.0445662e-38
-0.058791608 0.15382461 0.91866672 2.0815514e-38
-0.029343287 0.15408644 0.91885722 1.9894271e-38
-0.026077911 0.15512323 0.92000002 1.8789395e-38
-0.062103063 0.15808055 0.92000002 1.5739048e-38
-0.05794416 0.15773687 0.91799998 2.0353109e-38
-0.029797314 0.15785144 0.91866672 1.4915417e-38
-0.025809066 0.15808053 0.92000002 9.9379835e-39
-0.060489997 0.16130665 0.92000002 6.5271361e-39
-0.057965487 0.16182008 0.91833341 9.1085745e-39
-0.055529818 0.16337034 0.91799998 7.268636e-39
-0.0335325 0.16283382 0.91799998 9.849357e-39
-0.030018164 0.16178027 0.91925001 1.0400011e-38
-0.025809066 0.16050012 0.92000002 1.3076155e-38
-0.057801556 0.16587703 0.92000002 1.2985041e-38
-0.053960007 0.16590565 0.91866672 1.1325185e-38
-0.050701138 0.16578467 0.91799998 1.0213112e-38
-0.045872457 0.16658945 0.91799998 1.2798496e-38
-0.037422266 0.16618706 0.91799998 1.4918976e-38
-0.03385555 0.16605601 0.91949999 1.3351307e-38
-0.031454798 0.16533934 0.92000002 1.5008335e-38
-0.052962355 0.16910315 0.92000002 1.3717594e-38
-0.049978327 0.16928038 0.91950005 1.334953e-38
-0.045699134 0.16956061 0.9191429 1.2613403e-38
-0.041909344 0.17005639 0.9193334 1.150671e-38
-0.038196012 0.16906412 0.91920006 1.4547723e-38
-0.072824694 0.12703863 0.92299998 1.9904375e-38
-0.072824694 0.13027529 0.92299998 2.0633643e-38
-0.022656571 0.1318936 0.92299998 2.3509886e-38
-0.06877888 0.13432109 0.92299998 2.3509713e-38
-0.066351391 0.13432111 0.92299998 2.3509886e-38
-0.063384466 0.13459083 0.92300004 2.239669e-38
-0.0293996 0.13405138 0.92300004 2.3509883e-38
-0.025893226 0.13351195 0.92299998 2.3509886e-38
-0.022656571 0.13351195 0.92299998 2.3509886e-38
-0.069588043 0.13836692 0.92299998 1.6204707e-38
-0.058259755 0.13755776 0.92299998 2.3037275e-38
-0.054618523 0.13958067 0.92299998 2.2669235e-38
-0.050168123 0.13998525 0.92299998 2.3503618e-38
-0.036951791 0.13944581 0.92300004 2.3501425e-38
-0.033984859 0.13836692 0.92299998 2.3415064e-38
-0.031557366 0.1367486 0.92299998 2.3509886e-38
-0.020229083 0.13836692 0.92300004 1.537494e-38
-0.06877888 0.1432219 0.92299998 1.2615565e-38
-0.052595612 0.14160357 0.92299998 2.3509886e-38
-0.050168123 0.14160357 0.92299998 2.3509834e-38
-0.045717724 0.14200816 0.92299998 2.3509823e-38
-0.042076491 0.14160357 0.92299998 2.350981e-38
-0.038839839 0.14160357 0.92299998 2.3509865e-38
-0.021038245 0.14241274 0.92299998 1.943041e-38
-0.06877888 0.1456494 0.92299998 1.7683407e-38
-0.022386849 0.14591913 0.92300004 1.9150955e-38
-0.069426209 0.14937155 0.92299998 2.2011497e-38
-0.025084062 0.1496952 0.92300004 1.998574e-38
-0.023465736 0.1496952 0.92300004 1.9985382e-38
-0.06877888 0.15374103 0.92299998 1.6842508e-38
-0.066621117 0.15401076 0.92300004 1.9887427e-38
-0.06311474 0.15455019 0.92299998 2.0445305e-38
-0.025623506 0.15347132 0.92300004 2.0446357e-38
-0.022656571 0.15374103 0.92299998 1.7957451e-38
-0.068778887 0.15778685 0.92300004 9.2972678e-39
-0.066351391 0.15778685 0.92299998 1.1595316e-38
-0.022656573 0.15778685 0.92299998 1.0211679e-38
-0.066081673 0.16156295 0.92300004 1.1511005e-38
-0.06311474 0.16183266 0.92299998 7.8239538e-39
-0.025893226 0.16264182 0.92299998 1.4551288e-38
-0.022926293 0.16156295 0.92300004 1.5015126e-38
-0.062074386 0.16541609 0.92299998 1.3814817e-38
-0.059068918 0.1674968 0.92299998 1.4367233e-38
-0.029615376 0.16620214 0.92299998 1.4180368e-38
-0.026162948 0.1647996 0.92300004 1.4459797e-38
-0.0040458161 0.1674968 0.92299998 1.7953481e-38
-0.0016183266 0.1674968 0.92299998 1.6756391e-38
-0.058259755 0.16911513 0.92299998 1.3441361e-38
-0.055292826 0.17019401 0.92300004 1.1596399e-38
-0.036412347 0.17073345 0.92299998 1.0674083e-38
-0.034254581 0.16965458 0.92300004 1.2613774e-38
-0.031557366 0.16911513 0.92299998 1.1416659e-38
-0.0097099598 0.16992429 0.92299998 1.3903433e-38
-0.0060687247 0.16992429 0.92299998 1.4271172e-38
-0.0016183266 0.16992429 0.92299998 1.49143e-38
0.00080916326 0.17073345 0.92299998 1.2704149e-38
-0.052595612 0.17235178 0.92299998 8.5607902e-39
-0.050168123 0.17235178 0.92299998 7.6406415e-39
-0.046445973 0.17332278 0.92299998 1.1141511e-38
-0.042076491 0.1739701 0.92299998 1.2615543e-38
-0.038839839 0.17235178 0.92299998 8.0036787e-39
-0.0089007961 0.17235178 0.92299998 1.206679e-38
-0.0064733066 0.17235178 0.92299998 1.1235952e-38
-0.00080916326 0.17316094 0.92299998 1.242936e-38
0.00080916326 0.17316094 0.92299998 1.1875838e-38
-0.069965005 0.12284553 0.92799997 2.3509886e-38
-0.017084477 0.12203199 0.92799997 8.0192079e-39
-0.014915022 0.12230317 0.92799997 8.6642214e-39
-0.072405644 0.12609972 0.92799997 2.3509785e-38
-0.06988962 0.12596208 0.92699999 2.3509886e-38
-0.065873019 0.12605384 0.92766666 1.8149841e-38
-0.025219945 0.12772682 0.92799997 1.676787e-38
-0.021965757 0.12691328 0.92799997 2.3509824e-38
-0.017735315 0.12642515 0.92799997 1.843329e-38
-0.015457386 0.12447263 0.92799997 1.0317905e-38
-0.069738835 0.12974666 0.92500001 2.3509886e-38
-0.065684251 0.12974668 0.92500007 1.8522262e-38
-0.028474132 0.130981 0.92799997 2.3509886e-38
-0.02601311 0.1300616 0.92724997 1.6868167e-38
-0.021916669 0.12988693 0.92600006 2.3141089e-38
-0.017898025 0.13016745 0.92799997 2.1555928e-38
-0.073793411 0.13461217 0.92500007 1.8140064e-38
-0.070144288 0.13339581 0.92500001 2.1748652e-38
-0.065684251 0.13217942 0.92500007 2.2213658e-38
-0.061680291 0.13390842 0.92574996 2.331634e-38
-0.058010437 0.13503683 0.92679995 2.350909e-38
-0.053694077 0.13586229 0.92799997 2.3509886e-38
-0.050439887 0.13586229 0.92799997 2.3509886e-38
-0.046372157 0.13586229 0.92799997 2.3509886e-38
-0.042033248 0.13531993 0.92799997 2.3509886e-38
-0.038216963 0.13497554 0.92750001 2.3509886e-38
-0.034114167 0.13401648 0.92650002 2.3509886e-38
-0.030433699 0.13350296 0.92574996 2.3509886e-38
-0.025949333 0.13217942 0.92500001 2.2310268e-38
-0.020272916 0.13380127 0.92500007 1.3272878e-38
-0.018304799 0.13382843 0.92799997 1.8131058e-38
-0.074032746 0.13748938 0.92799997 1.7037337e-38
-0.070549749 0.13704491 0.92500001 1.5167206e-38
-0.057575084 0.13704491 0.92500001 2.3500755e-38
-0.054041237 0.13778254 0.92559999 2.3321086e-38
-0.050276831 0.13785583 0.92500001 2.3315642e-38
-0.046271347 0.13800399 0.926 2.3042658e-38
-0.042167664 0.13785583 0.92500001 2.322811e-38
-0.038437452 0.13769364 0.92500001 2.3506514e-38
-0.034869418 0.13704491 0.92500001 2.3509874e-38
-0.018711573 0.13830292 0.92799997 1.6848585e-38
-0.070549749 0.14272133 0.92500001 1.6304074e-38
-0.046222251 0.14028859 0.92500007 2.3499983e-38
-0.042167664 0.14028859 0.92500001 2.3500325e-38
-0.039734915 0.14028859 0.92500001 2.3502845e-38
-0.020272916 0.14353225 0.92500001 2.1458732e-38
-0.018711573 0.14237064 0.92799997 2.0350215e-38
-0.070549749 0.145965 0.92500001 1.8973787e-38
-0.020272916 0.145965 0.92500001 2.1547318e-38
-0.018711573 0.14643839 0.92799997 2.0812678e-38
-0.077286929 0.15050612 0.92799997 1.2155663e-38
-0.073399171 0.15015785 0.92585719 1.5644704e-38
-0.070549749 0.15164141 0.92500001 1.8503059e-38
-0.021083832 0.15001959 0.92500007 1.6758547e-38
-0.017898025 0.14969257 0.92799997 1.5647192e-38
-0.014643839 0.15050612 0.92799997 1.5190165e-38
-0.077286929 0.15376031 0.92799997 1.2801774e-38
-0.074129932 0.15393966 0.92628574 1.0679119e-38
-0.070549749 0.15407416 0.92500001 1.3799718e-38
-0.020272916 0.15407416 0.92500001 1.6297572e-38
-0.017877864 0.15359375 0.92699999 1.6572365e-38
-0.014033679 0.1539637 0.92799997 1.7493624e-38
-0.010576106 0.15457386 0.92799997 1.4368389e-38
-0.077286929 0.15701449 0.92799997 1.3260951e-38
-0.073517971 0.15725715 0.92559999 1.270955e-38
-0.070549749 0.15812874 0.92500007 1.0680188e-38
-0.020272916 0.15812874 0.92500007 1.2698789e-38
-0.018024443 0.15800846 0.92619991 1.8137202e-38
-0.013830292 0.15782805 0.92799997 2.1273998e-38
-0.010033742 0.15755686 0.92799997 1.9624239e-38
-0.073219195 0.16026868 0.92799997 1.427181e-38
-0.069796033 0.16231549 0.92574996 1.3626809e-38
-0.067306079 0.16299425 0.92500001 1.3908432e-38
-0.020835444 0.16262984 0.926 8.4704232e-39
-0.017735315 0.16222119 0.92799997 1.3800838e-38
-0.013830292 0.16189577 0.92799991 2.1366174e-38
-0.0099252686 0.16222119 0.92799997 2.1550604e-38
-0.0056948261 0.16352287 0.92799997 2.0076243e-38
-0.069965005 0.16514996 0.92799997 1.261339e-38
-0.06600862 0.16591354 0.92500001 1.3259469e-38
-0.062440578 0.16785975 0.92500001 1.2336094e-38
-0.028382082 0.16785975 0.92500001 1.2149922e-38
-0.025679028 0.16731915 0.92500007 1.2245694e-38
-0.022723418 0.16556177 0.92575002 1.0405751e-38
-0.012996145 0.16650574 0.92650002 1.2514387e-38
-0.0097415205 0.16641587 0.92600006 1.8044257e-38
-0.005886049 0.16623537 0.92612499 2.0074406e-38
-0.0016218333 0.16623791 0.92500001 1.8322258e-38
-0.06622269 0.16938041 0.92799997 1.1601047e-38
-0.061729603 0.17056996 0.92649996 1.1508136e-38
-0.058385998 0.17110342 0.92500001 1.1044653e-38
-0.033247583 0.17110342 0.92500001 1.2057714e-38
-0.029697958 0.17056566 0.92560005 1.1875836e-38
-0.026275745 0.1703904 0.92699999 1.169073e-38
-0.023592852 0.16840415 0.92799997 1.1784718e-38
-0.012974666 0.16948158 0.92500001 1.1966603e-38
-0.0048654997 0.1702925 0.92500001 1.5468993e-38
-0.061015997 0.17328544 0.92799997 1.3719003e-38
-0.058241934 0.17364107 0.92699999 1.215493e-38
-0.054655787 0.17369835 0.92500001 1.141917e-38
-0.050276831 0.17434707 0.92500001 1.335454e-38
-0.046222251 0.17596893 0.92500007 1.5099446e-38
-0.042167664 0.17596892 0.92500001 1.3441722e-38
-0.038113084 0.17461739 0.92500007 1.1693242e-38
-0.034113728 0.17381889 0.92649996 1.1691451e-38
-0.03091477 0.17328544 0.92799997 1.3441716e-38
-0.0047033164 0.17467146 0.92500001 1.1515073e-38
-0.0020272918 0.17475253 0.92500001 1.2338603e-38
0.00081091665 0.17596892 0.92500001 1.1783283e-38
-0.052880529 0.17653961 0.92799997 1.5007212e-38
-0.050168704 0.17708199 0.92799997 1.3254846e-38
-0.046323068 0.17878829 0.92699999 1.0215981e-38
-0.042529147 0.17851709 0.92699999 1.0398218e-38
-0.037829917 0.17775993 0.92799997 1.1599612e-38
-0.034982506 0.17653961 0.92799997 9.945856e-39
-0.0048733894 0.17869228 0.92649996 1.0964411e-38
-0.0016244632 0.17869227 0.92649996 1.1418453e-38
0.0016218333 0.17840166 0.92500001 1.0769864e-38
-0.0016270932 0.18142089 0.92799997 1.1140435e-38
0.0016270932 0.18223444 0.92799997 1.0127375e-38
0.004067733 0.18223444 0.92799997 9.7637082e-39
0.0024406398 0.18467508 0.92799997 1.1141899e-38
0.004067733 0.18467508 0.92799997 1.068537e-38
-0.017936599 0.1198491 0.93000001 1.4104836e-38
-0.0154907 0.1198491 0.93000001 7.2831044e-39
-0.070115805 0.1214797 0.93000001 2.3509886e-38
-0.066039301 0.12229501 0.93000001 1.7783247e-38
-0.0627781 0.1231103 0.93000001 2.1453318e-38
-0.021605451 0.12270265 0.93000001 2.3509837e-38
-0.018751899 0.122295 0.93000001 2.3324764e-38
-0.072561704 0.1247409 0.93000001 2.3509837e-38
-0.0627781 0.1255562 0.93000001 2.2651861e-38
-0.025274299 0.12637149 0.93000001 1.6304747e-38
-0.022013098 0.1247409 0.93000001 2.3509823e-38
-0.018751899 0.1247409 0.93000001 2.3509867e-38
-0.014403634 0.12582797 0.93000001 1.1327424e-38
-0.062125862 0.12995882 0.93000001 2.3400275e-38
-0.059516896 0.13044798 0.93000001 2.3509874e-38
-0.029079033 0.1296327 0.93000001 2.2583975e-38
-0.0269049 0.12800209 0.93000001 1.4185902e-38
-0.014675399 0.12881739 0.93000001 1.491899e-38
-0.061147496 0.13289389 0.93000001 2.3509886e-38
-0.057478644 0.13330154 0.93000001 2.3509886e-38
-0.053809799 0.13370919 0.93000001 2.3509886e-38
-0.049733296 0.13370919 0.93000001 2.3509886e-38
-0.0456568 0.13452449 0.93000001 2.3509886e-38
-0.042667367 0.13343742 0.93000001 2.3509886e-38
-0.038319096 0.13289389 0.93000001 2.3509886e-38
-0.031796698 0.13289389 0.93000001 2.3509886e-38
-0.0171213 0.13452449 0.93000001 2.3008088e-38
-0.073376998 0.13941629 0.93000001 1.7222384e-38
-0.046472099 0.1361551 0.93000001 2.3509886e-38
-0.073376998 0.1418622 0.93000001 1.8606057e-38
-0.073213942 0.14626482 0.93000001 1.989103e-38
-0.0171213 0.14593869 0.93000001 1.9244637e-38
-0.014947167 0.14702576 0.93000001 1.5377782e-38
-0.078540564 0.14974344 0.93000001 1.1788391e-38
-0.075822897 0.1491999 0.93000001 1.1597101e-38
-0.01345245 0.14960755 0.93000001 1.3812684e-38
-0.0105989 0.15001521 0.93000001 1.2067137e-38
-0.012229499 0.1524611 0.93000001 1.3263516e-38
-0.0105989 0.1524611 0.93000001 1.2433755e-38
-0.075822897 0.1589835 0.93000001 1.3168754e-38
-0.0089683002 0.1589835 0.93000001 1.9344815e-38
-0.0089683002 0.1606141 0.93000001 2.0904577e-38
-0.0067941668 0.16170117 0.93000001 1.9522321e-38
-0.069300503 0.16713649 0.93000001 1.1970183e-38
-0.020382499 0.16632119 0.93000001 6.7186992e-39
-0.017936599 0.16632119 0.93000001 9.2904561e-39
-0.0154907 0.16632119 0.93000001 1.0855243e-38
-0.0228284 0.1695824 0.93000001 1.0310687e-38
-0.0154907 0.16876709 0.93000001 9.9372702e-39
-0.064408697 0.17202829 0.93000001 1.1876913e-38
-0.061962798 0.17447419 0.93000001 1.2152419e-38
-0.059516896 0.1752895 0.93000001 1.2982885e-38
-0.029758448 0.17488185 0.93000001 1.1782925e-38
-0.025817832 0.17311536 0.93000001 1.1691092e-38
-0.056799229 0.17746362 0.93000001 1.1969107e-38
-0.054081567 0.17800717 0.93000001 1.1964802e-38
-0.051363897 0.17855069 0.93000001 1.0947449e-38
-0.0342426 0.17773539 0.93000001 1.1696111e-38
-0.031796698 0.17692009 0.93000001 1.0679105e-38
-0.052994497 0.18018129 0.93000001 1.1508136e-38
-0.049733296 0.1809966 0.93000001 1.27081e-38
-0.0456568 0.1818119 0.93000001 1.3909863e-38
-0.042395599 0.1809966 0.93000001 1.2431518e-38
-0.039949697 0.18018129 0.93000001 1.1598895e-38
-0.0046200333 0.18235545 0.93000001 1.2063521e-38
-0.0016306 0.18344249 0.93000001 1.1231194e-38
0.0013588334 0.18616018 0.93000001 9.757897e-39
-0.041803848 0.10655882 0.93500006 2.3509851e-38
-0.065574661 0.11557535 0.935 2.3509886e-38
-0.02621175 0.11385416 0.93433332 2.350982e-38
-0.022645175 0.11431879 0.93366671 1.9546551e-38
-0.018852714 0.11557535 0.935 1.8344398e-41
-0.068580173 0.11830762 0.93500006 2.3509886e-38
-0.065574661 0.11803439 0.935 2.3505474e-38
-0.062569164 0.11830762 0.93500006 1.6853254e-38
-0.028688913 0.11885408 0.935 1.9055865e-38
-0.02620269 0.11790815 0.93400002 2.3129062e-38
-0.02209872 0.11786607 0.93366671 2.2680098e-38
-0.01799446 0.11778192 0.93300003 8.2126418e-39
-0.015540671 0.11859985 0.93300003 7.8359097e-39
-0.06952405 0.1202357 0.93300003 2.350988e-38
-0.066252336 0.1202357 0.93300003 1.9443504e-38
-0.062077988 0.12170114 0.93419999 2.0623896e-38
-0.058743969 0.12267928 0.93500006 2.2379572e-38
-0.028688913 0.12213281 0.93500006 2.0627841e-38
-0.026193049 0.12195807 0.93366671 1.805143e-38
-0.022411283 0.12089004 0.93300003 2.3509825e-38
-0.061344747 0.12596121 0.93300003 2.3489585e-38
-0.058154851 0.12614122 0.93433332 2.3506948e-38
-0.054372326 0.12650445 0.93500006 2.3504824e-38
-0.050000682 0.12705091 0.93500006 2.3509886e-38
-0.034426697 0.12705091 0.935 2.3493556e-38
-0.030307828 0.12614124 0.93433332 2.1277627e-38
-0.026446402 0.12568858 0.93300003 1.6207546e-38
-0.061344747 0.128415 0.93300003 2.3500086e-38
-0.057640713 0.12989581 0.93357152 2.3509877e-38
-0.054021947 0.13014261 0.93366671 2.3509886e-38
-0.049965031 0.13023552 0.93433326 2.3509886e-38
-0.04586954 0.13023554 0.93433332 2.3509886e-38
-0.041764494 0.13020456 0.93411118 2.3509886e-38
-0.037651666 0.13014261 0.93366671 2.3509886e-38
-0.034377605 0.13014261 0.93366671 2.3509884e-38
-0.031244924 0.1297237 0.93300003 2.3509881e-38
-0.014737643 0.13182786 0.93400002 1.7040191e-38
-0.04580408 0.1333226 0.93300003 2.3509886e-38
-0.015573982 0.13360837 0.935 2.0265517e-38
-0.076885417 0.13986602 0.93300003 1.8048979e-38
-0.01719494 0.1375604 0.93400002 2.1546249e-38
-0.013934618 0.1377068 0.93500006 1.6761459e-38
-0.010655883 0.13852647 0.935 1.1786958e-38
-0.076885417 0.14231983 0.93300003 1.7954961e-38
-0.017188802 0.14160183 0.93366671 2.0443455e-38
-0.013934616 0.14201014 0.935 1.5929549e-38
-0.010655883 0.14180522 0.93500006 1.2337616e-38
-0.081148647 0.14672332 0.935 1.1884251e-38
-0.077731699 0.14564326 0.9333334 1.5007635e-38
-0.074431628 0.1447736 0.93300003 2.0171972e-38
-0.01358886 0.14555207 0.93380004 1.3996706e-38
-0.010644486 0.14574671 0.93400002 1.188276e-38
-0.081032932 0.14978698 0.93366671 1.1699837e-38
-0.077703349 0.14804533 0.93300003 1.3347404e-38
-0.01226895 0.14804533 0.93300003 1.1790196e-38
-0.010633091 0.14804533 0.93300003 1.1790196e-38
-0.081061855 0.15393478 0.93400002 1.1608341e-38
-0.079339206 0.15377083 0.93300003 1.1700538e-38
-0.081061855 0.15721175 0.93400002 1.1516144e-38
-0.079339206 0.15704256 0.93300003 1.179309e-38
-0.076967821 0.1621246 0.93400002 1.3076198e-38
-0.073613703 0.16276807 0.93300003 1.3073285e-38
-0.072951816 0.16475634 0.935 1.2705226e-38
-0.06952405 0.16931151 0.93300003 1.2522631e-38
-0.021022759 0.17064522 0.93433332 7.9125607e-39
-0.018014621 0.16949297 0.93400002 8.9220337e-39
-0.065925159 0.1738919 0.93300003 1.2060942e-38
-0.062980607 0.17585494 0.93300003 1.1412713e-38
-0.026173759 0.17585494 0.93300003 1.4273623e-38
-0.022925708 0.17358701 0.93400002 1.1137925e-38
-0.064754978 0.17787127 0.935 1.3626846e-38
-0.06219643 0.17840472 0.93350005 1.2613759e-38
-0.059163608 0.17858139 0.93300003 1.2983965e-38
-0.03353513 0.17912666 0.93300003 1.4182844e-38
-0.029948508 0.17854913 0.93340009 1.2982173e-38
-0.026215401 0.17859584 0.93449998 1.2427239e-38
-0.023770815 0.17623191 0.935 1.0495434e-38
-0.062295932 0.18115 0.935 1.4546651e-38
-0.058156602 0.18184054 0.93433332 1.2704881e-38
-0.054256022 0.1818531 0.93300003 1.3536053e-38
-0.05152959 0.18239839 0.93300003 1.4183921e-38
-0.040896498 0.18239839 0.93300003 1.261664e-38
-0.037665106 0.18177596 0.93400002 1.2797779e-38
-0.034389876 0.18177596 0.93400002 1.2517649e-38
-0.030721027 0.18146297 0.93450004 1.1508169e-38
-0.027049549 0.18115 0.935 7.3658525e-39
-0.056558147 0.18442874 0.935 7.7260198e-39
-0.054099098 0.18442874 0.935 1.3070422e-38
-0.049965616 0.18511693 0.93433332 1.0028755e-38
-0.04586954 0.18593661 0.93433332 8.2795706e-39
-0.041788362 0.18518268 0.93466675 9.3862601e-39
-0.03797866 0.18497519 0.93500006 8.1005365e-39
-0.035246383 0.18442874 0.935 7.1735719e-39
-0.0013632167 0.1862154 0.93300003 9.5720624e-39
-0.0568606 0.10795273 0.94 2.3509886e-38
-0.054388396 0.10712866 0.94 2.350592e-38
-0.049443997 0.10712866 0.94 2.3509886e-38
-0.046147734 0.10712866 0.94 2.3509872e-38
-0.037826415 0.10772305 0.93800002 2.3509886e-38
-0.0568606 0.10960086 0.94 2.3509886e-38
-0.054388396 0.10960086 0.94 2.3509886e-38
-0.049443997 0.111249 0.94 1.6850737e-38
-0.046147734 0.11042492 0.94 2.0916036e-38
-0.041968957 0.11026829 0.93866676 2.0823105e-38
-0.037826415 0.11018999 0.93800002 2.1010768e-38
-0.033714846 0.11018999 0.93800008 2.2954475e-38
-0.02960328 0.11018999 0.93800002 2.2588655e-38
-0.026314026 0.11018999 0.93800002 1.4663451e-38
-0.064962752 0.11430155 0.93800002 2.3509886e-38
-0.062028021 0.11500815 0.93839997 2.1011533e-38
-0.057684664 0.11454526 0.94 1.6940779e-38
-0.055212464 0.11454526 0.94 1.9058018e-38
-0.049443997 0.11289713 0.94 1.7763711e-38
-0.046147734 0.11289713 0.94 1.9055148e-38
-0.041680589 0.11350834 0.93959999 1.9705171e-38
-0.037826415 0.11347924 0.93800002 1.9431471e-38
-0.03371485 0.11430155 0.93800002 2.0168316e-38
-0.02960328 0.11430156 0.93800008 2.2945384e-38
-0.060504023 0.11771528 0.93900001 1.905874e-38
-0.057643753 0.11775678 0.93933338 2.0717877e-38
-0.0543884 0.11784153 0.94 2.2101902e-38
-0.050268065 0.1186656 0.94 2.3492737e-38
-0.041203335 0.11784153 0.94 2.2572623e-38
-0.037907064 0.11784153 0.94 2.2198021e-38
-0.033751957 0.11853906 0.93900007 2.1458692e-38
-0.029877385 0.11813902 0.93800008 1.9060888e-38
-0.057287827 0.12142827 0.93800008 2.284267e-38
-0.05432966 0.12183212 0.93900001 2.3505319e-38
-0.050268065 0.12196186 0.94 2.3495316e-38
-0.046422422 0.12223655 0.94 2.3501067e-38
-0.041697774 0.12212668 0.94 2.3501788e-38
-0.037907064 0.12196186 0.94 2.3497823e-38
-0.033714846 0.12170237 0.93800008 2.2661573e-38
-0.030425593 0.12170237 0.93800002 2.1918225e-38
-0.053998575 0.12471752 0.93800008 2.3498206e-38
-0.050161116 0.12499162 0.93800008 2.3492477e-38
-0.046082273 0.12590219 0.9386667 2.3499321e-38
-0.041958239 0.12587278 0.93844444 2.34993e-38
-0.037826415 0.12581395 0.93800008 2.2941066e-38
-0.03404377 0.12482716 0.93800002 2.3492117e-38
-0.030425593 0.1241693 0.93800002 2.0534618e-38
-0.0123347 0.13074781 0.93800002 1.0779326e-38
-0.013435501 0.13463351 0.93833339 1.492084e-38
-0.013979326 0.14061558 0.93800002 1.731135e-38
-0.073341928 0.16728552 0.94 1.2980732e-38
-0.073341928 0.16975772 0.94 1.2706303e-38
-0.071693793 0.16975772 0.94 1.252299e-38
-0.018090893 0.17186348 0.93800002 8.5532568e-39
-0.015623953 0.17186348 0.93800002 9.3837223e-39
-0.069496289 0.17387806 0.94 1.2430437e-38
-0.02057975 0.17451715 0.93900001 7.7274548e-39
-0.068397529 0.17717433 0.94 1.2798496e-38
-0.066607378 0.17761967 0.93800002 1.3717218e-38
-0.022750668 0.17789379 0.93800008 8.1884329e-39
-0.065676711 0.18155801 0.93880004 9.199338e-39
-0.062563315 0.18357137 0.93900001 7.6316732e-39
-0.02960328 0.18337588 0.93800002 8.370662e-39
-0.026314026 0.18255356 0.93800002 8.3728158e-39
-0.023331605 0.18089198 0.93933338 8.3731731e-39
-0.060851183 0.18502049 0.93800002 3.2185472e-39
-0.057877533 0.18624958 0.9386667 5.2392868e-39
-0.054272678 0.18666513 0.93800002 5.5101298e-39
-0.037004102 0.18666513 0.93800002 7.3590366e-39
-0.033413973 0.18616647 0.93880004 7.819649e-39
-0.029666398 0.18541498 0.94 8.1891434e-39
-0.0568606 0.18871126 0.94 4.4174785e-39
-0.054331414 0.18851051 0.93900001 4.8708686e-39
-0.049874268 0.18912959 0.93879998 7.1797026e-39
-0.046147734 0.19035938 0.94 8.9342614e-39
-0.041982692 0.18933456 0.93900007 6.7154707e-39
-0.037826415 0.18830974 0.93800002 7.5430663e-39
-0.035434864 0.18871126 0.94 8.1880672e-39
-0.0024669401 0.18830974 0.93800002 8.7437437e-39
-0.052081887 0.10664387 0.94300002 2.3509886e-38
-0.060348857 0.11160404 0.94300002 2.3509886e-38
-0.058144331 0.11105292 0.94300002 2.30489e-38
-0.05307392 0.11061201 0.94300002 1.9259516e-38
-0.049601801 0.10995065 0.94300002 2.3509862e-38
-0.061175551 0.11325745 0.94300002 2.3509886e-38
-0.057868764 0.11325745 0.94300002 2.1844927e-38
-0.053404607 0.1139188 0.94300002 1.8413736e-38
-0.049601801 0.11491083 0.94300002 2.1364308e-38
-0.04629501 0.11491083 0.94300002 2.219585e-38
-0.04381492 0.11491083 0.94300002 2.2288762e-38
-0.052081887 0.11656422 0.94300002 2.1546186e-38
-0.049601801 0.11656422 0.94300002 2.2378088e-38
-0.046295013 0.11821762 0.94300002 2.3031774e-38
-0.04381492 0.11821762 0.94300002 2.3128266e-38
-0.045468315 0.12152441 0.94300002 2.3502136e-38
-0.04381492 0.12152441 0.94300002 2.3503576e-38
-0.076882794 0.16699272 0.94300002 1.2983623e-38
-0.075229399 0.16699272 0.94300002 1.2796702e-38
-0.075229399 0.1702995 0.94300002 1.2429719e-38
-0.073576003 0.17360631 0.94300002 1.2248237e-38
-0.071922608 0.17360631 0.94300002 1.261411e-38
-0.018187325 0.17443299 0.94300002 7.7278149e-39
-0.069442518 0.17773978 0.94300002 1.3162251e-38
-0.020667417 0.17773978 0.94300002 5.7892236e-39
-0.018187325 0.1760864 0.94300002 9.0124511e-39
-0.068615824 0.18104656 0.94300002 9.1049872e-39
-0.066135734 0.18518004 0.94300002 6.6232764e-39
-0.062002249 0.18710902 0.94300002 6.5346695e-39
-0.02976108 0.18766014 0.94300002 8.8352204e-39
-0.026454292 0.18518004 0.94300002 8.9281321e-39
-0.058695462 0.18931353 0.94300002 9.9492149e-39
-0.053735282 0.19096693 0.94300002 1.317846e-38
-0.038028046 0.19096693 0.94300002 8.0976666e-39
-0.033894565 0.18986468 0.94300002 8.5568441e-39
-0.030587774 0.18931353 0.94300002 9.2933217e-39
-0.049601801 0.19262032 0.94300002 1.2992348e-38
-0.04629501 0.19262032 0.94300002 9.210491e-39
-0.042161532 0.19262032 0.94300002 7.2697122e-39
-0.060540844 0.11030044 0.94599998 2.3509886e-38
-0.058882192 0.10864178 0.94599998 2.3509886e-38
-0.078122564 0.17034368 0.94600004 1.2980373e-38
-0.075468719 0.17415859 0.94599998 1.0496526e-38
-0.073541462 0.17746012 0.94680005 1.0028726e-38
-0.070492759 0.17913455 0.94599998 1.0860989e-38
-0.020733165 0.17996387 0.94599998 7.0838888e-39
-0.019114841 0.17868219 0.94800001 7.3544179e-39
-0.072303958 0.18034436 0.94800001 7.3568842e-39
-0.069989562 0.18285748 0.94666672 6.2559344e-39
-0.02158441 0.18264385 0.94700003 1.021635e-38
-0.068979636 0.18533084 0.94800001 7.3608401e-39
-0.067175455 0.18659848 0.94599998 6.7172643e-39
-0.024620308 0.1861771 0.94666672 7.8243125e-39
-0.065516807 0.18825714 0.94599998 7.641359e-39
-0.061816834 0.19001704 0.94649994 1.0960424e-38
-0.058052868 0.19157445 0.94599998 1.4378219e-38
-0.033173062 0.19157445 0.94599998 8.9252623e-39
-0.029621398 0.1912916 0.94733334 1.0492927e-38
-0.027396709 0.18928723 0.94700003 9.3880271e-39
-0.0041554002 0.1911484 0.94800001 9.4791451e-39
-0.0016586533 0.19157445 0.94599998 8.7476897e-39
0.00082932663 0.19157445 0.94599998 9.1179688e-39
-0.060668841 0.19364163 0.94800001 1.5851107e-38
-0.058114231 0.19426847 0.94700003 1.5484536e-38
-0.053963214 0.19426847 0.94700003 1.4560769e-38
-0.049759597 0.19489175 0.94599998 8.7495324e-39
-0.046442293 0.19489175 0.94599998 8.4685959e-39
-0.042295661 0.19489175 0.94599998 9.0217613e-39
-0.038149022 0.19406243 0.94599998 9.0210438e-39
-0.034489818 0.19405717 0.94800001 9.6628161e-39
-0.0041554002 0.19447272 0.94800001 9.851152e-39
-0.0016586531 0.19406243 0.94599998 9.5817748e-39
0.00083020329 0.19426845 0.94700003 1.0321966e-38
-0.049033716 0.19696596 0.94800001 9.2926043e-39
-0.046540476 0.19696596 0.94800001 9.3833636e-39
-0.0041554002 0.19696596 0.94800001 8.7455373e-39
-0.0016621599 0.19696596 0.94800001 1.0778585e-38
0.00083107996 0.19696596 0.94800001 1.0782958e-38
0.037319697 0.23967539 0.94599998 1.170381e-38
0.038978349 0.24133404 0.94599998 1.2533574e-38
-0.075867608 0.17924763 0.95099998 7.8189315e-39
-0.073366478 0.18174878 0.95099998 6.902373e-39
-0.069197923 0.18758473 0.95099998 7.8236007e-39
-0.022510169 0.18675102 0.95099998 9.8407474e-39
-0.065863088 0.19036376 0.95099998 7.8239566e-39
-0.025011297 0.18925217 0.95099998 8.2856424e-39
-0.064195663 0.192587 0.95099998 8.381424e-39
-0.062528245 0.19342071 0.95099998 1.0595254e-38
-0.033348396 0.19592184 0.95099998 1.2245689e-38
-0.030291464 0.19481021 0.95099998 1.1691089e-38
-0.0058359699 0.19425443 0.95099998 1.0495794e-38
-0.057525985 0.19758925 0.95099998 1.6130152e-38
-0.053857662 0.19825621 0.95100003 1.6314545e-38
-0.050300501 0.19870088 0.95099998 9.6732348e-39
-0.045437194 0.19883981 0.95099998 1.1784001e-38
-0.041963406 0.19814508 0.95099998 1.1507418e-38
-0.038072757 0.19814508 0.95099998 1.1969824e-38
-0.034598961 0.19800609 0.95099998 1.2889255e-38
-0.0050022597 0.19842297 0.95099998 7.9165264e-39
-0.0016674199 0.19925669 0.95099998 1.0136875e-38
0.019175328 0.23427249 0.95099998 9.9419674e-39
-0.01756314 0.17981309 0.954 1.3070906e-38
-0.076266482 0.18186624 0.95599997 8.8388078e-39
-0.074590303 0.18354243 0.95599997 8.1008952e-39
-0.018690534 0.18217015 0.95466661 1.1229768e-38
-0.07347285 0.18577735 0.95600003 8.5647362e-39
-0.071088895 0.18650381 0.954 7.4598404e-39
-0.020930417 0.18586296 0.95499998 1.445339e-38
-0.019276146 0.1860567 0.95599997 1.3260543e-38
-0.070363455 0.19014767 0.95550001 9.3941311e-39
-0.06774354 0.19152185 0.954 7.182899e-39
-0.025090199 0.19152185 0.954 9.1100095e-39
-0.021603871 0.19042252 0.95520002 9.755023e-39
-0.0061952276 0.19067815 0.95479995 1.1689654e-38
-0.069561742 0.19359955 0.95599997 1.1694703e-38
-0.066462204 0.19436084 0.95480007 9.7614675e-39
-0.025953716 0.19423513 0.95499992 1.1876913e-38
-0.022628518 0.19443764 0.95599997 1.2615213e-38
-0.0097777555 0.19471702 0.95600003 1.4545912e-38
-0.0075270599 0.19403087 0.954 1.2426855e-38
-0.065091908 0.19751064 0.95600003 1.2434394e-38
-0.061748188 0.19796114 0.9544 1.6678626e-38
-0.058125626 0.19946708 0.954 1.8894495e-38
-0.040980656 0.19988525 0.954 1.3906979e-38
-0.039307978 0.19988525 0.954 1.3905903e-38
-0.033453599 0.19988525 0.954 1.5561812e-38
-0.029940968 0.19854711 0.954 1.4824264e-38
-0.026399937 0.19737095 0.95599997 1.519412e-38
-0.012571399 0.1986281 0.95599997 0
-0.01005712 0.19779 0.95599997 8.0930143e-39
-0.0071088905 0.19863074 0.954 6.6211254e-39
0.015890459 0.23501153 0.954 0
0.01756314 0.23501153 0.954 4.3184207e-39
-0.015973743 0.17907406 0.95899999 1.1139717e-38
-0.015973743 0.18075551 0.95899999 1.252299e-38
-0.076505817 0.1841184 0.95899999 1.0221372e-38
-0.07482437 0.18748128 0.95899999 1.1693242e-38
-0.01765519 0.18579984 0.95899999 1.1140076e-38
-0.073142923 0.19000345 0.95899999 1.1605718e-38
-0.018495912 0.19000345 0.95899999 1.5651861e-38
-0.014292296 0.19084418 0.95899999 1.9437198e-38
-0.010088679 0.19084418 0.95899999 1.3072568e-38
-0.07062076 0.19420707 0.95899999 1.2615907e-38
-0.021018082 0.1950478 0.95899999 1.0494722e-38
-0.018495914 0.19420707 0.95900005 8.4653715e-39
-0.014292298 0.19420707 0.95900005 1.3527813e-38
-0.010368921 0.19308612 0.95899999 1.362466e-38
-0.07843186 0.17963426 0.96200001 7.2693535e-39
-0.080285132 0.18085282 0.96399999 1.3261648e-38
-0.078513384 0.18235455 0.963 1.0678746e-38
-0.016023712 0.18300766 0.96200001 1.2060584e-38
-0.014366813 0.18338814 0.96399999 1.3811915e-38
-0.077978335 0.18607602 0.96333331 1.3169074e-38
-0.016023712 0.18553773 0.96200001 1.0210959e-38
-0.013803409 0.18620515 0.96399999 1.8604329e-38
-0.01014128 0.18676856 0.96399999 1.6770505e-38
-0.077548876 0.18973275 0.96359998 1.3628622e-38
-0.075058445 0.19059785 0.96200001 1.3811915e-38
-0.016023712 0.18891114 0.96200001 1.8702239e-38
-0.013500229 0.18900889 0.96249998 1.9163547e-38
-0.010130759 0.18910664 0.963 1.7408949e-38
-0.0067468267 0.18975449 0.96200001 1.574663e-38
-0.0816653 0.18226337 0.96700001 1.4828664e-38
-0.013563786 0.18311112 0.96700001 1.3076886e-38
-0.08053498 0.18650205 0.96700001 1.3811915e-38
-0.012716049 0.18565431 0.96700001 1.5936078e-38
-0.01017284 0.18565431 0.96700001 1.5108099e-38
-0.0076296297 0.1873498 0.96700001 1.1978868e-38
-0.0076296297 0.18904528 0.96700001 1.5565399e-38
-0.013605866 0.18197846 0.97000003 1.2614475e-38
-0.010204399 0.18452956 0.97000003 1.1604682e-38
