# .PCD v0.7 - Point Cloud Data file format
VERSION 0.7
FIELDS x y z rgb
SIZE 4 4 4 4
TYPE F F F F
COUNT 1 1 1 1
WIDTH 609
HEIGHT 1
VIEWPOINT 0 0 0 1 0 0 0
POINTS 609
DATA ascii
-0.0087561458 0.14726245 0.90799999 5.4551891e-39
-0.0063681062 0.14646643 0.90799999 5.5459512e-39
-0.0021606076 0.14612529 0.90800005 7.2947913e-39
0.0023880398 0.14567043 0.90799999 1.2731049e-38
0.0063681062 0.14567041 0.90799999 1.3653713e-38
0.010348172 0.14567043 0.90799999 1.3278815e-38
0.014328239 0.14646643 0.90799999 7.9300937e-39
0.018109303 0.14586942 0.90799999 1.4662443e-38
-0.010348173 0.14965051 0.90799999 4.8069428e-39
-0.0063681062 0.14965051 0.90799999 4.7151129e-39
-0.002159856 0.14984964 0.90714294 5.1753694e-39
0.00238278 0.15011515 0.90600002 5.9132861e-39
0.006363431 0.15033489 0.90733337 6.5586499e-39
0.010348173 0.14965051 0.90799999 8.1234519e-39
0.014328239 0.14965051 0.90799999 9.4123915e-39
0.018308304 0.14965051 0.90799999 6.8327215e-39
0.022288373 0.14965051 0.90799999 4.2544865e-39
-0.010348172 0.15363057 0.90799999 4.8076476e-39
-0.0063681062 0.15363055 0.90799999 4.4385106e-39
-0.0025841941 0.15361676 0.90675002 4.0704511e-39
0.00238278 0.15408644 0.90600008 3.0584726e-39
0.0063540796 0.15408644 0.90600002 3.1506683e-39
0.010338821 0.1534794 0.90711117 3.8871529e-39
0.01431772 0.15351659 0.90733337 3.7953132e-39
0.018289605 0.1534794 0.90711117 3.5197997e-39
0.022288373 0.15363057 0.90799999 3.335407e-39
0.02467641 0.15363057 0.90799999 3.24321e-39
-0.013532227 0.15840665 0.90799999 3.5165557e-39
-0.010348172 0.15840665 0.90799999 3.7016644e-39
-0.0063660606 0.15834793 0.90766668 3.149934e-39
-0.00238278 0.15805775 0.90600002 2.6893202e-39
0.00238278 0.15805773 0.90600002 2.4127375e-39
0.00635408 0.15805775 0.90600008 3.5165627e-39
0.010325381 0.15805775 0.90600002 5.8210737e-39
0.014296681 0.15805775 0.90600008 4.6225389e-39
0.018272072 0.15809613 0.90622222 2.6875279e-39
0.022288373 0.15840665 0.90799999 2.4120144e-39
0.025313223 0.15872505 0.90799999 2.5960399e-39
-0.016716279 0.16318272 0.90799999 1.9492216e-39
-0.014062902 0.16265206 0.90799999 2.68463e-39
-0.010344958 0.16232681 0.90766668 2.9612197e-39
-0.0063580247 0.16211802 0.90649998 2.9615812e-39
-0.00238278 0.16202903 0.90600008 2.685716e-39
0.00238278 0.16202903 0.90600008 2.4098494e-39
0.0063540796 0.16202903 0.90600002 3.1466872e-39
0.01032538 0.16202903 0.90600008 3.7012973e-39
0.01429668 0.16202903 0.90600002 3.0562936e-39
0.01826798 0.16202903 0.90600008 2.5016877e-39
0.022264704 0.16220787 0.90700001 2.13398e-39
0.026268438 0.16238672 0.90799999 2.1343359e-39
-0.016716279 0.16636679 0.90799999 1.6722647e-39
-0.014328239 0.16636679 0.90799999 1.7637499e-39
-0.010341743 0.16624464 0.90733337 2.0410543e-39
-0.00635408 0.16600034 0.90600008 1.8573861e-39
-0.0023827797 0.16600034 0.90600002 1.6737137e-39
0.0023827797 0.16600034 0.90600002 1.0290716e-39
0.00635408 0.16600034 0.90600008 1.3971338e-39
0.01032538 0.16600034 0.90600002 1.4889707e-39
0.014296681 0.16600035 0.90600008 1.2120265e-39
0.01826798 0.16600032 0.90600002 1.1191134e-39
0.022272592 0.16624466 0.90733337 1.2120209e-39
0.025813574 0.16613935 0.90800005 1.3964051e-39
-0.016716279 0.16955082 0.90799999 7.5281957e-40
-0.014328239 0.17034684 0.90799999 8.4250127e-40
-0.010348174 0.17034684 0.90799999 1.1176616e-39
-0.0063540796 0.16997163 0.90600002 1.1169456e-39
-0.00238278 0.16997164 0.90600008 1.117663e-39
0.00238278 0.16997164 0.90600008 5.6664867e-40
0.0063540796 0.16997164 0.90600002 4.7445584e-40
0.01032538 0.16997163 0.90600008 8.4072163e-40
0.01429668 0.16997164 0.90600002 9.3184246e-40
0.01826798 0.16997163 0.90600008 3.8154134e-40
0.022239279 0.16997163 0.90600002 4.7444603e-40
0.02467641 0.17034684 0.90799999 7.4995112e-40
-0.013532226 0.17273489 0.90799999 3.8223639e-40
-0.010149169 0.17412789 0.90799999 2.8932609e-40
-0.0063640154 0.17419951 0.90733337 2.8860863e-40
-0.0023837539 0.17398599 0.90622222 3.8116439e-40
0.00238278 0.17394294 0.90600002 1.9785494e-40
0.00635408 0.17394295 0.90600008 7.4994971e-40
0.010325381 0.17394295 0.90600002 4.7228523e-40
0.01429668 0.17394295 0.90600008 1.0458591e-40
0.018277721 0.17402865 0.90644455 1.0493904e-40
0.022288373 0.17432693 0.90799999 1.0493203e-40
0.02467641 0.17353091 0.90799999 2.8896176e-40
-0.0055720932 0.17830698 0.90799999 1.2369262e-41
-0.0023880401 0.17830698 0.90799999 1.201193e-41
0.0023865788 0.17824183 0.90766668 1.953326e-40
0.0063571483 0.17801288 0.90649998 3.7935952e-40
0.010329179 0.17798001 0.90633339 1.1654599e-41
0.01429668 0.17791425 0.90600002 1.1653198e-41
0.018295448 0.17817667 0.90733337 1.1293064e-41
0.022288373 0.17830698 0.90799999 1.0214065e-41
-0.0055720932 0.18069501 0.90799999 1.1639185e-41
-0.0021890365 0.18208802 0.90799999 1.0914714e-41
0.0023880401 0.18228704 0.90799999 1.0561587e-41
0.0063681062 0.18228707 0.90799999 1.0239708e-40
0.010348173 0.18228705 0.90799999 1.0195848e-41
0.01431772 0.18215439 0.90733337 9.83151e-42
0.018109303 0.18208802 0.90799999 9.1196504e-42
0.021492358 0.18069501 0.90799999 9.8413191e-42
-0.0015920266 0.18547109 0.90799999 1.1253828e-41
0.0015920266 0.18547109 0.90799999 1.0544771e-41
0.014328239 0.18547109 0.90799999 9.455962e-42
0.016716279 0.18547109 0.90799999 6.5889054e-42
-0.00079776667 0.14280023 0.91000003 8.4947708e-39
0.0027124065 0.14216201 0.91000003 1.0060279e-38
0.0063821333 0.14200246 0.91000003 7.2076347e-39
0.010370967 0.14200248 0.91000003 1.3005815e-38
0.017550867 0.14280023 0.91000003 2.3509886e-38
-0.013562033 0.14678907 0.91000003 7.5728019e-39
-0.010570409 0.14579186 0.90999997 7.0192736e-39
-0.0063821333 0.14439577 0.91000003 5.1771771e-39
-0.0031910664 0.14439577 0.91000003 5.9140204e-39
0.0143598 0.14439577 0.91000003 2.3509886e-38
0.019944165 0.14439577 0.91000003 2.3509886e-38
0.022337466 0.14758684 0.91000003 6.3706616e-39
-0.014093879 0.15024605 0.91000003 4.991683e-39
0.025528532 0.14998013 0.91000003 3.7942286e-39
-0.0143598 0.15396896 0.91000003 4.6232536e-39
0.027124068 0.15396897 0.91000003 3.2424855e-39
-0.0167531 0.15795779 0.91000003 3.6073108e-39
-0.015157566 0.15795779 0.91000003 3.2403275e-39
0.027389988 0.15769188 0.91000003 2.872624e-39
0.029517367 0.15875557 0.91000003 3.2399548e-39
-0.017284945 0.16194664 0.91000003 2.5016779e-39
-0.015157566 0.16114888 0.91000003 3.0541342e-39
0.027921833 0.1603511 0.91000003 2.778269e-39
0.029517367 0.16194664 0.91000003 2.7775375e-39
-0.018348632 0.16593547 0.91000003 1.8559385e-39
0.027921833 0.16673324 0.91000003 1.3974841e-39
0.029517367 0.16593547 0.91000003 2.1328842e-39
-0.017949749 0.17032316 0.91000003 7.5173637e-40
0.027283622 0.1702434 0.91000003 9.346927e-40
0.029916251 0.17032318 0.91000003 1.2094775e-39
-0.0167531 0.17311536 0.91000003 7.488539e-40
-0.014625723 0.17417906 0.91000003 3.8115458e-40
0.027124066 0.17391312 0.91000003 4.7262854e-40
0.030049212 0.17364721 0.91000003 6.570156e-40
-0.013562033 0.17630643 0.91000003 2.8715408e-40
-0.010370967 0.17790197 0.91000003 1.0420196e-40
-0.0071799001 0.17869973 0.91000003 2.8715548e-40
0.024730768 0.17790197 0.91000003 1.1291663e-41
-0.0087754335 0.18109304 0.91000003 1.1639185e-41
-0.0063821333 0.1818908 0.91000003 1.1274847e-41
0.022603389 0.18215673 0.91000003 9.83151e-42
0.024730766 0.18109304 0.91000003 1.1274847e-41
-0.0055843666 0.18428409 0.91000003 1.0544771e-41
-0.0027921831 0.18627851 0.91000003 9.817497e-42
0.0027921833 0.18707627 0.91000003 9.4615672e-42
0.0063821338 0.1866774 0.91000003 9.4615672e-42
0.010370967 0.18667738 0.91000003 8.3811661e-42
0.0143598 0.18747516 0.91000003 6.2189626e-42
0.018667739 0.18619873 0.91000003 6.9420326e-42
0.021539701 0.18428409 0.91000003 8.7441024e-42
-0.00882365 0.13877194 0.91500002 6.92602e-39
-0.0052941903 0.13813023 0.91500008 6.4657607e-39
-0.0016043 0.13796979 0.91500002 7.1114818e-39
0.0016043 0.13796979 0.91500002 7.2958731e-39
0.00561505 0.13796981 0.91500008 5.5477658e-39
0.0096258 0.13796979 0.91500002 4.0693974e-39
0.01363655 0.13877194 0.91500008 2.3326215e-38
-0.013097401 0.14246301 0.91466665 6.5568647e-39
-0.0096155722 0.14182422 0.91400003 6.0966194e-39
-0.0056068683 0.14177246 0.91366661 5.9129498e-39
-0.0017622752 0.14147277 0.91380006 6.5575864e-39
0.0013345787 0.14070529 0.91366673 7.5717411e-39
0.0056027765 0.14006941 0.91299999 5.0900275e-39
0.0096047595 0.14006941 0.91299999 4.9935103e-39
0.01407313 0.14152917 0.91357154 2.341805e-38
0.017628014 0.14102322 0.91400003 2.3509886e-38
0.021642271 0.14187592 0.91433334 2.0836948e-38
0.025267724 0.14238162 0.91500002 3.2323303e-39
-0.01684515 0.1459913 0.91500002 5.9136561e-39
-0.014673939 0.14540538 0.91299999 7.1096657e-39
0.022411104 0.14567217 0.91299999 1.2634114e-38
0.025655212 0.14591108 0.9145 2.685702e-39
0.029278476 0.14639238 0.91500002 3.9786297e-39
-0.017635027 0.14989218 0.91433334 4.6229159e-39
-0.015207537 0.14887378 0.91299999 5.4533828e-39
0.025612693 0.14807338 0.91299999 3.3336106e-39
0.029637078 0.14978269 0.91366673 3.5180046e-39
0.033289224 0.15040311 0.91500002 3.3332448e-39
-0.021256974 0.15441386 0.91500002 3.1499298e-39
-0.01762889 0.15384448 0.91400003 3.7031092e-39
0.030415069 0.15367615 0.91299999 2.8744247e-39
0.033690296 0.1540128 0.91500002 2.7815018e-39
-0.021653179 0.15798479 0.91477776 3.055209e-39
-0.018008925 0.15727794 0.91299999 3.4243573e-39
0.030575151 0.15735798 0.91300005 3.0562894e-39
0.033690296 0.15802357 0.91500008 2.9630106e-39
0.036096748 0.1588257 0.91500002 2.6860565e-39
-0.021643437 0.16191624 0.91433334 2.226163e-39
-0.018409124 0.16168012 0.91299999 2.6860692e-39
0.031215467 0.16168012 0.91299999 2.8697345e-39
0.033654355 0.1618572 0.91400003 2.5016667e-39
0.036096748 0.1620343 0.91500002 2.4998604e-39
-0.021627659 0.16580307 0.91366673 1.6719018e-39
0.031215467 0.16568211 0.91299999 2.0406899e-39
0.033654355 0.16586357 0.91400003 2.0396053e-39
0.036096748 0.16604504 0.91500008 2.0395899e-39
-0.021635547 0.16987024 0.91400003 1.1183567e-39
0.031215467 0.16968408 0.91299999 1.3020347e-39
0.033654355 0.16986994 0.91400003 1.4853385e-39
0.036096748 0.17005581 0.91500002 1.209825e-39
-0.020686703 0.17367029 0.91460001 7.4848956e-40
-0.017875526 0.17475328 0.91299999 4.7262714e-40
0.031215467 0.17528686 0.91299999 4.733404e-40
0.033666335 0.17394033 0.91433334 6.5629113e-40
0.036096748 0.1732644 0.91500002 1.0236261e-39
-0.02005375 0.17727515 0.91500002 1.967367e-40
-0.017638095 0.17798042 0.9145 3.804133e-40
-0.014673939 0.17795485 0.91299999 1.9602904e-40
0.026413089 0.17768805 0.91299999 2.8786734e-40
0.029637471 0.17781779 0.91366673 2.8786314e-40
0.032888148 0.17727515 0.91500002 2.8928546e-40
-0.017379917 0.18101852 0.91500008 1.0309913e-40
-0.013627392 0.18195614 0.91433334 1.0548975e-41
-0.010004958 0.18209024 0.91299999 1.0913312e-41
-0.0072035696 0.18329082 0.91299999 1.1629376e-41
0.026027357 0.18219061 0.91350007 1.016628e-40
0.029212415 0.1818025 0.9147144 1.0201593e-40
-0.01203225 0.18609878 0.91500002 9.0986309e-42
-0.0096258 0.18609878 0.91500002 9.1000322e-42
-0.0066699721 0.18595883 0.91299999 1.0179032e-41
0.022677904 0.18595883 0.91299999 7.6580961e-42
0.025655212 0.18599755 0.9145 1.0020265e-40
0.02807525 0.18529664 0.91500002 9.080414e-42
-0.00882365 0.18850525 0.91500002 9.7992802e-42
-0.0053846124 0.18959233 0.9147144 1.0127324e-40
-0.0016025465 0.19070391 0.91400003 3.7677412e-40
0.0016025465 0.19070393 0.91399997 2.8351351e-40
0.0056089135 0.19070391 0.91399997 1.0020265e-40
0.0096152797 0.19070393 0.91399997 1.9023467e-40
0.013611126 0.19056424 0.91333336 1.9023047e-40
0.017628014 0.19070393 0.91399997 6.5580768e-42
0.021115977 0.1895061 0.91466665 9.8392172e-41
0.00561505 0.19331816 0.91500008 7.419497e-40
0.0096258 0.19331814 0.91500002 5.5862903e-40
0.01363655 0.19331816 0.91500008 6.4866947e-40
0.01684515 0.19331814 0.91500002 1.9128565e-40
0.0024195998 0.13146493 0.92000002 8.1277987e-39
0.0056457329 0.13146493 0.92000002 8.2181993e-39
-0.0088718664 0.13469106 0.92000002 8.0341528e-39
-0.005242466 0.13428779 0.92000002 8.03488e-39
-0.0016126282 0.13381132 0.91949999 8.4036584e-39
0.0016113133 0.13373813 0.91899997 9.5078423e-39
0.0056395968 0.13373813 0.91900003 1.0243244e-38
0.0096735787 0.13381132 0.91950005 6.0930209e-39
0.013711067 0.13388452 0.92000002 2.3326215e-38
0.017743733 0.13469106 0.92000002 2.3509886e-38
0.021776399 0.13469106 0.92000002 2.323402e-38
-0.012726746 0.13805851 0.9188 7.1129153e-39
-0.0098228743 0.13735472 0.91839999 7.204755e-39
-0.0060358495 0.13641021 0.91799998 7.7579288e-39
-0.0016095599 0.13600782 0.91799998 9.0479418e-39
0.0016095599 0.13600782 0.91799998 1.0704574e-38
0.0056334599 0.13600782 0.91799998 1.1073351e-38
0.0096573597 0.13600782 0.91799998 8.2131364e-39
0.013686812 0.13686198 0.91833341 2.341805e-38
0.017718017 0.13771614 0.91866672 2.3509886e-38
0.021744838 0.13771613 0.91866672 2.3325856e-38
0.025636891 0.13817915 0.91960001 1.6682626e-39
0.028228667 0.13953027 0.92000002 3.250089e-39
-0.016900379 0.14244604 0.91799998 5.6367035e-39
-0.014754299 0.14137301 0.91799998 5.5445134e-39
0.026557738 0.14164126 0.91799998 1.5866048e-39
0.029480195 0.14192496 0.9188 4.4417756e-39
0.0338744 0.14275639 0.92000002 3.9797059e-39
-0.020163333 0.1475956 0.92000002 4.5307146e-39
-0.017973419 0.14566517 0.91799998 4.9920585e-39
0.030098772 0.14469944 0.91800004 4.255934e-39
0.033813328 0.14571749 0.91833341 3.7945915e-39
0.036293998 0.14678907 0.92000002 3.3354014e-39
-0.025002534 0.15082173 0.92000002 3.4254349e-39
-0.021745425 0.1497972 0.91866672 3.977531e-39
0.034605537 0.14968908 0.91799998 3.424723e-39
0.03706108 0.14985214 0.91900003 3.1492095e-39
-0.025378622 0.15428281 0.91900003 2.7807871e-39
-0.022050969 0.15274724 0.91800004 3.333605e-39
0.037400603 0.15408644 0.91885722 2.780057e-39
-0.025781889 0.15790871 0.91900003 2.6864251e-39
0.038180936 0.15771337 0.9188 2.5942154e-39
0.041133199 0.15808053 0.92000002 2.2243511e-39
-0.028228667 0.16211319 0.92000002 1.9492118e-39
-0.025772247 0.16187766 0.91866672 2.0414102e-39
0.038629439 0.16176076 0.9180001 1.9477642e-39
0.041133203 0.16211319 0.92000002 1.8552057e-39
-0.028228667 0.16533934 0.92000002 2.1307136e-39
-0.025767423 0.16587541 0.91850001 1.6718934e-39
0.038650915 0.16587541 0.91850001 1.5786132e-39
0.041133199 0.16614586 0.92000002 1.1165546e-39
-0.02578189 0.16999356 0.91900003 1.3020193e-39
0.038672395 0.16999356 0.91900003 1.2094607e-39
0.041536465 0.1705818 0.92000002 3.7932169e-40
-0.025781889 0.17402184 0.91900003 1.1172511e-39
-0.02333862 0.17383248 0.91799998 9.3286401e-40
0.038672395 0.17402183 0.91900003 4.7152853e-40
0.041670889 0.17394236 0.92000002 8.3993129e-40
-0.025002535 0.17824388 0.92000002 7.4773706e-40
-0.022196198 0.17814216 0.91828585 3.8004195e-40
0.034069017 0.17892942 0.91799998 2.8784772e-40
0.037880767 0.1781147 0.91933334 9.2852699e-40
-0.025002534 0.18146999 0.92000002 5.6367791e-40
-0.021761788 0.18214445 0.91933334 3.785776e-40
-0.018509939 0.18268505 0.91799998 1.0540567e-41
0.031386416 0.18268505 0.91799998 1.9277102e-40
0.033819608 0.18197979 0.91850001 1.3862653e-39
0.037100531 0.18227652 0.92000002 2.1241667e-39
-0.021761788 0.1845623 0.91933334 9.2705562e-40
-0.017711882 0.18597226 0.91833341 1.9239127e-40
-0.014486039 0.18670896 0.91799998 8.3755609e-42
0.030324776 0.18650877 0.91833341 5.5864305e-40
0.033713095 0.18598658 0.92000002 1.5688181e-39
-0.016937198 0.19034186 0.92000002 1.200732e-39
-0.013691778 0.19006658 0.91866672 9.2634517e-40
-0.0099256206 0.19019634 0.91799998 3.753406e-40
0.02333862 0.19073285 0.91799998 6.1783249e-42
0.025752958 0.18992807 0.91799998 2.8132608e-40
0.029821277 0.19020393 0.9193334 3.7134549e-40
0.033067867 0.19034186 0.92000002 1.1960531e-39
-0.016937198 0.19276147 0.92000002 2.8025969e-45
-0.013168993 0.193767 0.91966671 2.7768691e-40
-0.0096573597 0.19395196 0.9180001 7.401182e-40
-0.0058381609 0.19425967 0.91850007 5.5682136e-40
-0.00160956 0.19475675 0.91799998 1.4787496e-39
0.0016095599 0.19475675 0.91799998 8.3267817e-40
0.0056334599 0.19556153 0.91799998 4.6499707e-40
0.0096573597 0.19556153 0.91799998 4.7153693e-42
0.013681259 0.19556153 0.91799998 2.9090956e-42
0.017973419 0.19502501 0.91799998 2.1986373e-42
0.021935731 0.19420642 0.91825008 1.8328984e-42
0.025614446 0.19379978 0.9188 9.3654382e-41
0.02951912 0.19340669 0.92000002 7.3721752e-40
0.033067867 0.19276147 0.92000002 1.1049407e-39
-0.012097999 0.19760066 0.92000002 0
-0.0096573597 0.19717108 0.91799998 0
-0.0056457329 0.19760066 0.92000002 2.8025969e-45
-0.0013442221 0.19813836 0.92000002 9.2201235e-41
0.0016113133 0.1981924 0.91899997 9.3638967e-41
0.0056334599 0.19797587 0.9180001 1.8188854e-42
0.0096573597 0.19797587 0.91799998 1.0916115e-42
0.013681259 0.19797587 0.9180001 9.8090893e-45
0.017462615 0.19799516 0.9193334 4.2038954e-45
0.02174367 0.19731426 0.91866672 1.4012985e-45
0.0064382395 0.2003902 0.91799998 0
0.0096783992 0.20082679 0.92000002 0
0.013711067 0.20082681 0.92000002 0
-0.0040458161 0.1318936 0.92299998 7.4831566e-39
-0.0016183266 0.1318936 0.92299998 8.0359618e-39
0.0016183266 0.13108444 0.92299998 8.0356045e-39
0.0056641432 0.13027529 0.92300004 8.1281575e-39
0.0094402386 0.13135417 0.92300004 2.9634226e-39
0.013755776 0.1318936 0.92300004 2.3050708e-38
0.017801594 0.1318936 0.92299998 2.3509886e-38
0.021038245 0.1318936 0.92299998 2.3509886e-38
-0.0089007961 0.13351195 0.92299998 7.9423201e-39
-0.0064733066 0.13351195 0.92299998 7.6668178e-39
0.017801594 0.13351195 0.92299998 2.3509886e-38
0.02184741 0.13351195 0.92300004 2.341805e-38
0.025084062 0.13432109 0.92299998 2.7669703e-39
-0.016992429 0.13998525 0.92299998 6.6519344e-39
-0.01483466 0.13836692 0.92300004 7.2047494e-39
0.026702389 0.1367486 0.92299998 1.7863753e-41
0.029615376 0.13869059 0.92299998 3.7063868e-39
-0.017801594 0.14241274 0.92299998 5.6367035e-39
0.031557366 0.14160357 0.92299998 4.8069526e-39
0.033175696 0.14160357 0.92299998 4.4399651e-39
-0.025084062 0.14645857 0.92299998 3.2424911e-39
-0.021847408 0.1456494 0.92299998 4.163374e-39
-0.018610757 0.14484023 0.92299998 4.9924158e-39
0.038030677 0.1456494 0.92299998 3.5190724e-39
-0.025623506 0.1496952 0.92300004 3.1502885e-39
-0.022656571 0.14807688 0.92299998 3.886783e-39
0.039244417 0.14929062 0.92299998 3.0577257e-39
-0.026702389 0.15374103 0.92299998 3.0562838e-39
0.039648999 0.15374103 0.92299998 3.0544775e-39
0.041267328 0.15374103 0.92299998 2.5934994e-39
-0.028320715 0.15778685 0.92300004 2.5942252e-39
0.041267328 0.15616851 0.92299998 1.949925e-39
-0.029939042 0.16183266 0.92299998 2.4080109e-39
0.042885654 0.16183266 0.92299998 2.0392242e-39
-0.029534459 0.16628306 0.92299998 1.8548357e-39
0.042885654 0.16587847 0.92300004 1.0257897e-39
-0.028860157 0.16965458 0.92300004 1.3938534e-39
0.042885654 0.16992429 0.92299998 1.2684554e-41
-0.028968045 0.17429377 0.92299998 1.2998304e-39
0.042885654 0.17558843 0.92299998 4.6119871e-39
-0.029129878 0.17801592 0.92299998 1.2047215e-39
-0.026702389 0.17801592 0.92299998 9.3176539e-40
0.042076491 0.17801592 0.92299998 6.6395931e-39
0.044503979 0.1788251 0.92299998 9.4036081e-39
-0.029129878 0.18206173 0.92299998 2.5822217e-39
-0.026297808 0.18246631 0.92299998 2.0312368e-39
0.039648999 0.18287089 0.92299998 5.2540957e-39
0.042076491 0.18125257 0.92299998 8.6642522e-39
0.044503979 0.18044341 0.92299998 9.8624171e-39
-0.029129878 0.18529838 0.92299998 2.3960116e-39
-0.025893226 0.18610755 0.92299998 1.2918402e-39
-0.021847408 0.18691674 0.92300004 6.5116518e-40
0.038030677 0.18610756 0.92299998 3.5956478e-39
-0.025893226 0.1893442 0.92299998 1.290743e-39
-0.022049699 0.18995106 0.92299992 4.6279844e-40
-0.018610757 0.19096254 0.92299998 9.2378499e-40
0.034794021 0.1893442 0.92299998 1.5677153e-39
0.036412347 0.18853503 0.92299998 2.5807742e-39
-0.018071314 0.19446892 0.92300004 1.4012985e-45
-0.015374102 0.19500835 0.92299998 0
-0.014295219 0.19716613 0.92300004 0
-0.0048549799 0.19905417 0.92299998 1.4012985e-45
-0.00242749 0.19986333 0.92299998 0
0.00242749 0.20148166 0.92299998 0
0.0040458161 0.20148166 0.92299998 0
-0.0089490134 0.12772682 0.92799997 8.4940519e-39
-0.0065083727 0.12772682 0.92799997 1.0061366e-38
-0.00081354659 0.12772682 0.92799997 1.0796409e-38
0.0016270932 0.12772682 0.92799997 9.6907944e-39
0.0061015994 0.12732005 0.92799997 7.1154545e-39
0.0097625591 0.12691326 0.92799997 4.6214992e-39
0.013423519 0.12732005 0.92799997 2.3234379e-38
0.018169207 0.12718447 0.92799997 2.3509886e-38
0.021152213 0.12691328 0.92799997 2.3509886e-38
-0.0122032 0.13016745 0.92799997 8.3107355e-39
-0.0097553264 0.1300616 0.92724997 9.1408535e-39
-0.0056856214 0.12995575 0.92650002 8.3114641e-39
-0.0016244632 0.12995574 0.92649996 8.1267225e-39
0.0013515279 0.12947635 0.92500007 8.3103935e-39
0.0056764162 0.12893574 0.92500007 7.8522909e-39
0.010001305 0.12947635 0.92500007 4.0697701e-39
0.013801362 0.12988606 0.926 2.2958873e-38
0.017869096 0.12995574 0.92649996 2.3509886e-38
0.021612987 0.13016079 0.92679995 2.3509886e-38
0.026033491 0.130981 0.92799997 2.1317659e-39
0.029287677 0.130981 0.92799997 4.813449e-39
-0.017084477 0.13586229 0.92799997 6.9267262e-39
-0.013340612 0.13421743 0.9262858 7.6660919e-39
-0.010145005 0.13350296 0.92574996 7.7590064e-39
-0.0064873328 0.13217942 0.92500001 7.2991199e-39
0.023516582 0.13217942 0.92500001 2.3509886e-38
0.02635479 0.13339579 0.92500001 9.37606e-40
0.030058559 0.13404056 0.92666668 4.6272571e-39
0.034168959 0.13586229 0.92799997 4.8987881e-39
-0.025219945 0.13911647 0.92799997 5.1767973e-39
-0.021965757 0.13911647 0.92799997 5.8214492e-39
-0.017869096 0.13807806 0.92649996 6.7423349e-39
-0.015407417 0.13704491 0.92500001 7.204032e-39
0.031085139 0.13758552 0.92500007 4.6240089e-39
0.034141999 0.13819049 0.92724997 4.4396064e-39
-0.028474132 0.14399774 0.92799997 4.1633558e-39
-0.025991853 0.14213878 0.92650002 4.899123e-39
-0.021894749 0.14191042 0.92500007 5.2679181e-39
-0.018651083 0.1410995 0.92500001 5.7288991e-39
0.034328807 0.14082921 0.92500007 4.0722616e-39
0.037771806 0.14260308 0.92800003 3.9786198e-39
-0.028474132 0.14643839 0.92799997 3.5187081e-39
-0.02621964 0.1456947 0.92500007 3.5183536e-39
0.039734915 0.14515407 0.92500001 3.8860487e-39
0.042167664 0.145965 0.92500001 4.3448548e-39
0.045141026 0.14623532 0.92500007 5.9985818e-39
-0.028443448 0.1503422 0.92699999 2.7822192e-39
-0.026760248 0.14920866 0.92500001 3.1502857e-39
0.042167664 0.15001959 0.92500007 3.2406652e-39
0.045484971 0.14945194 0.92649996 5.2624531e-39
-0.029241653 0.15432401 0.92649996 2.9637224e-39
0.042978581 0.15407416 0.92500001 2.8700751e-39
0.045865949 0.15384999 0.92714292 4.2486781e-39
-0.033355411 0.15864159 0.92799997 2.6849593e-39
-0.030673165 0.15855567 0.92559999 2.5938497e-39
0.042978581 0.15812874 0.92500007 2.3168943e-39
0.046058316 0.15805356 0.92575002 3.9713695e-39
-0.034006249 0.16222119 0.92799997 2.2236098e-39
-0.031625748 0.16218333 0.92500001 2.2239784e-39
0.046520445 0.1620601 0.9262858 4.9837124e-39
-0.036609598 0.1659635 0.92799997 6.731353e-39
-0.034168959 0.1659635 0.92799997 2.7731599e-39
-0.031625748 0.16623792 0.92500007 1.6700829e-39
0.045758869 0.16600624 0.92500007 4.154651e-39
-0.034006249 0.16970584 0.92799997 3.506699e-39
-0.031085139 0.1705628 0.92500007 1.0247107e-39
0.04544881 0.17043123 0.92574996 5.9070616e-39
-0.033708267 0.1746285 0.92649996 5.9923586e-39
-0.031220291 0.17394161 0.92500001 1.3913058e-39
0.045043353 0.17408167 0.92575002 8.3952478e-39
-0.033861831 0.17797473 0.92699999 8.111419e-39
-0.031625748 0.17840166 0.92500001 4.7045233e-39
0.045781579 0.17743236 0.92699999 9.6787503e-39
-0.033301495 0.18193856 0.92649996 6.2667777e-39
-0.031625748 0.18164533 0.92500001 5.1629553e-39
-0.033247583 0.18407808 0.92500001 4.5154209e-39
-0.030652648 0.18634863 0.92500001 3.0417355e-39
0.041356746 0.18488899 0.92500001 8.4809218e-39
-0.028382082 0.18894358 0.92500001 2.1179828e-39
0.036491249 0.19056541 0.92500001 2.3963773e-39
-0.020272916 0.19299817 0.92500001 5.5281925e-40
-0.01702925 0.19705275 0.92500001 0
-0.0064873328 0.20029642 0.92500001 0
-0.0016257782 0.20224568 0.92649996 0
0.00081091665 0.20191824 0.92500001 0
0.010541917 0.20354007 0.92500001 0
0.01216375 0.20354007 0.92500001 0
0.0073376996 0.1231103 0.93000001 6.6559155e-39
0.0097835995 0.122295 0.93000001 3.706384e-39
0.012229499 0.1231103 0.93000001 2.1856847e-38
-0.00081529998 0.12637149 0.93000001 1.0245755e-38
0.0016306 0.1255562 0.93000001 9.5089157e-39
0.0053809802 0.12539314 0.93000001 7.6675437e-39
0.0097835995 0.1247409 0.93000001 5.1750303e-39
0.014186218 0.12539314 0.93000001 2.3326215e-38
0.017664833 0.12528443 0.93000001 2.3509886e-38
0.0211978 0.1247409 0.93000001 2.3509886e-38
-0.0105989 0.12800209 0.93000001 7.8497671e-39
-0.0040765 0.12800209 0.93000001 1.0614532e-38
-0.0024458999 0.12800209 0.93000001 1.1349574e-38
0.023643699 0.1296327 0.93000001 2.3509886e-38
0.026089599 0.1296327 0.93000001 2.4072724e-39
0.030573748 0.13004035 0.93000001 5.3630116e-39
0.033970833 0.13071977 0.93000001 5.9122015e-39
-0.0171213 0.13452449 0.93000001 7.0196379e-39
-0.0154907 0.13452449 0.93000001 6.9281709e-39
0.0342426 0.13370919 0.93000001 4.6250767e-39
0.036688495 0.13370919 0.93000001 6.7365532e-39
-0.026089599 0.13860099 0.93000001 5.4522954e-39
-0.022013102 0.1369704 0.93000001 6.2817043e-39
-0.018751899 0.1361551 0.93000001 6.4657481e-39
0.037503794 0.1377857 0.93000001 4.5307076e-39
-0.028535498 0.1418622 0.93000001 5.1757001e-39
0.039949697 0.1418622 0.93000001 4.2537564e-39
0.041580297 0.1418622 0.93000001 4.0693637e-39
-0.030818338 0.14561258 0.93000001 3.7938418e-39
0.041580297 0.14430809 0.93000001 4.7114933e-39
-0.030981397 0.15001521 0.93000001 3.3321434e-39
-0.033427298 0.1540917 0.93000001 3.0533845e-39
-0.031389046 0.15368405 0.93000001 3.0548363e-39
-0.038319096 0.1589835 0.93000001 8.4805448e-39
-0.0342426 0.1581682 0.93000001 2.2243399e-39
-0.031796698 0.15735289 0.93000001 2.4105444e-39
-0.038319096 0.16224471 0.93000001 8.6656577e-39
-0.035057899 0.1606141 0.93000001 2.2225336e-39
-0.039134398 0.16632119 0.93000001 9.5883455e-39
-0.037911445 0.16917475 0.93000001 9.5872651e-39
-0.036688499 0.17365889 0.93000001 1.0138633e-38
-0.035057899 0.17284359 0.93000001 8.4823469e-39
-0.036688495 0.17773539 0.93000001 9.8616996e-39
-0.035057899 0.17855069 0.93000001 9.5854714e-39
-0.036688495 0.1809966 0.93000001 9.8580997e-39
-0.035057899 0.1818119 0.93000001 8.4794756e-39
0.014754299 0.11885408 0.935 3.3332995e-39
-0.00081968331 0.12377217 0.935 9.7851425e-39
0.0018022513 0.12240775 0.93460006 8.7706402e-39
0.0055210274 0.12166708 0.93300003 7.1147314e-39
0.0098151602 0.1202357 0.93300003 4.8120057e-39
0.014124634 0.1217964 0.93400002 2.0565769e-38
0.018020175 0.12204458 0.93433344 1.6233697e-38
0.02210106 0.12195865 0.93366665 9.4206255e-39
0.026229866 0.12377217 0.935 6.0900459e-39
-0.01721335 0.12705091 0.935 7.6621206e-39
-0.013934616 0.12705091 0.93500006 6.9274535e-39
-0.0098265558 0.12691504 0.93400002 7.3887974e-39
-0.0057284324 0.12686974 0.93366671 1.0153202e-38
-0.0019085032 0.12568858 0.93300003 9.6032651e-39
0.023745392 0.12609535 0.93400002 2.2222395e-38
0.026201813 0.12609535 0.93400002 2.5009114e-39
0.029508598 0.12705091 0.935 5.5466812e-39
-0.021897253 0.13079804 0.93500006 7.291878e-39
-0.018033033 0.13032964 0.93500006 6.7434139e-39
-0.014381216 0.12989581 0.93357152 7.2047564e-39
0.02371997 0.128415 0.93300003 2.3509886e-38
0.026173759 0.128415 0.93300003 2.3147138e-39
0.030307828 0.12859853 0.93433332 4.9942277e-39
-0.025919234 0.13450843 0.93366671 6.6465072e-39
-0.02210778 0.13428341 0.93400002 6.2809827e-39
-0.018267103 0.13386789 0.93300003 6.7430538e-39
-0.015540671 0.1333226 0.93300003 6.9288898e-39
0.038442709 0.13495845 0.93300003 6.4606866e-39
-0.029281894 0.13855733 0.93300003 5.9110847e-39
-0.026446402 0.1371396 0.93300003 5.7285137e-39
0.040078573 0.13823017 0.93300003 6.5521507e-39
-0.03353513 0.14313775 0.93300003 6.5488044e-39
-0.031081341 0.14231983 0.93300003 5.0809695e-39
0.041803848 0.14016584 0.935 5.7241977e-39
-0.034080416 0.14586419 0.93300003 5.5368679e-39
-0.037235539 0.15016949 0.93350005 7.6515268e-39
-0.034353063 0.14968121 0.93300003 4.156844e-39
-0.03189927 0.14804533 0.93300003 3.2403107e-39
0.048309594 0.15065955 0.93400002 9.2218009e-39
-0.037624776 0.15377083 0.93300003 6.9157653e-39
-0.035170987 0.15377083 0.93300003 2.7775151e-39
0.049129277 0.15393566 0.93400002 8.6678788e-39
-0.037624776 0.15704255 0.93300003 5.6257621e-39
-0.035170987 0.15704256 0.93300003 2.1314268e-39
0.050000682 0.15819888 0.93500006 9.5872651e-39
0.050000682 0.16229729 0.935 9.3099636e-39
0.050000682 0.16475634 0.935 1.0138642e-38
-0.040078569 0.17094737 0.93300003 1.0969465e-38
-0.038442709 0.17094737 0.93300003 1.0601421e-38
-0.040078569 0.17258322 0.93300003 1.0785054e-38
-0.038442709 0.17421907 0.93300003 1.0691805e-38
-0.0098677594 0.12252469 0.93800002 7.204025e-39
-0.0049443999 0.12278593 0.94 7.7557792e-39
-0.0016446267 0.12252469 0.93800002 8.1249135e-39
0.025491713 0.12252469 0.93800002 2.7894668e-39
-0.01356817 0.12540279 0.93800002 7.3869841e-39
-0.0098677594 0.12499163 0.93800002 7.4809818e-39
-0.0057561933 0.12499164 0.93800008 8.8639134e-39
-0.0024669401 0.1241693 0.93800002 9.508557e-39
-0.02220246 0.1291032 0.93800002 7.6613751e-39
0.050983425 0.15377259 0.93800002 9.3103125e-39
0.051805738 0.15788415 0.93800002 9.6798195e-39
0.051805738 0.1611734 0.93800002 9.4950737e-39
