# .PCD v0.7 - Point Cloud Data file format
VERSION 0.7
FIELDS x y z rgb
SIZE 4 4 4 4
TYPE F F F F
COUNT 1 1 1 1
WIDTH 986
HEIGHT 1
VIEWPOINT 0 0 0 1 0 0 0
POINTS 986
DATA ascii
0.014173069 0.034182105 0.95100009 2.3508962e-38
0.01834162 0.034182109 0.95100009 2.3507502e-38
0.021676458 0.034182109 0.95100009 2.332243e-38
0.02608321 0.033705704 0.95100009 2.2859998e-38
0.030013561 0.034182109 0.95100009 2.2399024e-38
0.033348396 0.032514688 0.95099998 2.2306846e-38
0.01417307 0.038350657 0.95100009 2.3414974e-38
0.01834162 0.038350657 0.95099998 2.3226591e-38
0.021676458 0.038350657 0.95099998 2.2305751e-38
0.027512427 0.038350657 0.95099998 2.166075e-38
0.029179849 0.038350657 0.95099998 2.1845502e-38
0.010838229 0.041685499 0.95099998 2.3504269e-38
0.01417307 0.041685503 0.95100009 2.3228412e-38
0.01834162 0.041685499 0.95099998 2.2399022e-38
0.02167646 0.041685499 0.95099998 2.1662184e-38
0.025011297 0.041685499 0.95099998 2.083318e-38
0.010838229 0.045020338 0.95099998 2.2767095e-38
0.013756214 0.044603486 0.95099998 2.23983e-38
0.018508362 0.045520563 0.95100003 2.1569265e-38
0.021676458 0.045854054 0.95100009 2.1384899e-38
0.024177589 0.046687756 0.95099998 2.101758e-38
0.019175328 0.050022595 0.95099998 2.1846598e-38
0.019175328 0.05419115 0.95099998 2.2213962e-38
0.015840489 0.059193403 0.95099998 2.1477835e-38
0.01834162 0.058359694 0.95099998 2.1017578e-38
0.014728877 0.061416633 0.95099998 2.2493092e-38
0.017507909 0.060860824 0.95099998 2.0465139e-38
0.010838229 0.067530505 0.95099998 2.0464015e-38
0.013339359 0.065029375 0.95099998 2.1569656e-38
0.0075033898 0.070865348 0.95099998 1.9539137e-38
0.0091708088 0.070031635 0.95099998 2.0277425e-38
0.0019453233 0.075311802 0.95099998 1.9079636e-38
0.0054191146 0.074200183 0.95099998 1.9264746e-38
0.0016674199 0.077535026 0.95099998 1.8893798e-38
-0.0016674199 0.080869861 0.95099998 1.7421972e-38
-0.10588117 0.10671487 0.95099998 1.2260916e-38
-0.10421374 0.11004971 0.95099998 1.5669621e-38
-0.10254633 0.11088342 0.95099998 1.5024956e-38
-0.10254633 0.11255084 0.95099998 1.5302272e-38
-0.1008789 0.11838682 0.95099998 1.4473954e-38
-0.099211484 0.11922053 0.95099998 1.4105871e-38
-0.098377779 0.12088794 0.95099998 1.3645965e-38
-0.093375519 0.12422278 0.95099998 1.3181377e-38
-0.090874381 0.1258902 0.95099998 1.1614777e-38
-0.085038409 0.12922505 0.95099998 1.2535659e-38
-0.081703573 0.12922505 0.95099998 1.2167553e-38
-0.078368738 0.12922505 0.95099998 1.1523264e-38
-0.010045723 0.019255983 0.95499998 2.3509844e-38
0.022628518 0.018438052 0.95599997 2.3509719e-38
0.02598089 0.018438052 0.95599997 2.350968e-38
0.030171357 0.018438052 0.95599997 2.3509687e-38
-0.010036079 0.020908499 0.954 2.3509838e-38
-0.0058666533 0.022069789 0.95600003 2.350986e-38
0.019276146 0.022628518 0.95599997 2.3509685e-38
0.022069789 0.022069789 0.95600003 2.3509695e-38
0.02598089 0.021790426 0.95599997 2.350967e-38
0.030171357 0.021790426 0.95599997 2.3509664e-38
0.036876105 0.021790426 0.95599997 2.3508609e-38
-0.0041816998 0.025090199 0.954 2.3509869e-38
-0.0016750179 0.025961606 0.95533323 2.3509855e-38
0.0016750176 0.025961606 0.95533335 2.3509789e-38
0.0058635366 0.025968034 0.9555555 2.3509747e-38
0.010050106 0.025961606 0.95533335 2.3509722e-38
0.014026886 0.026168717 0.95524997 2.3509677e-38
0.018425195 0.025961606 0.95533323 2.3509666e-38
0.021774646 0.025962189 0.95533335 2.3508931e-38
0.025957124 0.025955565 0.95511109 2.3508945e-38
0.03015032 0.025961606 0.95533323 2.3508232e-38
0.033512335 0.025971249 0.95566666 2.3413534e-38
0.037714202 0.025980892 0.95599991 2.3044751e-38
0.041904666 0.02598089 0.95599997 2.3323128e-38
-0.00083633995 0.029271899 0.954 2.35098e-38
0.0016726799 0.029271899 0.954 2.35098e-38
0.0047392598 0.029829461 0.954 2.3509754e-38
0.018399481 0.029271899 0.954 2.3507868e-38
0.020908499 0.03010824 0.954 2.3507091e-38
0.035405058 0.029829461 0.954 2.3045861e-38
0.038471639 0.03010824 0.954 2.258488e-38
0.04186083 0.030138923 0.95499998 2.1846229e-38
0.045759898 0.030338977 0.95599997 2.0833878e-38
0.034528892 0.034767851 0.95400006 2.2122454e-38
0.038471639 0.033453599 0.954 2.193736e-38
0.04186083 0.03348954 0.95499998 2.184587e-38
0.045759898 0.033356111 0.95599997 2.1939159e-38
0.030944578 0.038471639 0.954 2.184625e-38
0.033453599 0.038471639 0.954 2.2306876e-38
0.037923723 0.037923723 0.95599991 2.2029927e-38
0.041904666 0.037714198 0.95599997 2.1846277e-38
0.044418946 0.037714198 0.95600003 2.1753354e-38
0.027599219 0.041816995 0.954 2.1292711e-38
0.030124458 0.04183935 0.95449996 2.1385632e-38
0.033523731 0.041904662 0.95599997 2.1017948e-38
0.037714198 0.041066568 0.95600003 2.0374747e-38
0.041904662 0.041066568 0.95599997 1.9727208e-38
0.026452538 0.045842402 0.95571429 2.0740996e-38
0.030171357 0.046095133 0.95599997 2.0556607e-38
0.033523731 0.045257039 0.95599997 2.0465137e-38
0.036038011 0.045257039 0.95599997 2.0096715e-38
0.02174484 0.050180398 0.954 2.1202686e-38
0.025963943 0.05025053 0.95533335 2.0649884e-38
0.030171357 0.050285596 0.95599997 2.0465139e-38
0.02174484 0.053525753 0.954 2.1937744e-38
0.02598089 0.053637967 0.95599997 2.0281478e-38
0.029333265 0.05363797 0.95599997 1.9636122e-38
0.01923582 0.05938014 0.954 2.1202693e-38
0.021775816 0.057788696 0.95533335 1.9911257e-38
0.025771366 0.057618912 0.95599991 1.8990007e-38
0.015890459 0.062725499 0.954 2.193846e-38
0.018678261 0.062167939 0.954 2.0556635e-38
0.020952333 0.062018901 0.95599997 2.0833581e-38
0.01478089 0.066652089 0.95433331 2.0555871e-38
0.018425781 0.066163786 0.95533335 2.0187484e-38
0.020952333 0.064533181 0.95599997 2.009673e-38
0.01087242 0.070252553 0.954 2.0462217e-38
0.014243203 0.070375584 0.95566666 2.0832087e-38
0.018438052 0.070399836 0.95599997 2.0280399e-38
0.0075270599 0.074434258 0.954 1.8710849e-38
0.010041778 0.073636934 0.95449996 1.8526077e-38
0.014247585 0.07375221 0.95599997 1.963242e-38
0.018158689 0.07347285 0.95600003 2.07403e-38
0.0016726799 0.079452291 0.954 1.7880672e-38
0.0060724509 0.078091048 0.95524997 1.8250234e-38
0.0098895011 0.077607438 0.95599997 1.8065121e-38
0.014247585 0.076266482 0.95600003 1.8249152e-38
0.017599959 0.076266482 0.95599997 1.9355888e-38
-0.0016761866 0.082971238 0.95599997 1.7697089e-38
0.0016744332 0.082048103 0.95499998 1.6774376e-38
0.0055296621 0.081931509 0.95559996 1.7788142e-38
-0.0013968222 0.085206151 0.95600003 1.7236868e-38
0.0016761866 0.085485518 0.95599997 1.6315581e-38
0.0047491952 0.085206151 0.95600003 1.7420487e-38
-0.11146641 0.094704546 0.95599997 6.729202e-39
-0.11146641 0.096380726 0.95599997 6.3607726e-39
-0.10811403 0.10308547 0.95599997 1.0325545e-38
-0.10811403 0.10476166 0.95599997 1.0600334e-38
-0.10632651 0.11051347 0.95499998 1.4286688e-38
-0.10811403 0.11398069 0.95599997 6.2692958e-39
-0.10549018 0.11386146 0.95499992 1.2996267e-38
-0.10286982 0.11457857 0.954 1.5301916e-38
-0.10541594 0.11796455 0.95433331 1.0509914e-38
-0.10286982 0.11792394 0.954 1.4750177e-38
-0.061180804 0.11900924 0.95599997 1.0228948e-38
-0.057734735 0.11797965 0.95444447 7.2819526e-39
-0.053525757 0.11792394 0.954 4.4250049e-39
-0.10476166 0.12236162 0.95599997 1.5949447e-38
-0.10214043 0.12223451 0.95499992 1.5120407e-38
-0.098688111 0.12294198 0.954 1.3829635e-38
-0.057808857 0.12231924 0.95566666 4.6126037e-39
-0.053525757 0.12210564 0.954 1.8582759e-40
-0.051016737 0.12210564 0.954 0
-0.097536169 0.12516433 0.95499998 1.3737436e-38
-0.093670078 0.12628734 0.954 1.2537084e-38
-0.090324715 0.12796003 0.954 1.2258663e-38
-0.057493199 0.12554638 0.95599997 9.1229463e-39
-0.053581864 0.12558337 0.95499998 6.3635794e-39
-0.051016737 0.12461465 0.954 7.5333805e-42
-0.093028352 0.12822826 0.95599997 1.2811835e-38
-0.090514079 0.12990445 0.95599997 1.5025978e-38
-0.087815695 0.1296327 0.954 1.373488e-38
-0.081961319 0.13130538 0.954 1.2996945e-38
-0.079618864 0.13158065 0.95599997 1.262926e-38
0.02202695 0.014628586 0.95900005 2.3509788e-38
0.025852244 0.014502479 0.95900005 2.3509716e-38
0.030266037 0.01513302 0.95899999 2.350967e-38
0.033628933 0.01513302 0.95899999 2.3509701e-38
0.038042728 0.014502479 0.95900005 2.3509326e-38
0.041195441 0.01513302 0.95899999 2.3509334e-38
0.018776154 0.018776154 0.95899999 2.3509755e-38
0.021018082 0.018495914 0.95899999 2.3509722e-38
0.033628933 0.018495914 0.95899999 2.3509675e-38
0.037832547 0.018495914 0.95900005 2.3509685e-38
0.042036165 0.018495912 0.95899999 2.3509709e-38
0.045399059 0.019336635 0.95899999 2.3507167e-38
-0.0050443397 0.021018082 0.95899999 2.3509859e-38
-0.0016814466 0.022699529 0.95899999 2.3509849e-38
0.0016814466 0.022699529 0.95899999 2.3509832e-38
0.0058850627 0.022699531 0.95899999 2.3509733e-38
0.010088679 0.022699529 0.95899999 2.350973e-38
0.014712658 0.022279168 0.95899999 2.3509723e-38
0.018215673 0.021578565 0.95899999 2.3509713e-38
0.021018082 0.021018082 0.95899999 2.3509703e-38
0.033628933 0.021858806 0.95899999 2.3508589e-38
0.039513994 0.021858806 0.95899999 2.3509329e-38
0.042036165 0.021858806 0.95899999 2.3508626e-38
0.046239786 0.021858808 0.95900005 2.3413535e-38
0.0504434 0.021858806 0.95899999 2.3318842e-38
0.015973743 0.024380974 0.95899999 2.3509689e-38
0.046239782 0.026062425 0.95900005 2.3136249e-38
0.050443403 0.026062425 0.95900005 2.2674926e-38
0.052965567 0.026062422 0.95899999 2.1752617e-38
0.047921225 0.029425314 0.95899999 2.1293773e-38
0.0504434 0.030266037 0.95899999 2.1756201e-38
0.047921225 0.034469657 0.95899999 2.2031709e-38
0.0504434 0.033628933 0.95899999 2.1664381e-38
0.047080502 0.037832547 0.95900005 2.1293086e-38
0.037832551 0.042876892 0.95899999 1.9819778e-38
0.042036165 0.042876888 0.95899999 1.8897075e-38
0.046239778 0.042036168 0.95900005 1.9541372e-38
0.033628933 0.047921225 0.95899999 1.9358428e-38
0.03831296 0.046479989 0.95900011 1.9358445e-38
0.042036168 0.046239786 0.95900005 1.9265162e-38
0.04511882 0.04511882 0.95899999 1.8989636e-38
0.033628933 0.0504434 0.95899999 1.8805985e-38
0.037832547 0.050443403 0.95900005 1.8991103e-38
0.041195441 0.0504434 0.95899999 1.8898198e-38
0.031106761 0.05380629 0.95899999 1.9174026e-38
0.033628933 0.05380629 0.95899999 1.9450628e-38
0.036991823 0.05380629 0.95899999 1.9359886e-38
0.027743869 0.059691351 0.95899999 1.9265542e-38
0.030266037 0.058009904 0.95900005 2.0188199e-38
0.033628933 0.057169184 0.95899999 2.0556978e-38
0.036991823 0.056328461 0.95899999 2.0465513e-38
0.022699529 0.062213525 0.95899999 1.9358452e-38
0.025726134 0.062045377 0.95900005 1.9358434e-38
0.022139048 0.065856665 0.95899999 1.9820145e-38
0.025221698 0.065576419 0.95899999 1.9820135e-38
0.021858808 0.069780037 0.95900005 2.0189265e-38
0.019336635 0.07482437 0.95899999 2.0185313e-38
0.021578565 0.073703408 0.95899999 1.9727205e-38
0.010929403 0.079868712 0.95899999 1.7971874e-38
0.014292298 0.079027988 0.95900005 1.8894863e-38
0.018495914 0.078187265 0.95899999 1.9725367e-38
0.021018082 0.076505817 0.95899999 1.9725392e-38
0.0075665093 0.083231606 0.95899999 1.7880382e-38
0.010088679 0.082390882 0.95899999 1.7512313e-38
0.013871934 0.08197052 0.95899999 1.9356937e-38
0.0070060277 0.086034022 0.95899999 1.8249172e-38
0.010088679 0.084913053 0.95899999 1.8710504e-38
0.0016814466 0.088275947 0.95899999 1.6221567e-38
0.0042036166 0.088275947 0.95899999 1.7603425e-38
0.0016814466 0.10256824 0.95899999 1.8714529e-38
-0.1084533 0.10677186 0.95899999 1.0048245e-38
-0.1084533 0.11013475 0.95899999 1.0417743e-38
-0.1084533 0.11686053 0.95899999 5.9005231e-39
-0.061372798 0.1227456 0.95899999 9.6757501e-39
-0.10172752 0.12582825 0.95899999 1.5765055e-38
-0.098364621 0.12694922 0.95899999 1.4380307e-38
-0.061372798 0.1261085 0.95899999 9.306976e-39
-0.059691351 0.12694922 0.95899999 9.3980758e-39
-0.094161004 0.12947139 0.95899999 1.3459022e-38
-0.084913053 0.13199356 0.95899999 1.3916403e-38
-0.078187265 0.13199356 0.95899999 1.2260479e-38
0.038874906 0.0025353199 0.96399999 2.3509734e-38
0.042255331 0.0025353199 0.96399999 2.3509729e-38
0.04563576 0.0025353199 0.96399999 2.3509736e-38
0.049016185 0.0025353199 0.96399999 2.3509737e-38
0.034208849 0.0063343546 0.96349996 2.350974e-38
0.038003497 0.0059104864 0.96333325 2.3509715e-38
0.042241015 0.005913116 0.96366662 2.350971e-38
0.04563576 0.005915747 0.96399993 2.3509374e-38
0.049814533 0.0059110709 0.96311104 2.3509304e-38
0.053241715 0.0059157461 0.96399999 2.350968e-38
0.02730583 0.010415385 0.96333331 2.3509807e-38
0.030376062 0.010125061 0.96249998 2.3509751e-38
0.033734135 0.01012024 0.96200001 2.3509717e-38
0.037950903 0.01012024 0.96200001 2.3509698e-38
0.042190023 0.010125061 0.96249998 2.3509692e-38
0.04563576 0.01014128 0.96399999 2.3507533e-38
0.049861293 0.01014128 0.96399993 2.3413462e-38
0.019397125 0.014337006 0.96200001 2.3509849e-38
0.021083834 0.0126503 0.96200001 2.3509834e-38
0.027830658 0.0126503 0.96200001 2.3509701e-38
0.030360721 0.0126503 0.96200001 2.3509703e-38
0.033734135 0.0126503 0.96200001 2.350971e-38
0.036264192 0.0126503 0.96200001 2.3509715e-38
0.042448785 0.013212536 0.96200007 2.3509692e-38
0.045589298 0.01350768 0.96299994 2.3509699e-38
0.049861293 0.013521707 0.96399993 2.3415318e-38
0.054086823 0.014366813 0.96399999 2.3227684e-38
0.05662214 0.014366813 0.96399999 2.3504265e-38
-0.01014128 0.017747238 0.96399999 2.3509862e-38
-0.00557034 0.018737171 0.96279997 2.350986e-38
-0.0016902132 0.019437451 0.96399999 2.3509736e-38
0.0016902132 0.019437451 0.96399999 2.3509803e-38
0.0050706398 0.019437451 0.96399999 2.3509866e-38
0.01014128 0.019437451 0.96399999 2.3509837e-38
0.013521707 0.019437451 0.96399999 2.3509809e-38
0.017159289 0.017159872 0.96266669 2.3509811e-38
0.043011017 0.016023712 0.96200001 2.3509698e-38
0.045541078 0.016867066 0.96200001 2.3508975e-38
0.049827587 0.017734185 0.96333325 2.3413175e-38
0.053917803 0.017409196 0.96399993 2.3322071e-38
0.05662214 0.016902132 0.96399999 2.3413185e-38
-0.0016867067 0.021083834 0.96200001 2.3509802e-38
0.0016867067 0.021083834 0.96200001 2.3509821e-38
0.0059034731 0.021083836 0.96200007 2.350981e-38
0.01012024 0.021083834 0.96200001 2.3509789e-38
0.013493653 0.021083834 0.96200001 2.3509762e-38
0.054031596 0.021949979 0.96299994 2.3041538e-38
0.057467248 0.021972772 0.96399999 2.2489794e-38
0.054931931 0.026198309 0.96399999 2.1200174e-38
0.057467252 0.026198309 0.96399993 2.0831728e-38
0.060847677 0.027043413 0.96399999 2.2213956e-38
0.054003105 0.030376062 0.96250004 2.1386724e-38
0.057467252 0.030423837 0.96399999 2.1109061e-38
0.060002569 0.030423837 0.96399999 2.1938104e-38
0.053974614 0.033734135 0.96200001 2.1110503e-38
0.057408515 0.033769201 0.963 2.0833561e-38
0.060002569 0.033804268 0.96399999 1.9082211e-38
0.05063685 0.037977785 0.96266669 2.1661866e-38
0.053917803 0.037691757 0.96399993 2.1016509e-38
0.057467248 0.036339585 0.96399999 2.0371505e-38
0.050706394 0.042255331 0.96399999 2.0094549e-38
0.053241715 0.042255331 0.96399999 2.0648444e-38
0.046384431 0.046384431 0.96200001 1.9726503e-38
0.049483277 0.045428868 0.96320003 1.9266611e-38
0.053241715 0.044790652 0.96399999 1.9635754e-38
0.043011017 0.050601199 0.96200001 1.8898198e-38
0.045572639 0.049793497 0.96266663 1.8989315e-38
0.048568644 0.049413752 0.96349996 1.8989311e-38
0.039637607 0.053974614 0.96200001 1.9360607e-38
0.042212375 0.05403072 0.963 1.908331e-38
0.045354061 0.053805124 0.96399999 1.8897485e-38
0.033734135 0.059878085 0.96200001 1.9266252e-38
0.03797837 0.058512241 0.96266669 1.9358456e-38
0.041410226 0.057467248 0.96399999 1.8898919e-38
0.027830658 0.063251495 0.96200001 1.9357345e-38
0.030360721 0.062408142 0.96200001 1.9633213e-38
0.033769201 0.062473889 0.96299994 1.9265871e-38
0.037466392 0.061692785 0.96399999 1.8436842e-38
0.027830658 0.065781556 0.96200001 2.0371144e-38
0.030392278 0.065850809 0.96299994 2.1200542e-38
0.033804268 0.065073207 0.96399999 2.0555904e-38
0.036339585 0.065073207 0.96399999 1.9635406e-38
0.02616928 0.07006339 0.96288884 2.0004525e-38
0.02957873 0.06845364 0.96399999 2.1479665e-38
0.022770539 0.075058445 0.96200001 1.981939e-38
0.025839925 0.074138641 0.96320003 2.0556603e-38
0.022224084 0.077923976 0.96266669 2.0186369e-38
0.025071498 0.077468105 0.96399999 2.0095986e-38
0.014337006 0.083491974 0.96200001 1.8990287e-38
0.018285511 0.082425371 0.96266663 1.9634607e-38
0.021958161 0.081919238 0.96333331 2.027891e-38
0.024508093 0.081130236 0.96399999 2.0002705e-38
0.01012024 0.086865388 0.96200001 2.0093087e-38
0.013501105 0.086067185 0.96249998 1.9080363e-38
0.016609326 0.085860148 0.96333331 1.9634607e-38
0.0016902132 0.090426408 0.96399999 1.7514518e-38
0.0062513347 0.089713506 0.96359998 1.8618323e-38
0.01014128 0.088736199 0.96399999 1.9447e-38
0.012676599 0.088736199 0.96399999 1.8802348e-38
-0.11385269 0.095298924 0.96200001 7.743714e-39
0.0016902132 0.092116617 0.96399999 1.8064451e-38
0.0050706398 0.092116617 0.96399999 1.8068351e-38
-0.11385269 0.096985631 0.96200001 7.4671201e-39
-0.11047929 0.10626252 0.96200001 7.2816527e-39
-0.11007017 0.110069 0.96333331 7.8369887e-39
-0.11070897 0.11324429 0.96399999 7.3742028e-39
-0.064983204 0.12237098 0.96266669 9.3998849e-39
-0.063251495 0.12228623 0.96200007 9.4917274e-39
-0.10204575 0.12734635 0.96200001 1.6225301e-38
-0.065005705 0.12663537 0.963 9.4913658e-39
-0.063317239 0.12663537 0.963 9.3991716e-39
-0.10056768 0.12930132 0.96399999 1.557848e-38
-0.097828984 0.12903306 0.96200001 1.465723e-38
-0.095298924 0.13071977 0.96200001 1.4105135e-38
-0.092961729 0.13268173 0.96399999 1.530111e-38
-0.089581303 0.13268173 0.96399999 1.4748707e-38
-0.086110577 0.1333892 0.963 1.5853601e-38
-0.083665557 0.13437195 0.96399999 1.6868478e-38
-0.053241715 0.15465452 0.96399999 1.6131259e-38
-0.049861293 0.1538094 0.96399993 1.4562504e-38
-0.04563576 0.1538094 0.96399999 1.465468e-38
-0.042537034 0.15409112 0.96399999 1.4840143e-38
-0.038874906 0.15465452 0.96399999 1.5393681e-38
-0.053241715 0.15803495 0.96399999 1.5760316e-38
-0.049850184 0.15799813 0.96377766 1.5300426e-38
-0.045572639 0.1578152 0.96266663 1.4194063e-38
-0.042196885 0.15781519 0.96266669 1.4562483e-38
-0.0379772 0.15781519 0.96266663 1.4379182e-38
-0.033973288 0.15837298 0.96399993 1.2627487e-38
-0.031268943 0.15888005 0.96399999 4.792323e-39
-0.053241715 0.16141535 0.96399999 1.4562514e-38
-0.049793497 0.16203605 0.96266663 1.484089e-38
-0.045541078 0.16192383 0.96200001 1.419374e-38
-0.042167664 0.16192383 0.96200001 1.4100451e-38
-0.037963469 0.16198024 0.96233332 1.3364691e-38
-0.033804268 0.16226047 0.96399999 1.2811537e-38
-0.03070554 0.16254218 0.96399999 1.5655082e-39
-0.049827397 0.16552693 0.96333331 1.474546e-38
-0.045565188 0.16538359 0.96249998 1.5757114e-38
-0.042189144 0.16538359 0.96249998 1.4283776e-38
-0.038002916 0.16552693 0.96333331 1.3273241e-38
-0.033804268 0.16564089 0.96399999 1.24424e-38
-0.030423835 0.16564089 0.96399999 1.1967313e-39
-0.049378373 0.16962498 0.96399993 9.8630967e-39
-0.04563576 0.16986644 0.96399993 9.2188063e-39
-0.042424351 0.16952839 0.96399993 9.9545566e-39
-0.037818521 0.16965516 0.96399987 6.08345e-39
-0.033804268 0.16986644 0.96399993 4.1480593e-39
-0.03070554 0.16873962 0.96399999 1.8367099e-40
-0.037184693 0.17324686 0.96399999 0
0.034757201 0.0025432098 0.96700001 2.3509758e-38
0.03814815 0.0014128945 0.96700001 2.3509754e-38
0.04238683 0.00084773666 0.96700001 2.3509744e-38
0.044930041 0.00084773666 0.96700001 2.3509738e-38
0.051711936 0.0025432098 0.96700001 2.3509709e-38
0.053407408 0.0025432098 0.96700001 2.3509706e-38
0.027127571 0.0076296297 0.96700001 2.3509853e-38
0.030518519 0.0067818929 0.96700001 2.350983e-38
0.033061728 0.0050864201 0.96700001 2.3509842e-38
0.055102881 0.0059341565 0.96700001 2.3509666e-38
0.056798354 0.0067818929 0.96700001 2.350965e-38
0.014411522 0.011020577 0.96700001 2.3509886e-38
0.017802469 0.011020577 0.96700001 2.3509886e-38
0.022323733 0.01045542 0.96700001 2.3509874e-38
0.02514952 0.0098902611 0.96700001 2.3509865e-38
0.054255143 0.010172839 0.96700001 2.350785e-38
0.05736351 0.010455418 0.96700001 2.3508214e-38
-0.00084773666 0.014411522 0.96700001 2.3509869e-38
0.0016954732 0.014411522 0.96700001 2.3509858e-38
0.014411522 0.013563786 0.96700001 2.3509886e-38
0.017463377 0.013394238 0.96700001 2.3509879e-38
0.054255143 0.012716049 0.96700001 2.3505724e-38
0.057928666 0.013281207 0.96700001 2.350679e-38
0.061037038 0.014411522 0.96700001 2.3506797e-38
-0.013563786 0.016106997 0.96700001 2.3509886e-38
-0.01017284 0.016106997 0.96700001 2.3509879e-38
-0.0063580247 0.016530864 0.96700001 2.3509859e-38
-0.0016954733 0.016954733 0.96700001 2.3509828e-38
0.0016954733 0.016954733 0.96700001 2.3509825e-38
0.0055950619 0.017463377 0.96700001 2.3509858e-38
0.01017284 0.016954733 0.96700001 2.3509865e-38
0.013846366 0.017237313 0.96700001 2.3509865e-38
0.055102881 0.019497944 0.96700001 2.2950773e-38
0.058069956 0.018226339 0.96700001 2.2951849e-38
0.061037034 0.017802471 0.96700001 2.2952926e-38
0.061037041 0.022041153 0.96700001 2.1384518e-38
0.062308647 0.025855966 0.96700001 2.1292725e-38
0.062732518 0.030518519 0.96700001 2.1663005e-38
0.065275721 0.030518519 0.96700001 2.0465496e-38
0.061884776 0.033909462 0.96700001 1.9359175e-38
0.055102881 0.039843623 0.96700001 2.0462977e-38
0.057646088 0.038995884 0.96700001 1.9725063e-38
0.060867488 0.037809055 0.96700001 1.843577e-38
0.055102881 0.04238683 0.96700001 1.9543199e-38
0.057646088 0.042386834 0.96700001 1.7975519e-38
0.060189299 0.041539095 0.96700001 1.862016e-38
0.051711936 0.046625517 0.96700001 1.8160652e-38
0.054537725 0.046060361 0.96700001 1.8528697e-38
0.057646088 0.045777779 0.96700001 1.7698929e-38
0.051033746 0.050355554 0.96700001 1.8436859e-38
0.053972568 0.048886146 0.96700001 1.7607092e-38
0.046625517 0.055102881 0.96700001 1.8066298e-38
0.049677368 0.054085594 0.96700001 1.6776607e-38
0.043234568 0.057646088 0.96700001 1.8898919e-38
0.045777779 0.057646092 0.96700001 1.8342513e-38
0.048320986 0.056798354 0.96700001 1.8156989e-38
0.038995884 0.062732518 0.96700001 1.7791854e-38
0.04238683 0.061037038 0.96700001 1.7607786e-38
0.044930041 0.060189299 0.96700001 1.7236888e-38
0.033909462 0.06697119 0.96700001 2.212395e-38
0.03758299 0.066406034 0.96700001 1.9083303e-38
0.030801099 0.069796987 0.96700001 2.101868e-38
0.033626884 0.069231831 0.96700001 2.1111242e-38
0.036452677 0.068666667 0.96700001 2.000528e-38
0.027975308 0.075448565 0.96700001 2.1017592e-38
0.030518522 0.073753089 0.96700001 2.138638e-38
0.02741015 0.078274354 0.96700001 2.0188548e-38
0.030235942 0.077709191 0.96700001 1.852904e-38
0.026279837 0.082230456 0.96700001 1.9910517e-38
0.018932786 0.086751722 0.96700001 1.9542049e-38
0.022041153 0.086469144 0.96700001 1.9174012e-38
0.024584362 0.086469136 0.96700001 1.9266928e-38
0.01017284 0.090707824 0.96700001 1.8803427e-38
0.013846366 0.090142667 0.96700001 1.8710862e-38
0.017463375 0.089690544 0.96700001 1.9725718e-38
0.0016954732 0.094946504 0.96700001 1.6500018e-38
0.0061763669 0.094583198 0.96700007 1.7974755e-38
0.01017284 0.094098769 0.96700001 1.7974419e-38
0.013563786 0.094098769 0.96700001 1.7605615e-38
0.016954735 0.094098769 0.96700001 1.7789993e-38
0.0016954733 0.098337442 0.96700001 1.6776976e-38
0.0059341565 0.098337457 0.96700001 1.6960966e-38
0.01017284 0.098337442 0.96700001 1.8711244e-38
0.013563786 0.098337442 0.96700001 1.8251346e-38
0.016954733 0.098337449 0.96700001 1.8068403e-38
0.0016954732 0.10088066 0.96700001 1.7699664e-38
0.006273251 0.10189795 0.96700001 1.6684043e-38
0.01017284 0.10172839 0.96700001 1.7144999e-38
0.013281207 0.10144582 0.96700001 1.7790363e-38
0.0025432098 0.10596708 0.96700001 1.8252116e-38
0.0059341565 0.10511934 0.96700001 1.6316005e-38
0.0093251029 0.10427161 0.96700001 1.6776631e-38
-0.10257614 0.1297037 0.96700001 1.6683761e-38
-0.097489715 0.13139917 0.96700001 1.4565755e-38
-0.09452264 0.13436626 0.96700001 1.6684431e-38
-0.089860082 0.13479012 0.96700001 1.7422398e-38
-0.087316871 0.13479012 0.96700001 1.7330182e-38
-0.082230456 0.13479012 0.96700001 1.6500054e-38
-0.093251027 0.13648559 0.96700001 1.7146844e-38
-0.089860082 0.13648559 0.96700001 1.7514591e-38
-0.086469136 0.13648559 0.96700001 1.7975907e-38
-0.083925925 0.13648559 0.96700001 1.705502e-38
-0.045777779 0.14665844 0.96700001 1.4746144e-38
-0.043234568 0.14665844 0.96700001 1.4930908e-38
-0.054255143 0.15089712 0.96700001 1.5300775e-38
-0.050016463 0.15004939 0.96700001 1.456177e-38
-0.045777783 0.15004939 0.96700001 1.4470645e-38
-0.04238683 0.15004939 0.96700001 1.5300415e-38
-0.038826339 0.15072757 0.96700001 1.5670271e-38
-0.05736351 0.15457064 0.96700001 1.5855401e-38
-0.054537725 0.1540055 0.96700001 1.5763205e-38
-0.041539095 0.15344034 0.96700001 1.5853939e-38
-0.037724283 0.1538642 0.96700001 1.5302203e-38
-0.034192044 0.15457064 0.96700001 1.4748657e-38
-0.05736351 0.15739644 0.96700001 1.5855049e-38
-0.055102881 0.15767902 0.96700001 1.5670289e-38
-0.033061728 0.15683128 0.96700001 1.3088828e-38
-0.029670782 0.15852675 0.96700001 3.8725668e-39
-0.056798354 0.16191772 0.96700001 1.613018e-38
-0.054679014 0.16234156 0.96700001 1.4378831e-38
-0.029670782 0.16106996 0.96700001 1.4761839e-39
-0.056798354 0.16615638 0.96700001 1.5208605e-38
-0.054255147 0.16615638 0.96700001 1.4286288e-38
-0.053407408 0.16954732 0.96700001 1.0411883e-38
-0.051711936 0.17039506 0.96700001 1.3270295e-38
-0.050016463 0.17322086 0.96700001 2.7625997e-39
-0.045777779 0.17378601 0.96700001 1.19709e-39
-0.042104255 0.17322086 0.96700001 2.9495147e-39
-0.038572017 0.17420989 0.96700001 7.382783e-40
-0.031366255 0.17209053 0.96700001 4.5917748e-40
0.039967231 -0.00085036666 0.97000003 2.3509775e-38
0.042518333 -0.00085036666 0.97000003 2.3509758e-38
0.045919798 -0.00085036666 0.97000003 2.350974e-38
0.034014665 0.0017007333 0.97000003 2.3509816e-38
0.036565769 0.00085036666 0.97000003 2.350979e-38
0.046770167 0.00085036666 0.97000003 2.3509738e-38
0.050171636 0.00085036666 0.97000003 2.350973e-38
0.054423466 0.0017007333 0.97000003 2.3509713e-38
0.013889322 0.0070863888 0.97000003 2.3509879e-38
0.017645108 0.0061651585 0.97000015 2.350988e-38
0.022109535 0.0068029333 0.97000003 2.3509886e-38
0.025511 0.0059525669 0.97000003 2.3509877e-38
0.029337652 0.0046770168 0.97000003 2.350986e-38
0.058250114 0.0055273836 0.97000003 2.3509674e-38
0.060942948 0.0070863888 0.97000003 2.3509661e-38
-0.00085036666 0.011054766 0.97000003 2.3509881e-38
0.0017007333 0.011054766 0.97000003 2.3509886e-38
0.0059525669 0.011054767 0.97000003 2.3509879e-38
0.010204399 0.011054766 0.97000003 2.3509884e-38
0.013322411 0.0099209435 0.97000003 2.3509886e-38
0.017857701 0.0093540326 0.97000003 2.3509886e-38
0.021259166 0.0093540326 0.97000003 2.3509886e-38
0.058675297 0.0093540326 0.97000003 2.3509307e-38
0.062076773 0.010204399 0.97000015 2.3508589e-38
0.065478235 0.010204399 0.97000003 2.3508938e-38
-0.016156966 0.012755499 0.97000003 2.3509886e-38
-0.013605866 0.013605866 0.97000003 2.3509886e-38
-0.010204399 0.014456232 0.97000003 2.350988e-38
-0.0059525669 0.014456233 0.97000003 2.3509877e-38
-0.001984189 0.013322411 0.97000003 2.3509876e-38
0.0017007333 0.012755499 0.97000003 2.3509879e-38
0.0059525669 0.013605866 0.97000015 2.3509869e-38
0.010204399 0.013605866 0.97000003 2.350988e-38
0.012755499 0.013605866 0.97000003 2.3509886e-38
0.062501952 0.013180682 0.97000003 2.3507516e-38
0.06604515 0.013889322 0.97000003 2.3506787e-38
0.0076533002 0.017007332 0.97000003 2.350986e-38
0.012755499 0.016156966 0.97000003 2.3509883e-38
0.063777499 0.017857701 0.97000003 2.2861086e-38
0.0663286 0.017857701 0.97000015 2.2768533e-38
0.063777499 0.022109533 0.97000003 2.1107572e-38
0.0663286 0.022109535 0.97000003 2.1845137e-38
0.068879694 0.022959899 0.97000003 2.1293794e-38
0.063777499 0.024660634 0.97000003 2.1108681e-38
0.0663286 0.025511 0.97000003 2.1478912e-38
0.068879694 0.025511 0.97000003 2.0926837e-38
0.066753782 0.029337648 0.97000003 2.0741361e-38
0.069559984 0.030102981 0.97000009 2.064808e-38
0.063777499 0.034014665 0.97000003 1.9819795e-38
0.0663286 0.034014665 0.97000003 1.9819412e-38
0.069446608 0.033731211 0.97000003 1.954211e-38
0.063352317 0.038691681 0.97000003 1.8344304e-38
0.06604515 0.03713268 0.97000003 1.852867e-38
0.068879694 0.036565769 0.97000003 1.917298e-38
0.06207677 0.042234879 0.97000003 1.8620534e-38
0.060376033 0.045919798 0.97000003 1.8067712e-38
0.054706924 0.051305454 0.97000003 1.7698587e-38
0.057824932 0.049321264 0.97000003 1.7606025e-38
0.060376033 0.048470899 0.97000003 1.8251395e-38
0.051872365 0.055273835 0.97000003 1.5302214e-38
0.053573098 0.054423466 0.97000003 1.6316005e-38
0.050171632 0.057824932 0.97000003 1.7327277e-38
0.042518333 0.063777499 0.97000003 1.7055335e-38
0.045919798 0.06207677 0.97000003 1.5671734e-38
0.04903781 0.060942948 0.97000003 1.5023851e-38
0.039967231 0.0663286 0.97000003 1.8253542e-38
0.041667968 0.0663286 0.97000003 1.7423395e-38
0.034865033 0.07058043 0.97000003 1.9635406e-38
0.037416134 0.069730058 0.97000003 1.9635765e-38
0.034014665 0.073981903 0.97000015 1.9358086e-38
0.031463563 0.079084098 0.97000003 1.8066243e-38
0.034014665 0.078233734 0.97000003 1.8896388e-38
0.030102981 0.081805274 0.97000009 1.8251722e-38
0.0331643 0.081635192 0.97000003 1.9358069e-38
0.026361367 0.086737394 0.97000003 1.945096e-38
0.029762831 0.085887045 0.97000015 1.9358076e-38
0.0331643 0.084186301 0.97000003 1.9635033e-38
0.019558433 0.090989232 0.97000003 2.027849e-38
0.022109535 0.090138867 0.97000003 1.9542056e-38
0.025511 0.089288503 0.97000003 1.9265117e-38
0.019558433 0.093540333 0.97000003 1.8895258e-38
0.022109535 0.093540333 0.97000003 1.9172542e-38
0.019558433 0.097792163 0.97000003 1.751451e-38
0.02168435 0.097366981 0.97000003 1.7605966e-38
0.0042518335 0.10119363 0.97000003 1.5118524e-38
0.014456232 0.10289437 0.97000003 1.7973692e-38
0.017857701 0.102044 0.97000015 1.8067691e-38
0.021259166 0.10119363 0.97000003 1.7145376e-38
0.0017007333 0.10799656 0.97000003 1.9173705e-38
0.0059525669 0.10799657 0.97000003 1.7698915e-38
0.010374472 0.10663598 0.97000009 1.825136e-38
0.013435793 0.10595568 0.97000009 1.8159158e-38
0.016723877 0.10516202 0.97000003 1.9726846e-38
0.0025511 0.1096973 0.97000003 1.7882254e-38
0.0059525669 0.1096973 0.97000003 1.7974413e-38
-0.0994929 0.13180684 0.97000003 1.557847e-38
-0.097792163 0.13435793 0.97000003 1.5116766e-38
-0.096091427 0.13690902 0.97000003 1.714507e-38
-0.093540333 0.13860977 0.97000003 1.6868814e-38
-0.090138867 0.13860977 0.97000003 1.7421301e-38
-0.085036665 0.13860977 0.97000003 1.7330873e-38
-0.041667968 0.14371197 0.97000003 1.1430731e-38
-0.039967231 0.14371197 0.97000003 1.1431064e-38
-0.054423466 0.14711343 0.97000003 1.5393683e-38
-0.050171636 0.14711343 0.97000003 1.4377368e-38
-0.045919798 0.1454127 0.97000003 1.4654671e-38
-0.042234879 0.14597961 0.97000003 1.4839431e-38
-0.039116867 0.14626306 0.97000003 1.3549422e-38
-0.061226401 0.1505149 0.97000003 1.585608e-38
-0.057824932 0.14966452 0.97000003 1.5486229e-38
-0.054423466 0.14881416 0.97000003 1.5208572e-38
-0.037416134 0.14966452 0.97000003 1.5762457e-38
-0.065478235 0.15391637 0.97000003 1.6038336e-38
-0.062076766 0.15391637 0.97000015 1.6408182e-38
-0.058108389 0.15278256 0.97000003 1.5762834e-38
-0.034014665 0.15306601 0.97000003 1.502453e-38
-0.031463563 0.1556171 0.97000003 1.1520743e-38
-0.065478235 0.15731783 0.97000003 1.6590802e-38
-0.06207677 0.1581682 0.97000015 1.6500418e-38
-0.058675297 0.15901856 0.97000003 1.6038389e-38
-0.029762832 0.1581682 0.97000003 6.8213556e-39
-0.060942948 0.16128621 0.97000003 1.6868474e-38
-0.058675297 0.16156965 0.97000003 1.714434e-38
-0.028062101 0.16071929 0.97000003 1.0159302e-39
-0.060376033 0.16582151 0.97000003 1.4930932e-38
-0.0586753 0.16582152 0.97000003 1.5668497e-38
-0.056974567 0.16922295 0.97000003 1.1702316e-38
-0.055273835 0.17007333 0.97000003 1.0320825e-38
-0.053573098 0.17262442 0.97000003 5.0642254e-39
-0.051872365 0.17432517 0.97000003 1.8367099e-40
-0.034865033 0.17432517 0.97000003 0
-0.049321264 0.1760259 0.97000003 9.1835496e-41
-0.045919798 0.1760259 0.97000003 0
-0.042518333 0.1760259 0.97000003 2.7550649e-40
-0.039967231 0.1760259 0.97000003 1.4349296e-42
0.035044752 -0.0017095 0.97500002 2.3509835e-38
0.037297782 -0.001423999 0.97433329 2.3509814e-38
0.041796833 -0.0025589899 0.97299999 2.3509823e-38
0.046061821 -0.0025589899 0.97299999 2.3509802e-38
0.04952465 -0.0017086234 0.97399998 2.350974e-38
0.053367522 -0.0012812483 0.97399998 2.350973e-38
0.058123 -0.00085474999 0.97500002 2.3509717e-38
0.01453075 0.00256425 0.97500002 2.350987e-38
0.017936308 0.0025624968 0.97433329 2.3509873e-38
0.022177912 0.0025589899 0.97299999 2.3509869e-38
0.025589898 0.0025589899 0.97299999 2.3509886e-38
0.030232901 0.001878346 0.97419995 2.350987e-38
0.033266868 0.0008529966 0.97299999 2.3509846e-38
0.055558749 0.00085474999 0.97500002 2.3509726e-38
0.058063388 0.00170687 0.97399998 2.3509706e-38
0.061541997 0.0017095 0.97500002 2.3509695e-38
0.064961001 0.00256425 0.97500002 2.3509696e-38
0.0019944168 0.0071229171 0.97500008 2.3509883e-38
0.0061903624 0.006189486 0.97399998 2.3509884e-38
0.010242973 0.0059738988 0.97366667 2.3509883e-38
0.01337238 0.00483657 0.97366667 2.3509874e-38
0.019618923 0.0042649829 0.97299999 2.3509883e-38
0.022177912 0.0042649829 0.97299999 2.3509886e-38
0.024736902 0.0042649829 0.97299999 2.3509886e-38
0.062609956 0.0056297779 0.97299999 2.3509674e-38
0.066009492 0.0059738988 0.97366667 2.3509702e-38
0.070089497 0.0068380004 0.97500002 2.350968e-38
0.073508501 0.0068380004 0.97500002 2.3509685e-38
0.076072745 0.0076927501 0.97500002 2.3509698e-38
-0.016240248 0.011111749 0.97500002 2.3509886e-38
-0.013676 0.011111749 0.97500002 2.3509886e-38
-0.010257 0.010256999 0.97500002 2.3509884e-38
-0.0063251504 0.010427951 0.97500002 2.3509886e-38
-0.0019926634 0.0099644847 0.97433329 2.3509884e-38
0.0017059932 0.0093829632 0.97299999 2.3509886e-38
0.0059709768 0.0093829632 0.97299999 2.3509884e-38
0.01023596 0.0093829632 0.97299999 2.3509886e-38
0.067386732 0.01023596 0.97299999 2.3508578e-38
0.069945723 0.01023596 0.97299999 2.3509325e-38
0.073508501 0.010256999 0.97500002 2.3508969e-38
0.07664258 0.010541916 0.97500008 2.3508267e-38
-0.010257 0.01282125 0.97500002 2.3509883e-38
-0.0059709768 0.012794951 0.97299999 2.3509884e-38
0.067386732 0.01279495 0.97299999 2.3508578e-38
0.069945723 0.013647947 0.97299999 2.3507161e-38
0.073357716 0.013647947 0.97299999 2.3507537e-38
0.077782243 0.013676001 0.97500002 2.3507924e-38
0.070041567 0.017938646 0.97433329 2.3043354e-38
0.073458239 0.017938646 0.97433341 2.2858573e-38
0.076072745 0.017949751 0.97500008 2.2859658e-38
0.07027857 0.02190819 0.97366667 2.2583818e-38
0.073929824 0.022366045 0.9738 2.1938802e-38
0.076927498 0.022223499 0.97500002 2.1753711e-38
0.070798725 0.025589898 0.97299999 2.1019034e-38
0.074210703 0.025589898 0.97299999 2.1292736e-38
0.077782243 0.025642499 0.97500002 2.1476775e-38
0.070798725 0.02814889 0.97299999 2.1938472e-38
0.07343398 0.029885568 0.97399998 2.0925043e-38
0.076756552 0.02957435 0.97500002 2.0832495e-38
0.070798725 0.034972861 0.97299999 1.9634307e-38
0.07343398 0.034154933 0.97399998 1.8989309e-38
0.076072745 0.035044752 0.97500002 1.8068424e-38
0.067386732 0.038384847 0.97299999 1.8344645e-38
0.07027857 0.037842482 0.97366667 1.9081135e-38
0.073471248 0.03759015 0.97449994 1.8989308e-38
0.076072745 0.036754247 0.97500002 1.8436157e-38
0.063121751 0.04350283 0.97299999 1.8437213e-38
0.066417836 0.041490704 0.9738 1.7699299e-38
0.069804579 0.040743083 0.97500008 1.723758e-38
0.06239675 0.0461565 0.97500002 1.8343936e-38
0.064676091 0.045871586 0.97500008 1.862125e-38
0.061479755 0.049523771 0.97399998 1.8343227e-38
0.064106248 0.048720747 0.97500002 1.8712358e-38
0.055444781 0.054591782 0.97299999 1.714361e-38
0.058063682 0.053795189 0.97399998 1.7605667e-38
0.060687248 0.052139752 0.97500002 1.7143972e-38
0.054125573 0.058222063 0.9738 1.4103322e-38
0.057268251 0.057268251 0.97500002 1.5485877e-38
0.046914816 0.063974746 0.97299999 1.364454e-38
0.0494738 0.063121751 0.97299999 1.3181727e-38
0.052139752 0.061541997 0.97500002 1.3365e-38
0.04350283 0.066533729 0.97299999 1.687058e-38
0.045871586 0.06638559 0.97500008 1.4567914e-38
0.050430249 0.064106248 0.97500002 1.2813312e-38
0.052139752 0.064106248 0.97500002 1.2351949e-38
0.038384847 0.070798725 0.97299999 1.9451346e-38
0.041507185 0.069861732 0.97419995 1.8530128e-38
0.037531849 0.074210711 0.97299999 1.8343937e-38
0.040173247 0.073508501 0.97500002 1.8436136e-38
0.037571304 0.078556344 0.97399998 1.8989308e-38
0.040173247 0.076072745 0.97500002 1.8712721e-38
0.034972861 0.081887677 0.97299999 1.8896029e-38
0.037571304 0.081971832 0.97399998 1.9080783e-38
0.034290466 0.086493857 0.97299999 2.0096718e-38
0.037571304 0.085387327 0.97399998 2.0189282e-38
0.025589898 0.09127064 0.97299999 1.9633547e-38
0.029875925 0.090480179 0.97366667 1.9172968e-38
0.034172904 0.090557478 0.97450006 1.9911615e-38
0.036754247 0.088893995 0.97500002 2.0188919e-38
0.025617074 0.093926065 0.97399998 1.8529011e-38
0.023030909 0.098947607 0.97299999 1.7513787e-38
0.025642499 0.097441502 0.97500002 1.8158433e-38
0.022478025 0.10271465 0.97366667 1.7146431e-38
0.025642499 0.10000575 0.97500002 1.8250276e-38
0.019050259 0.10605592 0.97299999 1.8898886e-38
0.022201583 0.10588028 0.97399998 2.0003421e-38
0.010520292 0.11060523 0.97299999 1.9633935e-38
0.013824508 0.1104237 0.97340006 1.8805616e-38
0.017920723 0.1100876 0.9734444 1.8529026e-38
0.022201583 0.11014965 0.9740001 2.0187809e-38
0.011111749 0.11368175 0.97500002 1.8343901e-38
0.013676 0.11368175 0.97500002 1.8252783e-38
0.019089418 0.11425158 0.97500008 1.8067694e-38
0.021368749 0.11453649 0.97500002 1.8342072e-38
-0.070089497 0.12735775 0.97500002 9.9519544e-39
-0.067386732 0.1262435 0.97299999 9.7683073e-39
-0.070089497 0.12906726 0.97500002 1.0043794e-38
-0.067525245 0.12906726 0.97500002 9.8608672e-39
-0.10193004 0.13410518 0.97433341 1.5025657e-38
-0.099800602 0.13392048 0.97299999 1.493417e-38
-0.081034675 0.13562647 0.97299999 1.6133414e-38
-0.077440344 0.13385384 0.97500002 1.2077522e-38
-0.10000575 0.13761476 0.97500002 1.4933464e-38
-0.097593158 0.13856505 0.97366667 1.5300798e-38
-0.087858655 0.13903844 0.97299999 1.7330881e-38
-0.08201348 0.13839892 0.97449994 1.6870975e-38
-0.079491749 0.1384695 0.97500002 1.6226322e-38
-0.04530175 0.13932425 0.97500002 1.3272107e-38
-0.041455377 0.13889688 0.97500002 1.1613684e-38
-0.037893914 0.13875443 0.97500008 1.1522216e-38
-0.096586749 0.14103374 0.97500002 1.4288095e-38
-0.093926065 0.14174384 0.97400004 1.5300779e-38
-0.090016305 0.14194372 0.97419995 1.6683724e-38
-0.085811466 0.14142685 0.97299999 1.6961028e-38
-0.082056001 0.1418885 0.97500002 1.714577e-38
-0.079491749 0.1418885 0.97500002 1.6776981e-38
-0.048720747 0.14274324 0.97500002 1.4562844e-38
-0.046109162 0.14174208 0.97399998 1.4195138e-38
-0.041811742 0.14164566 0.9733333 1.1247068e-38
-0.037531853 0.14159745 0.97299999 1.0971548e-38
-0.035044752 0.1418885 0.97500002 9.4953511e-39
-0.093167745 0.14445275 0.97500002 1.5485527e-38
-0.089748748 0.14616224 0.97499996 1.5301871e-38
-0.085474998 0.14616224 0.97500002 1.6960658e-38
-0.082056001 0.14616226 0.97500002 1.7144684e-38
-0.078067169 0.14673208 0.97500002 1.7237238e-38
-0.073508501 0.14616224 0.97500002 1.6592936e-38
-0.070089497 0.14787175 0.97500002 1.7053553e-38
-0.066130646 0.14678538 0.97460002 1.6962411e-38
-0.062331874 0.1472927 0.97399998 1.640925e-38
-0.058063388 0.14686534 0.97399998 1.5486576e-38
-0.05384925 0.14616224 0.97500008 1.5117086e-38
-0.049550515 0.14523254 0.97449994 1.4746152e-38
-0.046061821 0.14415643 0.97299999 1.4379529e-38
-0.04350283 0.14415643 0.97299999 1.3090611e-38
-0.037105352 0.14543591 0.97299999 1.1707651e-38
-0.034189999 0.14616224 0.97500002 1.1153404e-38
-0.031625748 0.14616226 0.97500008 1.1060495e-38
-0.089406848 0.15026504 0.97500002 1.4195889e-38
-0.085474998 0.15043598 0.97500002 1.4103324e-38
-0.082056001 0.150436 0.97500002 1.5115665e-38
-0.077782243 0.15043601 0.97500002 1.769679e-38
-0.073508501 0.15043598 0.97500002 1.7422333e-38
-0.070089497 0.15043598 0.97500002 1.7331212e-38
-0.06656836 0.15020411 0.97350001 1.7054261e-38
-0.06269525 0.14970091 0.97299999 1.6316334e-38
-0.034154937 0.15028082 0.97399998 1.4379521e-38
-0.030343624 0.15086336 0.97500002 1.1614763e-38
-0.025642499 0.15129074 0.97500002 6.4525366e-39
-0.02307825 0.15129074 0.97500002 3.2264547e-39
-0.084620245 0.15300025 0.97500002 1.4379902e-38
-0.081771091 0.15357009 0.97500008 1.4470668e-38
-0.077782251 0.153855 0.97500002 1.6036902e-38
-0.073471241 0.15377565 0.97449994 1.7236495e-38
-0.069945723 0.15353937 0.97299999 1.7330123e-38
-0.067386732 0.15353939 0.97299999 1.7329432e-38
-0.033266868 0.15268639 0.97299999 1.4931567e-38
-0.029894626 0.15374979 0.97433341 1.1981379e-38
-0.025642499 0.153855 0.97500002 5.1657817e-39
-0.022223499 0.153855 0.97500002 1.4012985e-45
-0.076500118 0.15770137 0.97500002 1.4378847e-38
-0.073483668 0.15807527 0.97466671 1.4932374e-38
-0.069945723 0.15780438 0.97299999 1.6130178e-38
-0.06696023 0.15823089 0.97299999 1.6498965e-38
-0.029001886 0.15695138 0.97299999 1.1519324e-38
-0.02478775 0.15812874 0.97500008 6.6365958e-39
-0.022223501 0.15812877 0.97500002 4.1480494e-39
-0.076072745 0.1624025 0.97500002 1.4932375e-38
-0.073508501 0.1624025 0.97500002 1.428846e-38
-0.070089497 0.1624025 0.97500002 1.502601e-38
-0.066636749 0.16231965 0.97450006 1.521112e-38
-0.06340608 0.16235369 0.97299999 1.6315656e-38
-0.02814889 0.16292235 0.97299999 0
-0.02478775 0.16154775 0.97500002 8.2651947e-40
-0.02307825 0.16154775 0.97500002 7.3468397e-40
-0.069804579 0.16553658 0.97500008 1.4656537e-38
-0.0666705 0.16582149 0.97500002 1.3644915e-38
-0.063121751 0.16548136 0.97299999 1.4562882e-38
-0.064676091 0.16895559 0.97500008 1.2165459e-38
-0.061637558 0.1702278 0.9738 1.0873644e-38
-0.058288105 0.17088366 0.97299999 1.0137877e-38
-0.061541997 0.17351425 0.97500002 2.7550649e-40
-0.05809363 0.17428002 0.97449994 1.1048958e-39
-0.054914109 0.17441545 0.97366667 1.4736727e-39
-0.052994501 0.17693326 0.97500002 5.5102419e-40
-0.0495755 0.17864275 0.97500002 1.8367099e-40
0.042011619 -0.0042868997 0.97800004 2.3509862e-38
0.046298519 -0.0042868997 0.97799999 2.3509845e-38
0.050013833 -0.0048584864 0.97800004 2.3509774e-38
0.052300178 -0.0051442795 0.97799999 2.3509785e-38
0.030865679 -0.00085737993 0.97799999 2.3509867e-38
0.033437818 -0.00171476 0.97799999 2.3509856e-38
0.038582098 -0.00257214 0.97799999 2.3509849e-38
0.054872319 -0.00257214 0.97799999 2.3509745e-38
0.058301836 -0.00257214 0.97799999 2.3509748e-38
0.061731353 -0.00171476 0.97799999 2.3509726e-38
0.066018254 -0.0017147602 0.97800004 2.3509726e-38
0.069447778 -0.00085737993 0.97799999 2.3509713e-38
0.0060016601 0.0025721402 0.97800004 2.3509865e-38
0.010288559 0.00257214 0.97799999 2.3509874e-38
0.0128607 0.00257214 0.97799999 2.3509873e-38
0.023149259 0.00085737993 0.97799999 2.3509877e-38
0.025721397 0.00085737993 0.97799999 2.3509886e-38
0.028293537 0.00085737993 0.97799999 2.3509886e-38
0.066446945 0.0012860699 0.97799999 2.3509706e-38
0.070019364 0.0020005533 0.97800004 2.3509723e-38
-0.0128607 0.0077164196 0.97799999 2.3509872e-38
-0.010288559 0.0077164196 0.97799999 2.350987e-38
-0.0063446122 0.0070305164 0.97799999 2.350987e-38
-0.0014289666 0.007144833 0.97800004 2.3509874e-38
0.0014289666 0.0048584864 0.97800004 2.3509872e-38
0.0042868997 0.0042868997 0.97799999 2.3509876e-38
0.06773302 0.0042868997 0.97799999 2.3509699e-38
0.070305154 0.0042868997 0.97799999 2.3509688e-38
0.073734671 0.0042868997 0.97799999 2.3509726e-38
0.078235932 0.0057873153 0.97800004 2.3509722e-38
0.081451096 0.0077164196 0.97799999 2.3509736e-38
-0.0128607 0.0094311787 0.97799999 2.3509886e-38
-0.0042868997 0.0094311787 0.97799999 2.3509886e-38
0.079164751 0.010002766 0.97800004 2.3508993e-38
0.082308471 0.010288559 0.97799999 2.3509374e-38
-0.016290218 0.014575459 0.97799999 2.3509886e-38
0.082308471 0.01371808 0.97799999 2.3508645e-38
0.078878962 0.01800498 0.97800004 2.2676002e-38
0.082308471 0.01800498 0.97800004 2.2399797e-38
0.079164758 0.022006087 0.97800004 2.1938108e-38
0.082022682 0.022006087 0.97800004 2.1754077e-38
0.079736337 0.025721397 0.97799999 2.0925406e-38
0.081451096 0.025721397 0.97799999 2.0556983e-38
0.079307646 0.030436989 0.97799999 1.9910188e-38
0.081451096 0.029150918 0.97799999 2.0186776e-38
0.078364529 0.034123726 0.97799999 1.8713794e-38
0.078021578 0.037724718 0.97799999 1.8897478e-38
0.06773302 0.043726377 0.97799999 1.7515279e-38
0.070590951 0.043154791 0.97800004 1.6408202e-38
0.073563196 0.041668665 0.97799999 1.7974394e-38
0.07630682 0.040296856 0.97799999 1.8989641e-38
0.067161433 0.046584316 0.97800004 1.7883703e-38
0.062588736 0.050585419 0.97799999 1.7882595e-38
0.066018254 0.049728036 0.97799999 1.8066282e-38
0.061731353 0.054014936 0.97799999 1.6960657e-38
0.064303495 0.053157557 0.97799999 1.649932e-38
0.058301836 0.058301836 0.97799999 1.4932342e-38
0.060873974 0.057444457 0.97799999 1.6500399e-38
0.054872319 0.061731353 0.97799999 1.2534888e-38
0.047155898 0.06773302 0.97799999 1.5120379e-38
0.049728036 0.066018254 0.97799999 1.2537785e-38
0.054014936 0.064303495 0.97799999 1.1706579e-38
0.043726377 0.071162537 0.97799999 1.8621973e-38
0.045441139 0.070305154 0.97799999 1.7148645e-38
0.042583209 0.073448882 0.97800004 1.8345736e-38
0.041325714 0.078364529 0.97799999 1.8990038e-38
0.040868446 0.082022682 0.97800004 1.9542486e-38
0.040296856 0.085737996 0.97799999 2.0097448e-38
0.03815341 0.09045358 0.97799999 2.0372244e-38
0.040296856 0.088310137 0.97799999 2.0833945e-38
0.030008299 0.094311796 0.97800004 1.7699982e-38
0.034295198 0.094311789 0.97799999 1.9635031e-38
0.036867339 0.094311789 0.97799999 2.0187839e-38
0.030008299 0.097741321 0.97800004 1.7607066e-38
0.034295198 0.097741313 0.97799999 1.9726867e-38
0.025721397 0.1028856 0.97799999 1.7513759e-38
0.030008296 0.10202821 0.97799999 1.8989281e-38
0.033437818 0.10031345 0.97799999 1.9357725e-38
0.025721397 0.10631511 0.97799999 2.0832825e-38
0.029150918 0.10631511 0.97799999 2.1293457e-38
0.025721397 0.10974464 0.97799999 2.120128e-38
0.028865125 0.10945885 0.97800004 2.1109072e-38
0.0066875638 0.11334564 0.97799999 1.7329763e-38
0.0098598693 0.11446022 0.97799999 1.7607069e-38
0.01371808 0.1157463 0.97799999 1.8621213e-38
0.016861806 0.11517471 0.97800004 1.8344624e-38
0.023149259 0.11488892 0.97799999 2.0738798e-38
0.025549922 0.1143745 0.97799999 2.1016872e-38
0.028293537 0.11488892 0.97799999 2.1108343e-38
0.01371808 0.11831843 0.97799999 1.8621572e-38
0.01800498 0.11831843 0.97800004 1.9173647e-38
0.02229188 0.11831843 0.97799999 1.8990704e-38
0.025721397 0.11831843 0.97799999 1.9082189e-38
0.018862359 0.12089057 0.97799999 1.972756e-38
0.02229188 0.12089057 0.97799999 2.0554093e-38
-0.073448882 0.13060755 0.97800004 9.8590553e-39
-0.070305154 0.13117914 0.97799999 1.0504416e-38
-0.066018254 0.13117914 0.97800004 1.0228941e-38
-0.10545773 0.13375127 0.97799999 1.576252e-38
-0.073734671 0.13375127 0.97799999 1.0047401e-38
-0.070305154 0.13375127 0.97799999 1.0504792e-38
-0.10545773 0.13632341 0.97799999 1.6129839e-38
-0.10202821 0.13803819 0.97800004 1.557739e-38
-0.077164203 0.13803817 0.97800004 1.4935951e-38
-0.073734671 0.13803817 0.97800004 1.4288411e-38
-0.070476636 0.13838112 0.97799999 1.3366788e-38
-0.048870657 0.13975294 0.97799999 1.3918571e-38
-0.046584316 0.13860977 0.97800004 1.2165408e-38
-0.042868998 0.13803817 0.97799999 1.1059786e-38
-0.035152577 0.13975294 0.97799999 8.2978968e-39
-0.10031345 0.14146769 0.97799999 1.4840552e-38
-0.09802711 0.14261088 0.97800004 1.3734556e-38
-0.077164203 0.14232507 0.97799999 1.6685506e-38
-0.073734671 0.14232507 0.97799999 1.6409271e-38
-0.070305154 0.14232507 0.97799999 1.6316349e-38
-0.066018254 0.14232507 0.97800004 1.6130871e-38
-0.061731353 0.14232507 0.97799999 1.5669542e-38
-0.058301836 0.14318246 0.97799999 1.5301121e-38
-0.054014944 0.14318246 0.97800004 1.4471007e-38
-0.049728036 0.14232507 0.97799999 1.4471373e-38
-0.096883938 0.14575458 0.97799999 1.2627525e-38
-0.094597593 0.14604038 0.97800004 1.3365408e-38
-0.077449992 0.1454688 0.97800004 1.686917e-38
