# .PCD v0.7 - Point Cloud Data file format
VERSION 0.7
FIELDS x y z rgb
SIZE 4 4 4 4
TYPE F F F F
COUNT 1 1 1 1
WIDTH 1091
HEIGHT 1
VIEWPOINT 0 0 0 1 0 0 0
POINTS 1091
DATA ascii
-0.10542384 0.037928689 1.0220001 2.350974e-38
-0.10213867 0.037630036 1.022 2.3509771e-38
-0.098554865 0.037630036 1.022 2.350973e-38
-0.094523072 0.037182059 1.022 2.2768562e-38
-0.089595318 0.036734082 1.022 2.0092367e-38
-0.050173379 0.037630036 1.022 2.3509745e-38
-0.046589568 0.037630036 1.022 2.3509752e-38
-0.040317897 0.037630036 1.022 2.3509716e-38
-0.037630036 0.037630036 1.022 2.3509364e-38
0.021502879 0.036734082 1.022 2.3509883e-38
0.025982644 0.036734082 1.0220001 2.3509883e-38
0.029566457 0.036734082 1.022 2.3509886e-38
0.093179137 0.037630036 1.022 2.1017959e-38
-0.10930631 0.042109802 1.022 2.3414323e-38
-0.10661844 0.040317897 1.022 2.3509729e-38
-0.045693617 0.041213848 1.022 2.3509729e-38
-0.041853819 0.042621776 1.022 2.3509743e-38
-0.038078014 0.041661825 1.022 2.3509315e-38
0.095867001 0.043005757 1.022 2.0648099e-38
-0.11020225 0.046589576 1.022 2.249164e-38
-0.041213848 0.045693617 1.022 2.3509748e-38
-0.11020225 0.050173383 1.022 2.1477836e-38
-0.10984387 0.053578001 1.022 2.1477861e-38
-0.10900765 0.057042357 1.0220001 2.1571122e-38
-0.10602114 0.057639658 1.0220001 2.0833223e-38
-0.10572249 0.061820772 1.022 2.1570787e-38
-0.10572249 0.066300541 1.022 2.1383495e-38
-0.10303462 0.066300541 1.022 2.2490588e-38
0.094075091 0.066300541 1.022 1.9081527e-38
-0.10900765 0.070183009 1.0220001 1.6683317e-38
-0.10572249 0.06988436 1.022 1.963285e-38
-0.10213867 0.06988436 1.022 2.1751936e-38
0.094075091 0.06988436 1.022 1.862162e-38
-0.10900765 0.073169515 1.0220001 1.6407127e-38
-0.10572249 0.073468164 1.022 1.7974094e-38
-0.10213867 0.073468171 1.022 1.8528354e-38
0.090491273 0.074364118 1.022 1.7237985e-38
0.094075091 0.072572216 1.022 1.6868814e-38
-0.10572249 0.077051975 1.022 1.4105151e-38
-0.10213867 0.07794793 1.022 1.6867721e-38
-0.099002831 0.078395911 1.022 1.6410044e-38
-0.046589568 0.079739839 1.022 1.4563944e-38
0.086907469 0.079739839 1.022 1.6778781e-38
0.088699371 0.077947937 1.0220001 1.6317085e-38
-0.10124271 0.081531748 1.022 1.6405628e-38
-0.098554865 0.082427703 1.022 1.3916815e-38
-0.06002887 0.083323658 1.022 1.8805665e-38
-0.057341006 0.082427703 1.022 1.8162084e-38
-0.054055847 0.082129054 1.0220001 1.7240846e-38
-0.04987473 0.082129054 1.0220001 1.6409674e-38
-0.046589572 0.082427703 1.022 1.3920757e-38
-0.042468186 0.082606897 1.022 1.1706614e-38
-0.037630036 0.083323658 1.022 1.4747631e-38
-0.097658902 0.085115559 1.022 1.2809042e-38
-0.094433479 0.086190708 1.022 1.1891021e-38
-0.089595318 0.086907469 1.022 1.0692468e-38
-0.081531748 0.086907469 1.022 1.2349093e-38
-0.077499956 0.086459488 1.022 1.4378834e-38
-0.074364118 0.086907469 1.022 1.4567909e-38
-0.061820772 0.086011522 1.022 1.5394067e-38
-0.057341009 0.086011514 1.022 1.6225276e-38
-0.053757194 0.086011514 1.022 1.41066e-38
-0.040317897 0.085115559 1.022 1.0137912e-38
-0.037331387 0.085712865 1.0220001 1.2810083e-38
-0.034046225 0.086011514 1.022 1.4657199e-38
-0.030761061 0.086310171 1.0220001 1.5486259e-38
-0.026878599 0.086907469 1.022 1.5114946e-38
0.083323658 0.086011514 1.022 1.6408587e-38
-0.093179137 0.088699371 1.022 7.6475499e-39
-0.089595318 0.088699371 1.022 9.5854168e-39
-0.086011514 0.088699371 1.022 1.0691015e-38
-0.083323658 0.088699371 1.022 1.1059786e-38
-0.077051982 0.088699371 1.022 1.0875787e-38
-0.073468164 0.089595325 1.022 1.1243855e-38
-0.06988436 0.089595318 1.022 1.097123e-38
-0.066300541 0.090491273 1.022 9.5872315e-39
-0.061820775 0.089595318 1.022 1.0601361e-38
-0.057341009 0.089595318 1.022 9.9570804e-39
-0.054055847 0.089296669 1.0220001 8.5741796e-39
-0.034046225 0.088699371 1.022 1.115128e-38
-0.029566457 0.088699371 1.022 1.1705509e-38
-0.025982644 0.089595318 1.022 1.2075027e-38
0.081531748 0.089595318 1.022 1.6038712e-38
-0.068988405 0.092283189 1.022 6.6380433e-39
-0.066300541 0.092283189 1.022 3.0439173e-39
-0.061462391 0.09299995 1.022 1.3839994e-39
-0.057341009 0.092283189 1.022 1.8618212e-40
-0.054653149 0.092283189 1.022 0
-0.024190737 0.093179137 1.022 1.2536008e-38
-0.021502879 0.093179137 1.022 1.2903701e-38
-0.017023113 0.095867001 1.022 1.4011125e-38
0.078843884 0.094075091 1.022 1.7702563e-38
-0.014036601 0.098256215 1.0220001 1.4932742e-38
0.079142541 0.098256215 1.0220001 1.8995469e-38
0.081531748 0.098554857 1.022 1.3465897e-38
-0.0089595327 0.10303462 1.022 1.5299356e-38
0.083323658 0.10124271 1.022 1.1348675e-38
-0.0062716729 0.10661844 1.022 7.4577272e-39
-0.0044797664 0.10841034 1.022 9.2051324e-39
-0.0017919065 0.10841034 1.022 1.1425711e-38
0.005674371 0.11079955 1.0220001 1.0136093e-38
0.00940751 0.11154617 1.022 1.1981023e-38
0.013439299 0.11468202 1.022 8.9320908e-39
0.015231205 0.11736987 1.022 0
0.017919065 0.11826582 1.022 0
0.020606924 0.11916178 1.022 0
0.025982644 0.11916178 1.022 0
0.034942176 0.11916178 1.022 0
0.037928689 0.11856448 1.0220001 4.6133408e-40
0.042109802 0.11916178 1.0220001 0
0.018815018 0.12095369 1.022 0
0.021502879 0.12095369 1.022 0
0.02508669 0.12095369 1.022 0
0.034942176 0.12095369 1.022 0
0.037630036 0.12095369 1.022 0
0.041751422 0.12167045 1.022 0
0.046589568 0.1227456 1.022 0
0.049277429 0.12095369 1.022 0
0.070780307 0.13528894 1.022 0
-0.073899493 -0.018925479 1.028 2.3509886e-38
-0.07019338 -0.017997967 1.0265 2.3509881e-38
-0.066794693 -0.01767214 1.025 2.3509886e-38
-0.069789968 -0.014676861 1.025 2.3509866e-38
-0.066495165 -0.014377332 1.025 2.3509877e-38
-0.062031619 -0.014383908 1.0255001 2.3509876e-38
-0.058578864 -0.014419412 1.028 1.0052165e-38
-0.094351247 -0.0080872495 1.025 2.3509818e-38
-0.066495165 -0.011681583 1.025 2.3509834e-38
-0.061539117 -0.010150171 1.0258572 2.3509867e-38
-0.057677649 -0.0099133467 1.028 2.102349e-38
-0.054974012 -0.00811092 1.028 1.3738574e-38
-0.060205076 -0.0053915 1.025 2.3509852e-38
-0.057592176 -0.0053993901 1.0265 2.3509872e-38
-0.054974012 -0.0063084932 1.028 1.8716063e-38
-0.060205076 -0.0017971665 1.025 2.3509848e-38
-0.057634912 -0.0018017691 1.0272499 2.3509856e-38
-0.054974012 -0.00090121327 1.028 2.3509858e-38
-0.057509329 0.0017971665 1.025 2.3509852e-38
-0.054373205 0.0021028311 1.0280001 2.3509851e-38
-0.056610744 0.0044929166 1.025 2.3509849e-38
-0.053914994 0.0053915 1.025 2.3509855e-38
-0.051369157 0.0063084932 1.028 2.3509858e-38
-0.021629117 0.0063084932 1.028 2.3509809e-38
-0.056610744 0.010783 1.025 2.3509785e-38
-0.053992581 0.0098988814 1.0265 2.3509816e-38
-0.051369157 0.0099133467 1.0280001 2.3509831e-38
-0.025891472 0.010130102 1.0272499 2.3509797e-38
-0.021566 0.0098844161 1.0250001 2.3509811e-38
-0.018324671 0.011114965 1.0280001 2.3509806e-38
-0.015320626 0.011715773 1.028 2.3509807e-38
0.067590997 0.011715773 1.028 2.3509886e-38
0.070294634 0.01081456 1.028 2.3509886e-38
0.073599085 0.011114965 1.0280001 2.3509886e-38
0.077504337 0.011715773 1.028 2.3509886e-38
0.082010411 0.011715773 1.0280001 2.3509886e-38
0.085615262 0.011715773 1.028 2.3509886e-38
-0.056610744 0.013478749 1.025 2.3509782e-38
-0.054974012 0.013518199 1.028 2.350979e-38
-0.033344891 0.015320626 1.028 2.3509709e-38
-0.030596543 0.014397057 1.0265 2.3509685e-38
-0.026508207 0.013928041 1.025 2.3509691e-38
-0.021566 0.013478749 1.025 2.3509792e-38
-0.017997965 0.014397057 1.0265 2.3509778e-38
-0.014419412 0.014419412 1.028 2.3509816e-38
-0.0099133467 0.014419413 1.028 2.3509853e-38
-0.0054072798 0.015320626 1.028 2.3509873e-38
-0.0018024265 0.015320626 1.028 2.3509886e-38
0.063986145 0.015320626 1.028 2.3509886e-38
0.066990189 0.014719817 1.0280001 2.3509886e-38
0.070242696 0.014408235 1.0272499 2.3509886e-38
0.07379166 0.014397057 1.0265 2.3509884e-38
0.077817313 0.014557049 1.025 2.3509886e-38
0.082370892 0.01423917 1.028 2.3509886e-38
0.085615262 0.014419412 1.028 2.3509886e-38
-0.034221776 0.018010458 1.0272499 2.3509723e-38
-0.030551832 0.017971667 1.025 2.3509696e-38
-0.027856082 0.017971667 1.025 2.3509691e-38
-0.017971667 0.017971667 1.025 2.3509715e-38
-0.014377332 0.017971667 1.025 2.3509744e-38
-0.0098931827 0.017988322 1.026 2.3509799e-38
-0.0054072798 0.018024266 1.028 2.3509845e-38
-0.0018024266 0.018024266 1.028 2.3509863e-38
0.0018024266 0.018024266 1.028 2.3509886e-38
0.050467946 0.018925479 1.028 2.3509881e-38
0.054072797 0.018925479 1.028 2.3509886e-38
0.057677649 0.018024266 1.028 2.3509886e-38
0.062183719 0.018024266 1.028 2.3509886e-38
0.06659247 0.01799665 1.0265 2.3509886e-38
0.070140123 0.017984159 1.02575 2.3509873e-38
0.073683828 0.017971667 1.025 2.3509876e-38
0.078176752 0.017971668 1.0250001 2.3509877e-38
0.082730807 0.017984159 1.0257499 2.3509884e-38
0.086454019 0.018010458 1.0272501 2.3509884e-38
0.090121329 0.018925479 1.028 2.3509867e-38
0.093726188 0.018925479 1.028 2.3509832e-38
-0.053016413 0.021566 1.025 2.3509755e-38
-0.051219247 0.021566 1.025 2.3509755e-38
-0.037514612 0.021907605 1.027 2.3509855e-38
-0.035044748 0.020667415 1.025 2.3509767e-38
-0.017971667 0.021566 1.025 2.3509647e-38
-0.015275915 0.021566 1.025 2.3509681e-38
-0.0089858323 0.021565998 1.025 2.350972e-38
-0.0053915 0.021565998 1.025 2.3509752e-38
-0.0017984814 0.021597559 1.0265 2.350979e-38
0.0018024266 0.021629117 1.028 2.3509862e-38
0.0054072798 0.022530332 1.028 2.3509863e-38
0.047163498 0.021929523 1.0280001 2.3509886e-38
0.050467946 0.021629117 1.028 2.3509886e-38
0.054032691 0.02161268 1.0272499 2.3509886e-38
0.057509329 0.021566 1.025 2.3509886e-38
0.062002249 0.021566 1.0250001 2.3509886e-38
0.066495165 0.020667415 1.025 2.3509886e-38
0.070089497 0.020667415 1.025 2.3509879e-38
0.073683828 0.020667415 1.025 2.3509869e-38
0.082969189 0.021266472 1.025 2.3509865e-38
0.086263999 0.021566 1.025 2.3509863e-38
0.089989826 0.021596244 1.0265 2.3509849e-38
0.093658455 0.02161268 1.0272499 2.3509821e-38
-0.10634317 0.027937612 1.028 2.3509783e-38
-0.10183711 0.026435591 1.028 2.3508666e-38
-0.09733104 0.025233973 1.028 2.2676016e-38
-0.050467946 0.027937612 1.028 2.3509734e-38
-0.045961879 0.027937612 1.0280001 2.3509298e-38
-0.041251902 0.026479363 1.0274 2.3509695e-38
-0.038714476 0.02610801 1.027 2.3509803e-38
-0.018870249 0.024261748 1.025 2.3509673e-38
-0.0080872495 0.026058916 1.025 2.3509692e-38
-0.0053915 0.026058912 1.0250001 2.3509685e-38
-0.0017976047 0.026070749 1.0255001 2.3509733e-38
0.0018002349 0.026095299 1.0265 2.3509789e-38
0.0054020202 0.026108012 1.027 2.3509816e-38
0.0095528606 0.027216643 1.028 2.3509867e-38
0.038151365 0.027336804 1.0280001 2.3509886e-38
0.041455813 0.027036399 1.028 2.3509886e-38
0.046152994 0.02634011 1.0272499 2.3509886e-38
0.050320663 0.025160331 1.025 2.3509886e-38
0.053914994 0.025160331 1.025 2.3509886e-38
0.056610744 0.024261748 1.025 2.3509886e-38
0.062900834 0.024261748 1.025 2.3509886e-38
0.083568245 0.024261748 1.025 2.350986e-38
0.086263999 0.024261748 1.025 2.3509869e-38
0.089858323 0.026058916 1.0250001 2.3509823e-38
0.093590736 0.026097052 1.0265 2.3509434e-38
0.096429825 0.027036399 1.028 2.2955526e-38
-0.11265166 0.031542465 1.028 2.3509776e-38
-0.10986847 0.030618239 1.0272501 2.350981e-38
-0.10603283 0.030551832 1.025 2.3509776e-38
-0.10243849 0.030551834 1.025 2.3509745e-38
-0.050394304 0.030595228 1.0265 2.3509731e-38
-0.045873336 0.030580765 1.026 2.3509356e-38
-0.04133483 0.030551832 1.025 2.3509269e-38
0.0020966944 0.030252306 1.025 2.3509736e-38
0.0053915 0.029653249 1.025 2.3509745e-38
0.0098901149 0.030566301 1.0255001 2.3509852e-38
0.01440955 0.030618239 1.0272501 2.3509867e-38
0.017723862 0.030941656 1.0280001 2.3509886e-38
0.021629117 0.031542465 1.028 2.3509886e-38
0.026495671 0.030821493 1.028 2.3509886e-38
0.030596543 0.030595228 1.0265 2.3509886e-38
0.034196131 0.030595228 1.0265 2.3509886e-38
0.037476912 0.030281236 1.026 2.3509886e-38
0.041675564 0.030281236 1.026 2.3509886e-38
0.04584923 0.030566297 1.0255001 2.3509886e-38
0.094351247 0.030551832 1.025 2.2676035e-38
0.097260684 0.030618239 1.0272499 2.1939187e-38
0.10003468 0.031542465 1.028 2.276824e-38
-0.11265166 0.034246102 1.028 2.3509759e-38
-0.10970803 0.034170493 1.02575 2.3509767e-38
-0.10633235 0.033846639 1.025 2.3509754e-38
-0.10243849 0.033247583 1.025 2.3509771e-38
-0.050320663 0.033247583 1.025 2.3509727e-38
-0.045378454 0.033696875 1.025 2.3509769e-38
-0.041634362 0.033846639 1.025 2.3509694e-38
0.014377332 0.033247583 1.025 2.3509851e-38
0.017971667 0.033247583 1.025 2.3509883e-38
0.021566 0.034146167 1.025 2.3509886e-38
0.026058916 0.034146167 1.0250001 2.3509884e-38
0.030551832 0.033247583 1.025 2.3509886e-38
0.094351247 0.033247583 1.025 2.2766785e-38
0.097118661 0.034170493 1.02575 2.2399096e-38
0.10003468 0.034246102 1.028 2.3229584e-38
-0.11325248 0.038151365 1.0280001 2.350795e-38
-0.10962716 0.037740499 1.025 2.3509399e-38
-0.10693141 0.036841914 1.025 2.3509747e-38
-0.044030581 0.037740499 1.025 2.350974e-38
-0.042233415 0.037740499 1.025 2.350972e-38
0.097118661 0.03776877 1.02575 2.2123968e-38
0.1013865 0.038301565 1.028 2.3322504e-38
-0.1132215 0.04133483 1.025 2.3508312e-38
-0.044030581 0.040436249 1.025 2.3509727e-38
-0.042233415 0.040436249 1.025 2.3509727e-38
0.097346529 0.041035306 1.025 2.1294185e-38
0.10147661 0.041275568 1.028 2.2491648e-38
-0.11745813 0.045961879 1.0280001 2.3414297e-38
-0.1144196 0.045827746 1.0250001 2.3045162e-38
0.097284041 0.046215057 1.0256001 2.0372212e-38
0.10063549 0.044760264 1.0280001 2.111014e-38
-0.11715773 0.050467942 1.028 2.3229557e-38
-0.11412008 0.050320663 1.025 2.2213951e-38
0.097190335 0.050394304 1.0265 2.064842e-38
-0.11865976 0.054373205 1.0280001 2.3507585e-38
-0.11447952 0.054094713 1.025 2.3136644e-38
0.096936837 0.053720675 1.027 2.1109418e-38
-0.11896016 0.057677649 1.028 2.3414694e-38
-0.11412009 0.057509329 1.0250001 2.240089e-38
-0.11052574 0.058407914 1.025 2.2678561e-38
0.096429825 0.056776438 1.028 2.0647015e-38
-0.11783364 0.06195841 1.028 2.2213997e-38
-0.1134433 0.062123224 1.027 2.1846305e-38
-0.10962716 0.062002249 1.0250001 2.2123944e-38
0.096429825 0.062183719 1.0280001 2.0741733e-38
-0.11896016 0.066689782 1.028 1.6497918e-38
-0.11412008 0.066495165 1.0250001 1.8895343e-38
-0.10962716 0.066495165 1.025 1.8896752e-38
0.096429825 0.066689782 1.028 1.8620548e-38
-0.11865976 0.069994234 1.0280001 1.4469218e-38
-0.11412008 0.070089504 1.0250001 1.6036186e-38
-0.11052574 0.069190912 1.025 1.7971174e-38
-0.11685732 0.073599085 1.0280001 1.3823783e-38
-0.1132215 0.073683828 1.025 1.5115687e-38
-0.11052574 0.074582413 1.025 1.6221682e-38
0.092554078 0.074582413 1.025 1.6592615e-38
-0.11625651 0.07660313 1.028 1.3084434e-38
-0.11338718 0.077392563 1.0265 1.3822374e-38
-0.10944744 0.077817313 1.025 1.4377419e-38
-0.10603283 0.079973914 1.025 1.2719327e-38
0.090756916 0.078176752 1.025 1.6040135e-38
0.092824973 0.077504337 1.028 1.6408921e-38
-0.11355288 0.080207981 1.028 1.0777408e-38
-0.11024843 0.081409603 1.0280001 1.041263e-38
-0.10611107 0.082730807 1.02575 1.1704072e-38
-0.10273802 0.082969189 1.025 1.3547967e-38
-0.053016413 0.083568245 1.025 1.6872093e-38
-0.051219247 0.083568245 1.025 1.7056484e-38
0.087290138 0.082791954 1.0265 1.6501496e-38
0.089734137 0.082531445 1.027 1.6685526e-38
-0.10634317 0.085615262 1.028 5.1517757e-39
-0.1025884 0.086391553 1.0265 8.8413581e-39
-0.099143684 0.086563528 1.025 1.1058764e-38
-0.050320663 0.086263999 1.025 1.1342188e-38
-0.045894813 0.086391553 1.0265001 4.7984733e-39
-0.041675564 0.086648569 1.026 5.3469346e-39
-0.038639084 0.087162577 1.025 1.0966143e-38
0.086391553 0.086390235 1.0265 1.5579203e-38
0.089220122 0.086516477 1.028 1.5026409e-38
-0.10093589 0.089220122 1.028 2.7550649e-40
-0.097118661 0.089924738 1.02575 3.2200115e-39
-0.093452662 0.090756908 1.025 5.6130888e-39
-0.089858323 0.090756908 1.025 8.9371649e-39
-0.086263999 0.090756908 1.025 9.495026e-39
-0.08237014 0.090157852 1.025 1.0047835e-38
-0.078626037 0.090307608 1.025 9.8627282e-39
-0.053016413 0.090756908 1.025 5.2612718e-39
-0.050356824 0.089924738 1.0257499 2.8634665e-39
-0.044760264 0.089820936 1.0280001 0
-0.041396637 0.089989826 1.0265 2.5807518e-39
-0.037740499 0.089858323 1.025 1.0781369e-38
-0.034146167 0.090756908 1.025 1.1242042e-38
-0.03085136 0.090157852 1.025 1.1152001e-38
-0.027856082 0.090756908 1.025 1.1891363e-38
0.083690539 0.089991145 1.0265 1.5762153e-38
0.085615262 0.089220122 1.028 1.4933111e-38
-0.096429825 0.093726188 1.028 0
-0.093589425 0.093590736 1.0265 0
-0.090121329 0.093726188 1.028 2.7550649e-40
-0.086263999 0.093452662 1.025 1.8420937e-39
-0.08266966 0.093452662 1.025 3.3175615e-39
-0.078176744 0.093452662 1.0250001 4.1448012e-39
-0.073683836 0.093452662 1.025 5.5284588e-39
-0.070389025 0.09375219 1.025 5.0700142e-39
-0.066495165 0.094351247 1.025 4.6420534e-40
-0.063799419 0.094351247 1.025 2.155197e-42
-0.057509329 0.094351247 1.025 0
-0.053615466 0.09375219 1.025 0
-0.051369157 0.093726188 1.028 0
-0.041455813 0.092824973 1.028 0
-0.037478667 0.093243442 1.026 3.4043832e-39
-0.034146167 0.093452662 1.025 8.4772335e-39
-0.030551832 0.093452662 1.025 1.2073606e-38
-0.026957497 0.093452662 1.025 1.2351622e-38
0.082791954 0.093589425 1.0265 1.281549e-38
-0.089220122 0.096429825 1.028 0
-0.086391553 0.096289113 1.0265 0
-0.08266966 0.097046994 1.025 0
-0.078252137 0.097142547 1.026 0
-0.073844917 0.097260684 1.0272499 0
-0.070294634 0.09733104 1.028 0
-0.06659247 0.097190328 1.0265 0
-0.062498219 0.096669376 1.0257499 0
-0.033344891 0.096429825 1.028 0
-0.030641252 0.096429825 1.028 6.2620567e-39
-0.025666827 0.096810073 1.0272499 1.1519678e-38
-0.021597559 0.097190335 1.0265 1.5300803e-38
-0.018289603 0.097442083 1.026 1.4563974e-38
-0.015275915 0.09974274 1.025 1.5853956e-38
0.079973914 0.096148409 1.025 1.8257532e-38
0.083132252 0.096936837 1.027 1.0513472e-38
0.085615262 0.098232254 1.028 0
-0.021629117 0.10003468 1.028 1.1700458e-38
-0.018024266 0.10003468 1.028 1.511528e-38
-0.01440955 0.10266402 1.0272499 1.2068959e-38
-0.011681583 0.10243849 1.025 1.446998e-38
0.083812833 0.10003468 1.028 9.5962586e-39
0.086516477 0.10093589 1.028 5.5208917e-40
-0.0094568226 0.10581563 1.0272499 9.7629683e-39
-0.0053915 0.10962716 1.025 1.8367099e-39
-0.0017971665 0.11052574 1.025 1.3818526e-39
0.0017971665 0.11052574 1.025 9.8598149e-39
-0.0044929166 0.11232291 1.025 0
-0.0017984814 0.11248729 1.0265 0
0.0017997966 0.11338851 1.0265 3.1270844e-39
0.0053915 0.11412008 1.025 2.2116091e-39
0.0098844161 0.11501866 1.0250001 3.0384747e-39
0.0027036399 0.11625651 1.028 0
0.0054072798 0.11715773 1.028 1.4012985e-45
0.009907648 0.11890273 1.0275 0
0.014090954 0.11902912 1.026 0
0.017073084 0.11951157 1.025 0
0.015320626 0.12166379 1.028 0
0.017707204 0.12274706 1.027 0
0.021596244 0.12328607 1.0265 0
0.026058916 0.12310591 1.025 0
0.03419482 0.12328607 1.0265 0
0.037740499 0.12310591 1.025 0
0.044030581 0.12310591 1.025 0
0.050320663 0.12310591 1.025 0
0.041455813 0.12526865 1.028 2.3959737e-39
0.044159453 0.12526865 1.028 2.395622e-39
0.067590997 0.13067593 1.028 3.6734198e-40
0.10003468 0.12977472 1.028 6.4536703e-39
0.067590997 0.13247836 1.028 7.3576017e-40
0.097945578 0.1338889 1.025 6.5476918e-39
-0.055134442 -0.0045192167 1.031 2.3509886e-38
-0.053929321 -0.0021089679 1.031 2.3509858e-38
-0.021692239 0.0027115298 1.031 2.3509865e-38
-0.025006332 0.0057243407 1.031 2.3509849e-38
-0.021692239 0.0045192167 1.031 2.3509839e-38
-0.014461493 0.0063269031 1.031 2.3509831e-38
-0.011749962 0.0063269031 1.031 2.3509844e-38
0.070499778 0.0054230597 1.031 2.3509886e-38
0.07411515 0.0063269031 1.031 2.3509886e-38
0.077730522 0.0063269031 1.031 2.3509886e-38
0.081345901 0.0054230597 1.031 2.3509883e-38
-0.049711388 0.0099422764 1.031 2.3509788e-38
-0.029826827 0.011749962 1.031 2.3509708e-38
-0.017775586 0.0087371524 1.031 2.3509811e-38
-0.014280724 0.0095807388 1.031 2.3509838e-38
-0.0099422755 0.0099422764 1.031 2.3509859e-38
-0.0054230597 0.010846119 1.031 2.3509876e-38
-0.0021089679 0.0111474 1.031 2.3509883e-38
0.061461344 0.011749962 1.031 2.3509886e-38
0.06670364 0.0095807388 1.031 2.3509886e-38
0.070499778 0.0081345895 1.031 2.3509886e-38
0.074416429 0.0087371524 1.031 2.3509886e-38
0.077730522 0.0090384334 1.031 2.3509886e-38
0.081345901 0.0090384325 1.031 2.3509886e-38
0.085865125 0.0096409954 1.0310001 2.3509886e-38
0.089480489 0.011749962 1.031 2.3509886e-38
-0.056942131 0.015365336 1.031 2.3509772e-38
-0.054230601 0.014461493 1.031 2.3509809e-38
-0.05151907 0.013557649 1.031 2.3509832e-38
-0.033442203 0.013557649 1.031 2.3509713e-38
-0.0054230597 0.013557649 1.031 2.3509879e-38
-0.0018076866 0.013557649 1.031 2.3509886e-38
0.0015064056 0.014762774 1.031 2.3509886e-38
0.0045192167 0.015365336 1.031 2.3509886e-38
0.047903694 0.015365336 1.031 2.3509855e-38
0.050615229 0.015365336 1.031 2.3509867e-38
0.055134442 0.015365336 1.031 2.3509886e-38
0.057845972 0.015365336 1.031 2.3509886e-38
0.061461344 0.014461493 1.031 2.3509886e-38
0.065076724 0.013557649 1.031 2.3509886e-38
0.0876728 0.014461493 1.031 2.3509886e-38
0.090083055 0.014762774 1.031 2.3509881e-38
-0.037057575 0.01898071 1.031 2.3509848e-38
0.0051217787 0.01837815 1.031 2.3509886e-38
0.046457548 0.018257637 1.031 2.3509859e-38
0.050615229 0.017173024 1.031 2.3509876e-38
0.054230601 0.017173024 1.031 2.3509886e-38
0.090384334 0.017173024 1.031 2.3509874e-38
0.093999706 0.017173024 1.031 2.3509842e-38
0.096711233 0.01898071 1.031 2.3046307e-38
-0.041275512 0.021993522 1.031 2.3509813e-38
-0.038865261 0.020788398 1.031 2.3509853e-38
0.0054230597 0.020788398 1.031 2.3509872e-38
0.0081345895 0.022596082 1.031 2.3509886e-38
0.038865261 0.022596082 1.031 2.3509886e-38
0.041576795 0.022596082 1.031 2.3509884e-38
0.044890888 0.02139096 1.031 2.3509873e-38
0.097615078 0.021692241 1.031 2.3138851e-38
-0.11026888 0.026211455 1.031 2.3509792e-38
-0.10665351 0.026211455 1.031 2.350979e-38
-0.050615229 0.026211455 1.031 2.3509734e-38
-0.046096008 0.025307611 1.0310001 2.3509703e-38
-0.042480636 0.02440377 1.031 2.3509722e-38
0.0099422764 0.025006332 1.031 2.3509876e-38
0.013557649 0.026211455 1.031 2.3509874e-38
0.03073067 0.026211455 1.031 2.3509886e-38
0.034346044 0.026211455 1.031 2.3509886e-38
0.037961416 0.025307612 1.031 2.3509886e-38
0.041576795 0.02440377 1.031 2.3509886e-38
0.044288322 0.02440377 1.031 2.3509886e-38
0.097916365 0.025006332 1.031 2.3416514e-38
0.10032661 0.025307612 1.031 2.2033206e-38
-0.11358297 0.029826827 1.031 2.3509775e-38
-0.11026888 0.028019143 1.031 2.3509785e-38
0.014461493 0.028019143 1.031 2.3509877e-38
0.018076867 0.028922986 1.031 2.3509886e-38
0.021692239 0.029826827 1.031 2.3509886e-38
0.025307612 0.028922986 1.031 2.3509886e-38
0.029826827 0.028019143 1.031 2.3509886e-38
0.034346044 0.028019143 1.031 2.3509886e-38
0.098518923 0.028019143 1.031 2.2586332e-38
0.10032661 0.028922986 1.031 2.2770369e-38
-0.11478809 0.034346044 1.031 2.350975e-38
0.10273685 0.034647327 1.031 2.2860789e-38
-0.11659579 0.038865261 1.031 2.3509731e-38
-0.11478809 0.037057575 1.031 2.3508671e-38
0.10303813 0.037057575 1.031 2.3045184e-38
-0.11719835 0.041878074 1.031 2.350902e-38
0.10394198 0.042480636 1.031 2.2122868e-38
-0.12021117 0.046096008 1.031 2.3508659e-38
-0.11840347 0.044288322 1.031 2.350975e-38
0.10213429 0.046547931 1.031 2.1294541e-38
-0.121115 0.050615225 1.031 2.3506852e-38
0.10032661 0.050615229 1.031 2.0556615e-38
-0.12563422 0.055134442 1.031 2.1938122e-38
-0.12201884 0.054230601 1.031 2.2860424e-38
0.098518923 0.055134442 1.031 2.0558785e-38
-0.12563422 0.057845972 1.031 2.1199866e-38
-0.12292269 0.057845972 1.031 2.2122167e-38
0.097615078 0.057845972 1.031 2.0741011e-38
-0.12201884 0.061461344 1.031 2.0738484e-38
0.098518923 0.062365185 1.031 2.0834337e-38
-0.12156692 0.065528646 1.031 1.7235796e-38
0.098518923 0.065076724 1.031 1.9543943e-38
-0.12141629 0.070801064 1.031 1.2442751e-38
0.096711233 0.070499778 1.031 1.6962099e-38
-0.121115 0.073211305 1.031 1.0509165e-38
-0.11840347 0.075018995 1.031 1.1795122e-38
0.094903551 0.075018995 1.031 1.6960673e-38
0.096711233 0.073211305 1.031 1.6868814e-38
-0.11780091 0.078031808 1.031 9.2129671e-39
0.094903551 0.077730522 1.031 1.6500411e-38
-0.11659579 0.080442056 1.031 6.6340594e-39
-0.11388426 0.082249738 1.031 4.2305439e-39
0.093698427 0.081044614 1.031 1.760676e-38
-0.11388426 0.084057428 1.031 0
-0.11026888 0.084057428 1.031 6.8145032e-39
-0.10574967 0.0876728 1.031 1.1967383e-39
0.091288179 0.08586511 1.031 1.4565399e-38
0.093095861 0.08586511 1.031 1.0508791e-38
-0.10213429 0.090384334 1.031 0
-0.047301136 0.090685621 1.031 0
0.087070242 0.090685621 1.031 1.3366521e-38
0.090384334 0.089480489 1.031 1.1339629e-38
-0.10032661 0.093095861 1.031 0
-0.098518923 0.093999706 1.031 0
-0.049711384 0.093095861 1.031 0
-0.044288322 0.093095861 1.031 0
0.086768955 0.093999706 1.031 4.3306681e-39
-0.093095861 0.096711233 1.031 0
-0.091288179 0.096711233 1.031 0
-0.026211455 0.098518923 1.031 9.4910477e-39
0.087070242 0.097313806 1.031 0
-0.02440377 0.10032661 1.031 4.6911437e-39
-0.017173024 0.10213429 1.031 1.3544791e-38
-0.013557649 0.10574967 1.031 6.4385292e-39
-0.0099422764 0.10755736 1.031 1.1938615e-39
-0.0081345895 0.10936504 1.031 0
-0.0063269031 0.11117273 1.031 0
-0.0018076866 0.11478809 1.031 0
0.0015064056 0.11780091 1.031 9.1841101e-41
0.0045192167 0.11840347 1.031 1.4012985e-45
0.0063269031 0.12021116 1.031 0
0.026211455 0.12563422 1.031 2.7647549e-39
0.028019143 0.12563422 1.031 2.7647549e-39
0.034346044 0.12563422 1.031 2.7647549e-39
0.037961416 0.12563422 1.031 2.4878176e-39
0.046999849 0.12563422 1.031 2.210872e-39
-0.053481925 -0.0045323665 1.034 2.3326091e-38
-0.024474779 -0.00090647332 1.034 2.3509881e-38
-0.02175536 -0.00090647332 1.034 2.3509881e-38
-0.0135971 -0.00090647332 1.034 2.3509876e-38
-0.01087768 -0.00090647332 1.034 2.3509869e-38
-0.051668979 0.00271942 1.034 2.3509824e-38
-0.025079094 0.0021151046 1.0340002 2.3509869e-38
-0.02175536 0.00090647332 1.034 2.3509873e-38
-0.017222993 0.00271942 1.034 2.3509844e-38
-0.014503574 0.0018129466 1.034 2.350986e-38
-0.009971207 0.0018129467 1.034 2.3509859e-38
-0.00543884 0.0018129466 1.034 2.3509849e-38
0.066172555 0.00271942 1.0340002 2.3509883e-38
0.081582598 0.00271942 1.034 2.3509886e-38
0.08520849 0.00271942 1.034 2.350988e-38
-0.051668979 0.0045323665 1.034 2.3509837e-38
-0.029551033 0.0056201345 1.034 2.3509872e-38
-0.026287727 0.0045323665 1.034 2.3509872e-38
-0.018129466 0.00543884 1.034 2.350982e-38
-0.014503574 0.0045323665 1.034 2.3509844e-38
-0.009608618 0.005257545 1.034 2.3509856e-38
-0.00543884 0.00543884 1.034 2.3509865e-38
0.061640181 0.00543884 1.034 2.3509859e-38
0.066172555 0.00543884 1.034 2.3509879e-38
0.074330814 0.0045323665 1.034 2.3509886e-38
0.077956706 0.0045323665 1.034 2.3509886e-38
0.086114965 0.00543884 1.034 2.3509884e-38
-0.048043087 0.01087768 1.034 2.3509788e-38
-0.037165407 0.01087768 1.034 2.3509849e-38
-0.034445986 0.009971207 1.034 2.3509816e-38
-0.030517939 0.0093668923 1.034 2.3509759e-38
-0.00543884 0.00815826 1.034 2.3509873e-38
-0.0015107889 0.0087625757 1.0340002 2.3509881e-38
0.0015107889 0.011179837 1.0340002 2.3509886e-38
0.045323662 0.011784153 1.034 2.3509741e-38
0.049856037 0.01087768 1.034 2.3509792e-38
0.054388396 0.011784153 1.034 2.3509865e-38
0.058014292 0.011784153 1.034 2.3509886e-38
0.061640181 0.0090647331 1.034 2.3509877e-38
0.064359605 0.009971207 1.0340002 2.3509881e-38
0.087927915 0.00815826 1.034 2.3509886e-38
0.090828635 0.009608618 1.034 2.3509867e-38
0.094273224 0.011784153 1.034 2.3509834e-38
-0.053481925 0.015410047 1.034 2.3509806e-38
-0.049493443 0.014684868 1.034 2.3509754e-38
-0.046230137 0.014503574 1.034 2.3509765e-38
-0.038071878 0.014503574 1.034 2.3509838e-38
-0.035352457 0.014503574 1.034 2.3509712e-38
0.00271942 0.0135971 1.034 2.3509886e-38
0.00543884 0.014503574 1.034 2.3509886e-38
0.042604249 0.014503574 1.034 2.3509783e-38
0.045323662 0.014503573 1.034 2.3509774e-38
0.049856037 0.0135971 1.0340002 2.3509849e-38
0.054086238 0.014201417 1.0340002 2.3509873e-38
0.058014292 0.0135971 1.034 2.3509886e-38
0.091553807 0.0135971 1.034 2.3509883e-38
0.094273232 0.014503574 1.034 2.3509844e-38
-0.053481925 0.018129466 1.034 2.3509758e-38
-0.049856037 0.018129466 1.034 2.3509341e-38
-0.045625821 0.018431624 1.0340002 2.3509698e-38
-0.041395616 0.018431624 1.0340002 2.3509842e-38
-0.038374037 0.01782731 1.0340002 2.3509849e-38
0.0063453135 0.017222993 1.034 2.3509886e-38
0.009064734 0.019035939 1.034 2.3509886e-38
0.038978353 0.019035939 1.034 2.3509849e-38
0.041697774 0.018129466 1.034 2.3509832e-38
0.044417191 0.017222993 1.034 2.3509846e-38
0.097899117 0.018129466 1.034 2.2954461e-38
-0.11330916 0.022661833 1.034 2.3509802e-38
-0.11058974 0.02175536 1.034 2.3324609e-38
-0.10696385 0.022661833 1.034 2.3509751e-38
-0.10152501 0.02175536 1.034 2.3509411e-38
-0.097899117 0.02175536 1.034 2.2399804e-38
-0.048949562 0.02175536 1.034 2.3509689e-38
-0.045323662 0.02175536 1.034 2.3509694e-38
-0.042604249 0.020848887 1.034 2.3509852e-38
0.010333796 0.021574067 1.034 2.3509886e-38
0.0135971 0.022661833 1.034 2.3509886e-38
0.038071878 0.02175536 1.034 2.350987e-38
0.041697774 0.020848887 1.034 2.3509852e-38
0.10061853 0.022661833 1.034 2.1755908e-38
-0.11391348 0.02568341 1.0340002 2.35098e-38
-0.11058974 0.024474779 1.034 2.3509792e-38
-0.10605738 0.024474781 1.0340002 2.3509771e-38
-0.10243148 0.024474779 1.034 2.3509001e-38
-0.053481925 0.024474779 1.034 2.350973e-38
-0.050762504 0.024474779 1.034 2.3509733e-38
0.011784153 0.024474779 1.034 2.3509879e-38
0.014805732 0.025079094 1.0340002 2.3509884e-38
0.01782731 0.02568341 1.0340002 2.3509886e-38
0.02175536 0.026287727 1.034 2.3509886e-38
0.025381252 0.026287727 1.034 2.3509886e-38
0.028100673 0.026287727 1.034 2.3509886e-38
0.035352457 0.024474779 1.034 2.3509886e-38
0.037165407 0.024474779 1.034 2.3509886e-38
-0.11693506 0.029913619 1.0340002 2.3509416e-38
-0.11512212 0.029007148 1.034 2.3509781e-38
0.019035939 0.028100673 1.034 2.3509886e-38
0.02175536 0.028100673 1.034 2.3509886e-38
0.024474779 0.028100673 1.034 2.3509886e-38
0.10243149 0.029913623 1.0340002 2.231049e-38
0.10424443 0.031726569 1.034 2.2770751e-38
-0.11753938 0.034748144 1.0340002 2.3509376e-38
0.10424443 0.033539515 1.034 2.3229564e-38
-0.12056095 0.038978353 1.034 2.3509736e-38
-0.1181437 0.03776972 1.0340002 2.350973e-38
-0.12418684 0.042604249 1.034 2.35098e-38
-0.12116527 0.041999932 1.0340002 2.3509747e-38
-0.11874801 0.040791299 1.034 2.3509733e-38
0.10605738 0.041697774 1.034 2.203282e-38
-0.12509331 0.045323662 1.034 2.3415402e-38
-0.1223739 0.045323662 1.034 2.3509384e-38
0.10515091 0.045323662 1.034 2.2585289e-38
-0.12548181 0.05011503 1.034 2.3322138e-38
-0.1223739 0.048043087 1.034 2.3508292e-38
-0.12645304 0.053935159 1.034 2.2215059e-38
0.10061853 0.054388396 1.034 2.0834286e-38
-0.12781274 0.058014292 1.034 2.009457e-38
0.098805591 0.058920763 1.034 2.0005275e-38
0.10061853 0.057107821 1.034 2.1202707e-38
-0.12599979 0.061640184 1.034 1.8893896e-38
0.098805591 0.060733709 1.034 2.037369e-38
0.10061853 0.062546656 1.034 1.7699686e-38
-0.12509333 0.066172555 1.034 1.576212e-38
0.098805591 0.067985497 1.034 1.6317458e-38
0.10061853 0.066172555 1.0340002 1.668588e-38
-0.12509331 0.070704922 1.034 1.1430445e-38
0.098805591 0.069798447 1.034 1.5948287e-38
-0.1256372 0.074512117 1.034 4.5229668e-39
-0.12146743 0.075237289 1.034 7.6468647e-39
0.096992642 0.075237289 1.034 1.8159217e-38
-0.12554656 0.077503473 1.034 1.2918052e-39
-0.12146743 0.077956706 1.034 5.3393928e-39
0.096992642 0.077050239 1.034 1.8160646e-38
-0.12146743 0.080676123 1.034 1.6573507e-39
-0.1181437 0.081884757 1.0340002 1.8410259e-39
-0.11784153 0.084302016 1.034 5.5209478e-40
-0.11421564 0.086114965 1.034 0
-0.11028759 0.086719289 1.0340002 0
-0.10787033 0.087927915 1.034 0
-0.10515091 0.090647332 1.034 0
-0.10243148 0.091553807 1.034 0
0.090647332 0.091553807 1.034 8.4837594e-39
0.093366757 0.089740857 1.034 6.4571833e-40
-0.10061853 0.095179699 1.034 9.1835496e-41
-0.048043087 0.093366757 1.034 0
-0.046230137 0.093366757 1.034 0
-0.029007148 0.098805591 1.034 5.7117724e-39
-0.077956706 0.10061853 1.034 0
-0.073424339 0.10061853 1.034 0
-0.071611397 0.10061853 1.034 0
-0.025381252 0.10152501 1.034 0
-0.02175536 0.10243148 1.034 6.0776613e-39
-0.019035939 0.10243148 1.034 1.3171976e-38
-0.02175536 0.10424443 1.034 9.1835496e-41
-0.01782731 0.10484876 1.0340002 1.4693777e-39
-0.014805732 0.10726601 1.0340002 0
-0.011784153 0.10787033 1.034 0
-0.009971207 0.10968328 1.034 0
-0.00090647332 0.11693506 1.034 0
0.0045323665 0.12056095 1.034 2.7658689e-40
0.009971207 0.1223739 1.0340002 9.2204038e-41
0.0135971 0.1223739 1.034 5.6051939e-45
0.019035939 0.12599979 1.034 3.0420508e-39
0.020848887 0.12599979 1.034 2.9498566e-39
0.024474779 0.12599979 1.034 2.7658269e-39
0.050762504 0.12599979 1.034 1.8424496e-39
0.053481925 0.12509331 1.034 9.2122482e-40
-0.024569457 -0.0045499001 1.038 2.3509876e-38
-0.021839518 -0.0054598795 1.038 2.3509874e-38
-0.014559679 -0.0045499001 1.038 2.3509873e-38
-0.011829739 -0.0045499001 1.038 2.3509869e-38
-0.028209381 -0.00090997992 1.038 2.3509886e-38
-0.025479438 -0.0018199598 1.038 2.3509881e-38
-0.021839518 -0.0027299398 1.038 2.350988e-38
-0.0181996 -0.0018199598 1.038 2.3509884e-38
-0.014863006 -0.0021232865 1.038 2.3509881e-38
-0.0095547903 -0.00227495 1.038 2.3509865e-38
-0.0054598795 -0.0018199598 1.038 2.3509877e-38
-0.0027299398 -0.00090997992 1.038 2.3509873e-38
0.055508777 -0.00090997992 1.038 2.350986e-38
0.058238715 -0.00090997992 1.038 2.3509858e-38
0.061878636 -0.00090997992 1.038 2.3509865e-38
0.071888417 -0.00090997992 1.038 2.3509886e-38
0.074618354 -0.0018199598 1.038 2.3509884e-38
0.079168253 -0.00090997992 1.038 2.3509886e-38
0.081898198 -0.00090997992 1.038 2.3509886e-38
0.085538119 -0.0018199598 1.038 2.3509886e-38
0.088268057 -0.0018199598 1.038 2.3509844e-38
-0.029665345 0.0020019561 1.038 2.3509883e-38
-0.026389418 0.00090997992 1.038 2.3509886e-38
-0.018502926 0.0015166332 1.038 2.350987e-38
-0.0018199598 0.0018199598 1.038 2.3509869e-38
0.055508777 0.0018199598 1.038 2.3509824e-38
0.058238715 0.0018199598 1.038 2.3509831e-38
0.06187864 0.0018199598 1.038 2.3509859e-38
0.065518558 0.00090997992 1.038 2.3509881e-38
0.070432447 0.0016379639 1.038 2.3509886e-38
0.074618354 0.0018199598 1.038 2.3509886e-38
0.078258276 0.0018199598 1.038 2.3509886e-38
0.081898198 0.00090997992 1.038 2.3509886e-38
0.085538119 0.00090997992 1.038 2.3509886e-38
0.09008801 0.0018199598 1.0380001 2.3509835e-38
0.093727939 0.0027299398 1.038 2.3509818e-38
-0.050048899 0.0063698594 1.038 2.3509778e-38
-0.038219158 0.0063698594 1.038 2.3509886e-38
-0.034579236 0.0054598795 1.038 2.3509876e-38
-0.031849299 0.0045499001 1.038 2.3509886e-38
-0.0018199598 0.0054598795 1.038 2.3509879e-38
0.00090997992 0.0063698594 1.038 2.3509884e-38
0.042769056 0.0063698594 1.038 2.3509799e-38
0.045498997 0.0054598795 1.038 2.3509674e-38
0.050048899 0.00545988 1.0380001 2.3509737e-38
0.054902129 0.0057632062 1.038 2.3509804e-38
0.058238715 0.0054598795 1.038 2.3509838e-38
0.090997994 0.0054598795 1.038 2.3509848e-38
0.093727939 0.0054598795 1.038 2.3509813e-38
-0.048228938 0.0081898198 1.038 2.3509792e-38
-0.045498997 0.01000978 1.0380001 2.3509811e-38
-0.041859083 0.01000978 1.0380001 2.3509856e-38
-0.038674146 0.0095547894 1.038 2.3509862e-38
0.0021232865 0.008796474 1.038 2.3509886e-38
0.0050048898 0.01046477 1.038 2.3509886e-38
0.039129138 0.010919759 1.038 2.3509759e-38
0.041859075 0.010009781 1.0380001 2.350975e-38
0.045498997 0.0090998001 1.038 2.3509724e-38
0.050048899 0.0081898198 1.038 2.3509755e-38
0.054598797 0.0090998001 1.038 2.3509848e-38
0.058238715 0.0090998001 1.038 2.3509876e-38
0.094637915 0.0090998001 1.038 2.350983e-38
0.09736786 0.010919759 1.038 2.2492769e-38
-0.044589017 0.014559679 1.038 2.3509772e-38
-0.041859075 0.014559679 1.038 2.3509874e-38
0.0063698594 0.013649699 1.038 2.3509886e-38
0.008796474 0.014863006 1.038 2.3509886e-38
0.038522486 0.014863006 1.038 2.350981e-38
0.040949099 0.014559679 1.038 2.3509785e-38
0.097974509 0.014863006 1.038 2.2677877e-38
-0.11738741 0.019109579 1.038 2.3509706e-38
-0.11556746 0.019109579 1.038 2.350981e-38
-0.11101755 0.019109579 1.038 2.0006638e-38
-0.10464769 0.019109579 1.038 1.6865804e-38
-0.10191776 0.019109579 1.038 2.1195463e-38
-0.098277837 0.019109579 1.038 2.2767524e-38
-0.044589017 0.01728962 1.038 2.3509724e-38
-0.042769056 0.01728962 1.038 2.3509841e-38
0.010464769 0.01774461 1.038 2.3509886e-38
0.014256353 0.018502926 1.038 2.3509886e-38
0.019109579 0.019109579 1.038 2.3509886e-38
0.021839518 0.019109579 1.038 2.3509886e-38
0.026389418 0.019109579 1.038 2.3509802e-38
0.030029338 0.019109581 1.038 2.2493099e-38
0.037915833 0.017896274 1.038 2.3509842e-38
0.099187814 0.01728962 1.038 2.2862603e-38
-0.12102734 0.021839518 1.038 2.3509729e-38
-0.11829739 0.021839518 1.038 2.3509726e-38
-0.11496081 0.021536192 1.038 2.3509811e-38
-0.10828761 0.02092954 1.038 2.3324969e-38
-0.10525434 0.021536192 1.038 2.3509762e-38
0.014863006 0.021536192 1.038 2.3509886e-38
0.0181996 0.021839518 1.038 2.3509886e-38
0.021839518 0.021839518 1.038 2.3509886e-38
0.025479438 0.021839518 1.038 2.3509886e-38
0.029665349 0.021657523 1.038 2.3509877e-38
0.035489216 0.021839518 1.038 2.3509874e-38
0.037309177 0.02092954 1.038 2.3509855e-38
0.10100777 0.02092954 1.038 2.2032132e-38
-0.12102734 0.024569457 1.038 2.350971e-38
-0.11829739 0.025479438 1.038 2.3509751e-38
-0.11556746 0.024569457 1.038 2.3509793e-38
0.019109579 0.024569457 1.038 2.3509886e-38
0.021839518 0.024569457 1.038 2.3509886e-38
0.025479438 0.024569457 1.038 2.3509886e-38
0.03002934 0.024569457 1.038 2.3509886e-38
0.033669256 0.024569457 1.038 2.3509886e-38
0.10282774 0.026389418 1.038 2.2032483e-38
-0.12102734 0.03002934 1.038 2.350974e-38
-0.11920737 0.030029338 1.038 2.3509776e-38
0.10555767 0.030939318 1.038 2.286402e-38
-0.12466725 0.035489216 1.038 2.3509838e-38
-0.12193731 0.034579236 1.038 2.3509733e-38
-0.11920737 0.033669256 1.038 2.3509015e-38
0.10646766 0.034579236 1.038 2.3507967e-38
-0.13376705 0.039129138 1.038 2.2492081e-38
-0.13049112 0.038401153 1.038 2.3416523e-38
-0.12557723 0.038219158 1.038 2.3509772e-38
-0.12224065 0.037915833 1.038 2.3509754e-38
0.10646766 0.038219158 1.038 2.2860068e-38
-0.13376705 0.041859075 1.038 2.2122169e-38
-0.13012713 0.041859083 1.0380001 2.3415428e-38
-0.12588057 0.041555755 1.038 2.3509776e-38
-0.1228473 0.040949099 1.038 2.3509765e-38
-0.13012713 0.045498997 1.0380001 2.2400543e-38
-0.13035463 0.049821403 1.038 2.1847742e-38
0.10282774 0.050958879 1.038 2.0648095e-38
0.10464769 0.048228938 1.038 2.1664408e-38
-0.13073379 0.054295473 1.038 2.1293502e-38
0.10282774 0.054598797 1.038 2.0649185e-38
-0.13012715 0.057328735 1.038 2.0830311e-38
0.10222109 0.058542043 1.038 2.0557364e-38
0.10222109 0.061575308 1.038 1.7331231e-38
-0.12830718 0.065518558 1.038 1.5026325e-38
0.10282774 0.065518558 1.038 1.6410355e-38
-0.12921716 0.070068464 1.0380001 1.5209761e-38
0.099187814 0.071888417 1.038 1.7053928e-38
0.10191776 0.070068449 1.038 1.7055003e-38
-0.12952051 0.074315026 1.038 9.7731067e-39
0.099187814 0.074618354 1.038 1.8067356e-38
0.10100777 0.074618354 1.038 2.0556636e-38
0.09736786 0.079168253 1.038 1.8712033e-38
-0.12102734 0.082808174 1.038 1.2907388e-39
0.095547892 0.082808174 1.038 1.705362e-38
0.09736786 0.081898198 1.038 1.7053256e-38
-0.11738741 0.086448096 1.038 2.7730015e-40
0.095547892 0.085538119 1.038 9.9557211e-39
-0.11010757 0.089481369 1.038 3.5873241e-43
-0.10646766 0.091907971 1.038 0
0.094637915 0.09008801 1.038 2.1150891e-39
-0.10282774 0.093727939 1.038 0
-0.049138919 0.095547892 1.038 0
-0.045498997 0.095547892 1.038 0
0.090997994 0.094637915 1.038 1.836808e-40
0.093727939 0.093727939 1.038 3.5873241e-43
-0.031849299 0.099187814 1.038 0
0.090694666 0.098581165 1.038 1.3822044e-39
-0.028209381 0.10100777 1.038 0
-0.026389418 0.10282774 1.038 0
-0.025479438 0.10464769 1.038 0
-0.019109579 0.10646766 1.038 0
-0.01728962 0.10828761 1.038 0
-0.014559679 0.11010758 1.038 0
-0.01000978 0.11101755 1.038 0
-0.0063698594 0.11374749 1.038 0
-0.00090997992 0.11920737 1.038 1.0127016e-39
0.0027299398 0.12102734 1.038 6.4536941e-40
0.055669207 -0.0082134902 1.041 2.3509834e-38
0.057494428 -0.0082134902 1.041 2.3509835e-38
0.066620529 -0.0082134902 1.041 2.3509876e-38
0.069358349 -0.0082134902 1.041 2.3509879e-38
0.074149564 -0.0098105576 1.041 2.3509884e-38
0.077571847 -0.0091261007 1.041 2.3509886e-38
0.083047509 -0.0082134902 1.041 2.350988e-38
0.08487273 -0.0082134902 1.041 2.3509886e-38
-0.028290909 -0.0045630499 1.041 2.3509855e-38
-0.025553079 -0.0054756599 1.041 2.3509867e-38
-0.0182522 -0.0054756599 1.041 2.3509872e-38
-0.01460176 -0.0063882698 1.041 2.3509856e-38
-0.0096736662 -0.0056581818 1.041 2.3509851e-38
-0.0054756599 -0.0054756599 1.041 2.3509859e-38
-0.0027378299 -0.0054756599 1.041 2.3509866e-38
0.049280938 -0.0045630499 1.041 2.3509809e-38
0.053843986 -0.0054756599 1.041 2.3509828e-38
0.058407038 -0.0054756599 1.041 2.3509853e-38
0.06205748 -0.0054756599 1.041 2.3509863e-38
0.065707922 -0.0054756599 1.041 2.3509874e-38
0.069358349 -0.0054756599 1.041 2.3509881e-38
0.073921412 -0.0054756603 1.041 2.3509876e-38
0.078484461 -0.0054756599 1.041 2.3509886e-38
0.082134902 -0.0054756599 1.041 2.3509886e-38
0.085481137 -0.0051714568 1.0410001 2.3509884e-38
0.090348385 -0.0045630499 1.041 2.3509886e-38
0.093086213 -0.0045630499 1.041 2.3509839e-38
-0.029203519 -0.00182522 1.041 2.3509886e-38
-0.02646569 -0.0027378299 1.041 2.3509886e-38
-0.0015210167 -0.0021294234 1.0410001 2.350987e-38
0.045630496 -0.00091260998 1.041 2.3509747e-38
0.049280938 -0.00182522 1.041 2.3509788e-38
0.053478945 -0.0020077419 1.041 2.3509817e-38
0.058407038 -0.0027378299 1.041 2.3509856e-38
0.06205748 -0.0027378299 1.041 2.3509866e-38
0.065707922 -0.00182522 1.041 2.3509879e-38
0.069358349 -0.00182522 1.041 2.3509886e-38
0.072096184 -0.0027378299 1.041 2.3509886e-38
0.078180254 -0.0021294234 1.0410001 2.3509886e-38
0.082134902 -0.0027378299 1.041 2.3509886e-38
0.090348385 -0.00182522 1.041 2.3509846e-38
0.093633786 -0.0016426981 1.041 2.3509825e-38
-0.037417009 0.0027378299 1.041 2.3509886e-38
-0.034679182 0.00182522 1.041 2.3509886e-38
-0.031941351 0.00091260998 1.041 2.3509886e-38
0.00182522 0.00182522 1.041 2.3509877e-38
0.0045630499 0.00182522 1.041 2.3509879e-38
0.041980058 0.00182522 1.041 2.3509743e-38
0.045630496 0.00182522 1.041 2.3509722e-38
0.049280941 0.00182522 1.041 2.3509743e-38
0.052931376 0.00182522 1.041 2.3509781e-38
0.095215641 0.0015210167 1.0410001 2.3509813e-38
0.10221232 0.00182522 1.041 1.0973435e-38
-0.048368327 0.0063882698 1.041 2.3509779e-38
-0.045630496 0.0063882698 1.041 2.3509799e-38
-0.041675858 0.0057798633 1.0410001 2.3509846e-38
-0.03832962 0.0045630499 1.041 2.3509886e-38
0.0021294234 0.0051714568 1.0410001 2.3509881e-38
0.0051714568 0.0057798633 1.0410001 2.3509884e-38
0.0082134902 0.0063882698 1.041 2.3509886e-38
0.03924223 0.0054756599 1.041 2.3509811e-38
0.041675858 0.0051714568 1.0410001 2.3509783e-38
0.053843986 0.0045630499 1.041 2.3509764e-38
0.095824048 0.0054756599 1.041 2.3509823e-38
0.098257683 0.0057798633 1.0410001 2.286264e-38
0.10221232 0.0054756599 1.041 1.3828215e-38
0.0063882698 0.0091261007 1.041 2.3509886e-38
0.0097345067 0.010647117 1.041 2.3509886e-38
0.013689149 0.01095132 1.041 2.3509886e-38
0.01916481 0.01095132 1.041 2.3509792e-38
0.020990029 0.01095132 1.041 2.0375111e-38
0.035591789 0.01095132 1.041 2.3509733e-38
0.037873313 0.009582405 1.041 2.3509776e-38
0.099018186 0.009582405 1.041 2.1572984e-38
0.10175601 0.009582405 1.041 1.6688069e-38
0.011255523 0.014297556 1.0410001 2.3509886e-38
0.014297556 0.014905963 1.0410001 2.3509886e-38
0.01916481 0.01460176 1.041 2.3509883e-38
0.021598436 0.014905963 1.0410001 2.3416935e-38
0.024640469 0.01460176 1.041 1.7700409e-38
0.034679178 0.01460176 1.041 2.3509722e-38
0.037417009 0.013689149 1.041 2.3509796e-38
0.09947449 0.013689149 1.041 2.2401644e-38
0.10129971 0.01460176 1.041 2.2401642e-38
-0.12137713 0.0182522 1.041 2.3509767e-38
-0.1189435 0.017947998 1.0410001 2.3509691e-38
-0.11407624 0.017795894 1.041 2.3509786e-38
-0.10920899 0.017947998 1.0410001 1.530499e-38
-0.10616697 0.017947998 1.0410001 9.7740274e-39
-0.10221232 0.017339589 1.041 1.8160668e-38
0.01551437 0.017339589 1.041 2.3509886e-38
0.017947998 0.017947998 1.0410001 2.3509886e-38
0.021902639 0.017339589 1.041 2.3509886e-38
0.025248876 0.017947998 1.0410001 2.2771902e-38
0.034679182 0.0182522 1.041 2.3509767e-38
0.10129971 0.0182522 1.041 2.2862248e-38
-0.12320235 0.021902639 1.041 2.3509734e-38
0.025553079 0.021902639 1.041 2.3509886e-38
0.031941351 0.022815248 1.041 2.3509886e-38
0.033766571 0.021902639 1.041 2.3509876e-38
-0.12259394 0.025857283 1.0410001 2.3509726e-38
-0.12563598 0.031332947 1.0410001 2.3509795e-38
-0.12320235 0.030116132 1.0410001 2.3509744e-38
0.10677537 0.03011613 1.041 2.2495261e-38
-0.12928642 0.034983385 1.0410001 2.3509776e-38
-0.1262444 0.034374978 1.0410001 2.3509824e-38
-0.12867801 0.037417009 1.041 2.3509788e-38
0.10860059 0.041980058 1.041 2.3509755e-38
-0.13415366 0.045630496 1.041 2.0555954e-38
0.10677537 0.046543106 1.041 2.3413607e-38
0.10860059 0.044717886 1.041 2.3509779e-38
-0.13415366 0.049280938 1.041 1.889825e-38
0.10616697 0.049585145 1.0410001 2.1938458e-38
-0.13369736 0.054300293 1.041 1.9906612e-38
0.10568024 0.054209031 1.041 2.1109433e-38
-0.13324106 0.058407038 1.041 1.8428934e-38
-0.13050324 0.059319649 1.041 1.8528708e-38
0.10555856 0.058711242 1.0410001 1.8713811e-38
-0.13324106 0.062057476 1.041 1.2161089e-38
-0.13050324 0.06205748 1.041 1.6865231e-38
0.10586277 0.06205748 1.041 1.6410738e-38
-0.13415366 0.065707922 1.041 4.9789073e-39
-0.13050324 0.065707922 1.041 1.2168262e-38
0.10586277 0.065707922 1.041 2.1572277e-38
-0.13324106 0.069358349 1.041 1.8621369e-38
0.10495015 0.069358349 1.041 2.0651715e-38
0.10312493 0.073008791 1.041 1.9912353e-38
0.10495015 0.073008791 1.041 2.0096743e-38
0.09947449 0.078484461 1.041 1.8712404e-38
0.09947449 0.081222288 1.041 1.7882665e-38
0.097649269 0.085785344 1.041 7.3738848e-39
0.095824048 0.090348385 1.041 0
0.098257683 0.089739978 1.0410001 1.8438846e-40
-0.10860059 0.092173606 1.041 0
0.094911441 0.093998827 1.041 5.5280944e-40
0.098561883 0.092173606 1.041 1.1981718e-39
0.092173606 0.097649269 1.041 1.4736727e-39
-0.029203519 0.10221232 1.041 0
-0.024640469 0.10677537 1.041 0
-0.021902639 0.10677537 1.041 0
-0.0182522 0.10951319 1.041 0
-0.01003871 0.11225102 1.041 0
-0.02845397 -0.02845397 1.0470001 2.3509865e-38
-0.026618229 -0.02845397 1.0470001 2.3509863e-38
-0.02845397 -0.025700361 1.0470001 2.3509848e-38
-0.026618229 -0.025700361 1.0470001 2.3509848e-38
-0.02111101 -0.02478249 1.0470001 2.3509844e-38
-0.01927527 -0.02478249 1.0470001 2.3509841e-38
-0.02845397 -0.02202888 1.0470001 2.3509698e-38
-0.025700361 -0.02202888 1.0470001 2.3509729e-38
-0.02202888 -0.02202888 1.0470001 2.3509761e-38
-0.018663358 -0.021722924 1.0470002 2.3509772e-38
-0.015603791 -0.02111101 1.0470001 2.3509779e-38
0.063333027 -0.02202888 1.0470001 1.6413365e-38
0.06599196 -0.021998635 1.0455 1.1250819e-38
0.06874162 -0.021998636 1.0455 2.6741441e-39
-0.029371841 -0.0183574 1.0470001 2.3509703e-38
-0.025700361 -0.0183574 1.0470001 2.3509729e-38
-0.021998636 -0.018331099 1.0455 2.350973e-38
-0.018329784 -0.018331099 1.0455 2.3509743e-38
-0.015603791 -0.0183574 1.0470001 2.3509762e-38
0.05599007 -0.017439531 1.0470001 2.3509886e-38
0.059049636 -0.018051444 1.0470002 2.3509886e-38
0.06241516 -0.0183574 1.0470001 2.3509886e-38
0.065897278 -0.018304799 1.044 2.3509886e-38
0.069386415 -0.018033035 1.046 2.3509886e-38
-0.029371841 -0.01468592 1.0470001 2.3509786e-38
-0.025700361 -0.01468592 1.0470001 2.3509788e-38
-0.021965759 -0.01464384 1.044 2.3509774e-38
-0.018343592 -0.014674743 1.04625 2.3509767e-38
-0.015603791 -0.01468592 1.0470001 2.3509768e-38
0.054613266 -0.014226985 1.0470001 2.3509883e-38
0.058743678 -0.01468592 1.0470001 2.3509886e-38
0.06241516 -0.01468592 1.0470001 2.3509886e-38
0.065897278 -0.01464384 1.044 2.3509886e-38
0.069758117 -0.01468592 1.0470001 2.3509886e-38
