# .PCD v0.7 - Point Cloud Data file format
VERSION 0.7
FIELDS x y z rgb
SIZE 4 4 4 4
TYPE F F F F
COUNT 1 1 1 1
WIDTH 986
HEIGHT 1
VIEWPOINT 0 0 0 1 0 0 0
POINTS 986
DATA ascii
-0.045116775 0.11923631 0.91900003 1.6138904e-38
-0.041043781 0.11830266 0.91799998 2.2123285e-38
0.042653337 0.11910743 0.91799998 1.8254312e-38
0.045657299 0.1178796 0.91828585 1.2353063e-38
-0.045067675 0.12152177 0.91799998 1.899626e-38
-0.042065274 0.12200254 0.91920006 2.1019815e-38
0.042653337 0.12232655 0.91799998 1.8345794e-38
0.046149924 0.12192154 0.91949999 1.0233306e-38
0.049198534 0.12259306 0.92000002 2.4874771e-39
-0.041133199 0.12501267 0.92000002 2.1386766e-38
0.037824657 0.12796001 0.91799998 1.7700029e-38
0.041895024 0.12568243 0.91900003 1.7514914e-38
0.045569137 0.12541594 0.92000002 9.5860824e-39
0.049198534 0.12501267 0.92000002 3.4097908e-39
-0.041043781 0.13037436 0.91799998 2.0925769e-38
0.039434217 0.12956958 0.91799998 1.7423803e-38
0.041670889 0.12877649 0.92000002 1.6317445e-38
-0.041043781 0.13359347 0.91799998 2.1017965e-38
-0.042116821 0.13761738 0.91799998 2.1018318e-38
-0.042653337 0.14164126 0.91799998 2.0834658e-38
-0.044295043 0.1457698 0.91866672 2.0464786e-38
-0.042653337 0.1440556 0.91799998 2.0741734e-38
-0.044262897 0.14968908 0.91799998 2.0741347e-38
-0.044311114 0.15388218 0.91900003 2.1109061e-38
-0.042653337 0.15371297 0.91799998 2.1386012e-38
0.014217779 0.1542495 0.9180001 1.2906934e-38
0.017725322 0.15468608 0.91900003 1.198355e-38
0.020163333 0.15485439 0.92000002 1.1704785e-38
-0.044359334 0.15808053 0.92000002 2.1661527e-38
-0.042653337 0.15773687 0.91799998 2.138494e-38
0.013686812 0.15779445 0.91833341 1.3919648e-38
0.017734528 0.15799505 0.91950005 1.1617654e-38
0.020163333 0.15727401 0.92000002 1.0509849e-38
-0.045770764 0.16231483 0.92000002 1.9819432e-38
-0.042653337 0.16176078 0.91799998 2.0556622e-38
-0.00080477993 0.16337034 0.91799998 1.3734886e-38
0.0016095599 0.16337034 0.91799998 1.2723267e-38
0.0056334599 0.16337034 0.91799998 1.2721814e-38
0.0096573597 0.16176076 0.9180001 1.3274287e-38
0.013502857 0.1618239 0.91950005 1.3920023e-38
0.016937198 0.16050012 0.92000002 1.2815483e-38
-0.049198534 0.16614586 0.92000002 1.9174062e-38
-0.045906942 0.16590507 0.91866672 1.97276e-38
-0.042653337 0.16578467 0.91799998 1.9543222e-38
-0.0088525796 0.16658945 0.91799998 1.6318959e-38
-0.0053115478 0.16594563 0.91800004 1.309136e-38
-0.0016099982 0.16587541 0.91850001 1.3089539e-38
0.0016113133 0.16596615 0.91900003 1.3921825e-38
0.0056395959 0.16596615 0.91900003 1.1893183e-38
0.0096687563 0.16515961 0.91900003 1.1891361e-38
0.012097999 0.16533934 0.92000002 1.3459037e-38
-0.049198534 0.16937199 0.92000002 1.9266256e-38
-0.045928761 0.17001489 0.91911113 1.9266619e-38
-0.042009514 0.17013048 0.91800004 1.899075e-38
-0.012071699 0.17141813 0.91799998 1.5771586e-38
-0.0096708033 0.17005579 0.9193334 1.5305905e-38
-0.0062909597 0.1695333 0.92000002 1.595378e-38
-0.0016130665 0.16856545 0.92000002 1.3370534e-38
0.0016130665 0.16856545 0.92000002 1.2450331e-38
0.0048391996 0.16856545 0.92000002 1.1340025e-38
-0.045649793 0.17404988 0.92000002 1.9542863e-38
-0.041848563 0.17383248 0.91799998 1.9082601e-38
-0.039434217 0.17463724 0.91799998 1.79759e-38
-0.016900379 0.17463724 0.91799998 1.5026369e-38
-0.014027017 0.1739745 0.91960001 1.7514649e-38
-0.044359338 0.17824388 0.92000002 1.7791517e-38
-0.041864049 0.17792153 0.91833341 1.7147223e-38
-0.0380546 0.17831625 0.9180001 1.6409648e-38
-0.033800758 0.17946592 0.91799998 1.7329809e-38
-0.020119498 0.17946592 0.91799998 1.1339587e-38
-0.017986862 0.17798671 0.91866672 1.0509867e-38
-0.044359334 0.18227652 0.92000002 1.530405e-38
-0.041939735 0.18227652 0.92000002 1.4750148e-38
-0.037867032 0.1820787 0.91900003 1.6132683e-38
-0.033800758 0.18188028 0.91799998 1.6870288e-38
-0.031386416 0.18188027 0.91799998 1.705467e-38
-0.020163333 0.18227652 0.92000002 1.1983567e-38
-0.018550266 0.18227652 0.92000002 1.2905513e-38
-0.044359334 0.18469614 0.92000002 1.3736391e-38
-0.041939735 0.18550266 0.92000002 1.4011526e-38
-0.037907068 0.18550265 0.92000002 1.5024574e-38
-0.033849854 0.18617538 0.9193334 1.327539e-38
-0.030324776 0.18650877 0.91833341 1.2169072e-38
-0.025752958 0.18751372 0.91799998 7.4699564e-39
-0.021751853 0.18650907 0.91900003 1.0138942e-38
-0.028228667 0.18953532 0.92000002 1.7467956e-39
-0.025809066 0.18953532 0.92000002 4.0637655e-44
-0.0048549799 0.050977286 0.92299998 2.3509821e-38
0.00080916326 0.050977286 0.92299998 2.3509827e-38
0.0064733066 0.050977286 0.92299998 2.3509842e-38
-0.016992429 0.055832267 0.92299998 2.350936e-38
-0.014564939 0.054213941 0.92299998 2.3509694e-38
-0.010519123 0.052595612 0.92299998 2.3509759e-38
0.010519123 0.052595612 0.92299998 2.3509851e-38
0.014564939 0.054213941 0.92299998 2.3509873e-38
0.017801594 0.055023104 0.92299998 2.350982e-38
0.020768523 0.055292826 0.92300004 2.3509879e-38
-0.018610757 0.058259755 0.92299998 2.3509745e-38
0.023465736 0.057450593 0.92299998 2.3509872e-38
0.025893226 0.057450593 0.92299998 2.3509865e-38
0.028320715 0.059068918 0.92299998 2.3509859e-38
-0.025084062 0.063923903 0.92299998 2.3509745e-38
-0.022171075 0.062952906 0.92299998 2.3509737e-38
-0.018610757 0.060687248 0.92299998 2.3509747e-38
0.029615376 0.061658245 0.92299998 2.3509839e-38
-0.025623506 0.066621117 0.92300004 2.3509758e-38
0.033984859 0.067160554 0.92299998 2.3509792e-38
-0.028320715 0.070397206 0.92299998 2.3509806e-38
-0.026702389 0.06877888 0.92299998 2.3509782e-38
0.034794021 0.06877888 0.92299998 2.3509795e-38
0.037221514 0.069588043 0.92299998 2.3509768e-38
0.039648999 0.07444302 0.92299998 2.3048098e-38
0.041267328 0.078488842 0.92299998 2.341542e-38
0.042885654 0.080107167 0.92299998 2.1941383e-38
0.044503979 0.082534656 0.92299998 1.9542134e-38
0.044503979 0.084962144 0.92299998 1.9083299e-38
0.046931468 0.091435447 0.92299998 1.3091719e-38
0.042885654 0.093862936 0.92299998 1.9912729e-38
0.046661749 0.093593225 0.92300004 1.410694e-38
-0.037626095 0.097908758 0.92299998 1.9177701e-38
0.042885654 0.096290432 0.92299998 1.9728716e-38
0.04547498 0.098232426 0.92299998 2.0466275e-38
-0.041267328 0.10276374 0.92299998 1.6132711e-38
-0.039648999 0.10195458 0.92299998 2.0373359e-38
0.046122305 0.10114541 0.92299998 1.5578812e-38
0.050168123 0.10195458 0.92299998 5.7049257e-39
0.052595612 0.10114541 0.92299998 5.9891006e-39
-0.044503979 0.10680955 0.92299998 1.0604182e-38
-0.042076491 0.10640497 0.92299998 1.5028876e-38
-0.039649002 0.10600039 0.92300004 1.9822346e-38
0.04504342 0.10600039 0.92300004 1.8623779e-38
-0.044503979 0.11085537 0.92299998 1.1519339e-38
-0.041806769 0.11031593 0.92300004 1.8990449e-38
0.047201186 0.10977649 0.92300004 9.6793795e-39
-0.044503979 0.11409202 0.92299998 1.1893542e-38
-0.042885654 0.11409202 0.92300004 2.0282984e-38
-0.044503979 0.11732867 0.92299998 1.2726196e-38
-0.042885654 0.11813784 0.92299998 2.1115308e-38
-0.045313142 0.12380198 0.92299998 2.0466668e-38
-0.044503979 0.12542032 0.92299998 2.1386062e-38
-0.042076491 0.12622947 0.92299998 2.120202e-38
0.046931468 0.12703863 0.92299998 7.3655022e-39
0.04935896 0.12703863 0.92299998 3.9626142e-39
-0.041267328 0.12865697 0.92299998 2.0832498e-38
0.039648999 0.1318936 0.92299998 1.7884421e-38
0.042346209 0.13135417 0.92300004 1.5673186e-38
0.046122309 0.12946615 0.92299998 3.6881475e-39
0.050168123 0.12946613 0.92299998 4.7016156e-39
-0.042885654 0.13513026 0.92299998 2.0649889e-38
-0.044503979 0.13998525 0.92299998 2.074245e-38
-0.042885654 0.1367486 0.92299998 2.083428e-38
-0.04504342 0.14268246 0.92300004 2.0281129e-38
-0.046122309 0.1456494 0.92299998 2.0372953e-38
-0.046122309 0.1496952 0.92300004 2.0740658e-38
-0.045582868 0.15401076 0.92300004 2.1202718e-38
-0.050168123 0.15940516 0.92299998 2.0369352e-38
-0.04652689 0.15819141 0.92299998 2.1385296e-38
0.020229081 0.15940516 0.92299998 1.0512004e-38
-0.052595612 0.16264182 0.92299998 1.9081469e-38
-0.050168123 0.16183266 0.92299998 2.0002735e-38
-0.047740631 0.1610235 0.92299998 2.0463702e-38
0.018071314 0.16210239 0.92300004 1.2631093e-38
-0.052595612 0.16426013 0.92299998 1.8894925e-38
-0.050572705 0.16547389 0.92299998 1.8712711e-38
0.0097099598 0.1674968 0.92299998 1.0138939e-38
0.013755776 0.16587847 0.92300004 1.3180651e-38
-0.050977286 0.16992429 0.92299998 1.8897833e-38
-0.0048549799 0.17073345 0.92299998 1.9362179e-38
-0.0016183266 0.17073345 0.92299998 1.7609734e-38
0.0016183266 0.17073345 0.92299998 1.0971255e-38
0.0056641432 0.17019401 0.92300004 6.6380475e-39
0.0097099598 0.16911513 0.92299998 9.2180412e-39
-0.050168123 0.1739701 0.92299998 1.8802764e-38
-0.047740631 0.17558843 0.92299998 1.9633254e-38
-0.012137448 0.17558843 0.92299998 1.8159254e-38
-0.0099796811 0.17450956 0.92300004 1.5580711e-38
-0.0053404779 0.17332278 0.92299998 1.4753469e-38
-0.0016183266 0.17316094 0.92299998 1.3921921e-38
-0.04935896 0.17801592 0.92299998 1.7420212e-38
-0.046931468 0.17801592 0.92299998 1.8159893e-38
-0.016992429 0.1788251 0.92299998 1.0049241e-38
-0.01483466 0.17774621 0.92300004 9.9562676e-39
-0.04935896 0.18206173 0.92300004 1.2814792e-38
-0.046931472 0.18206173 0.92299998 1.4841613e-38
-0.016992429 0.18044341 0.92299998 1.493241e-38
-0.04935896 0.18529838 0.92299998 1.2814823e-38
-0.046445973 0.18626939 0.92299998 1.3734964e-38
-0.020229081 0.18691672 0.92299998 1.327181e-38
-0.044503979 0.18853503 0.92299998 1.3552738e-38
-0.042076491 0.18934421 0.92299998 1.1984318e-38
-0.038030677 0.18934421 0.92299998 1.0786519e-38
-0.033984859 0.19096254 0.92299998 4.1530843e-39
-0.030262707 0.19112436 0.92299998 3.5927373e-39
-0.025893226 0.1917717 0.92299998 0
-0.023465736 0.19096254 0.92299998 3.2268428e-39
-0.029615376 0.19403736 0.92299998 0
-0.025893226 0.19419919 0.92299998 0
0.0016270932 0.04311797 0.92799997 2.350988e-38
-0.0046100975 0.047456887 0.92799997 2.350986e-38
-0.0016249015 0.046295449 0.92650002 2.3509869e-38
0.0016235866 0.046270467 0.92600006 2.3509862e-38
0.0047159404 0.046666544 0.92740005 2.350986e-38
-0.017084477 0.051253434 0.92799997 2.3509796e-38
-0.013823718 0.050412279 0.92750001 2.3509781e-38
-0.009470338 0.050600614 0.926 2.3509782e-38
-0.0060923947 0.049951587 0.92649996 2.3509821e-38
-0.0016218333 0.049465913 0.92500001 2.3509849e-38
0.0016218333 0.049465913 0.92500001 2.3509841e-38
0.0056843064 0.04951939 0.926 2.3509849e-38
0.0097310003 0.051087748 0.92500001 2.3509844e-38
0.014915022 0.050711073 0.92799997 2.3509846e-38
0.017898025 0.050439887 0.92799997 2.3509858e-38
0.021558985 0.050846662 0.92799997 2.3509877e-38
0.026033491 0.051253434 0.92799997 2.350987e-38
-0.02030579 0.055230439 0.92649996 2.350974e-38
-0.018025493 0.054075427 0.92620003 2.3509744e-38
-0.013785584 0.052709579 0.92500007 2.350975e-38
0.013817143 0.052823544 0.92699999 2.3509855e-38
0.017840166 0.052709579 0.92500001 2.3509837e-38
0.02247262 0.053877156 0.92650002 2.350988e-38
0.025977388 0.054388404 0.926 2.3509866e-38
0.029527299 0.054718316 0.92699999 2.3509827e-38
0.033355411 0.054507624 0.92799997 2.3509769e-38
-0.02576231 0.058846541 0.92799997 2.3509052e-38
-0.022115886 0.057823181 0.92575008 2.3509755e-38
0.030561622 0.057875633 0.92550004 2.3509814e-38
0.034168959 0.057761811 0.92799997 2.3416493e-38
0.037585855 0.057761814 0.92799997 2.1111971e-38
0.042575609 0.058846541 0.92799997 1.5397669e-38
-0.025971031 0.061678972 0.92574996 2.2953692e-38
-0.021894749 0.060818747 0.92500007 2.3509764e-38
0.031625748 0.060818747 0.92500001 2.3509825e-38
0.034142002 0.061778918 0.92724997 2.3509802e-38
0.038236693 0.061992254 0.92799997 2.2680028e-38
0.042304426 0.061829541 0.92799997 1.622815e-38
0.044745062 0.061829545 0.92799997 5.1657733e-39
-0.028428108 0.066601679 0.92649996 2.3415765e-38
-0.026760248 0.064873338 0.92500001 2.3509775e-38
0.0340585 0.064873338 0.92500001 2.3509817e-38
0.038197238 0.065826274 0.92700005 2.3417236e-38
0.042213254 0.065757021 0.92600006 1.9177668e-38
0.044600416 0.064873338 0.92500001 5.1661264e-39
-0.028382082 0.068927914 0.92500001 2.3509788e-38
0.039237261 0.069543049 0.926 2.341686e-38
0.042304426 0.069965005 0.92799997 2.1666594e-38
-0.030101225 0.073219195 0.92799997 2.3509785e-38
0.039734915 0.072171584 0.92500001 2.3508355e-38
0.042282071 0.073991977 0.92750001 2.2402731e-38
0.042484432 0.077660978 0.926 2.2219419e-38
0.045965381 0.078507252 0.92799997 1.1341797e-38
0.049626343 0.078914024 0.92799997 3.5948911e-39
0.046773545 0.081821933 0.92671442 1.1247077e-38
0.049626343 0.082168207 0.92799997 1.8435399e-39
0.047033168 0.085957162 0.92500001 9.772294e-39
0.050060004 0.086319521 0.926 2.305639e-39
-0.037905458 0.090698324 0.92650002 1.7607829e-38
0.046222251 0.089741454 0.92500007 1.475051e-38
0.050276831 0.089200832 0.92500001 4.699473e-39
-0.038988434 0.094218865 0.92649996 1.7239404e-38
0.044600416 0.094066329 0.92500001 1.9820892e-38
-0.039734915 0.09812092 0.92500007 1.8991124e-38
0.044600416 0.096499085 0.92500001 2.0097138e-38
0.046222251 0.10258095 0.92500001 1.7792211e-38
0.053520501 0.10298641 0.92500001 5.1608043e-39
-0.042167664 0.10541917 0.92500001 1.5025968e-38
0.047195353 0.10590571 0.92500001 8.4837286e-39
0.050276831 0.10623008 0.92500007 1.936104e-39
0.053520501 0.10541916 0.92500001 4.9781997e-39
-0.044600416 0.10947374 0.92500001 1.0510202e-38
-0.042978581 0.10947374 0.92500001 1.7056092e-38
0.050006524 0.11001435 0.92500007 1.7549568e-39
0.052880529 0.1082017 0.92799997 3.5063108e-39
-0.044600416 0.11433925 0.92500001 1.2260887e-38
-0.045486286 0.12752037 0.92649996 2.0652121e-38
-0.042978581 0.12731391 0.92500001 2.1384625e-38
-0.045486286 0.12995705 0.92649996 2.1202761e-38
-0.042978581 0.12974666 0.92500001 2.0833603e-38
-0.045115672 0.13453481 0.92724997 2.1110177e-38
-0.042978581 0.13299033 0.92500001 2.111018e-38
0.039278463 0.13517529 0.92699999 1.7146522e-38
0.042167664 0.13461217 0.92500001 1.3091342e-38
0.046306115 0.1340441 0.92666668 3.5952386e-39
0.050060004 0.13286468 0.926 4.8852698e-39
-0.049626343 0.13911647 0.92799997 2.0464088e-38
-0.045958899 0.13819686 0.92619991 2.0833209e-38
0.039321419 0.13803175 0.92799997 1.6042339e-38
0.042304426 0.13830292 0.92799997 6.822429e-39
0.045287427 0.13857411 0.92799997 4.7941559e-39
-0.049626343 0.14237064 0.92799997 2.1017969e-38
-0.04725742 0.1417691 0.92619991 2.1017259e-38
0.039863784 0.14074355 0.92799997 1.5763597e-38
0.042304426 0.14237064 0.92799997 6.1759862e-39
0.045151833 0.14196387 0.92799997 6.0841745e-39
-0.049626343 0.14643839 0.92799997 2.1571123e-38
-0.047844082 0.145965 0.92500001 2.1110518e-38
0.039863784 0.14643839 0.92799997 1.3736378e-38
0.042033248 0.14616722 0.92799997 6.4532975e-39
-0.049626343 0.14969257 0.92799997 2.2491308e-38
-0.047844082 0.15001959 0.92500007 2.1294192e-38
0.031728316 0.15050612 0.92799997 1.29955e-38
0.034440141 0.14996377 0.92799997 1.3367205e-38
0.038236693 0.14969258 0.92799997 1.2538526e-38
0.041490879 0.14969257 0.92799997 6.1770329e-39
-0.052880529 0.15457386 0.92799997 2.1755138e-38
-0.050179869 0.15378539 0.92619991 2.193956e-38
-0.047844082 0.15407416 0.92500001 2.2033201e-38
0.022743801 0.15513624 0.92649996 1.2903687e-38
0.025219945 0.1553874 0.92799997 1.3917825e-38
0.03091477 0.15213321 0.92799997 1.3459035e-38
-0.056948263 0.15864159 0.92799997 2.0738845e-38
-0.053427745 0.15865719 0.92620003 2.1107993e-38
-0.050276831 0.15731782 0.92500001 2.1570418e-38
-0.047844082 0.15731782 0.92500001 2.175552e-38
0.022743801 0.15757293 0.92649996 1.2075377e-38
0.025219945 0.15782803 0.92799997 1.2259779e-38
-0.056948267 0.16189578 0.92799997 1.9541763e-38
-0.053790808 0.16191302 0.92500007 1.9632842e-38
0.021288622 0.16201079 0.92679995 1.2261945e-38
-0.056948263 0.1659635 0.92799997 1.8988984e-38
-0.053682685 0.16656227 0.92500001 1.8711995e-38
0.0145965 0.16704883 0.92500001 1.2720755e-38
0.017869096 0.16569656 0.92649996 1.1247096e-38
0.020338666 0.16514996 0.92799997 1.0786827e-38
-0.056785561 0.17003125 0.92799997 1.7605693e-38
-0.053520501 0.1702925 0.92500001 1.8345019e-38
0.0072982493 0.17110342 0.92500001 6.4528911e-39
0.0097310003 0.17110342 0.92500001 7.835827e-39
0.014057101 0.17041762 0.92757148 9.9556258e-39
0.017084477 0.16921771 0.92799997 9.4053541e-39
-0.056948263 0.17409898 0.92799997 1.6592289e-38
-0.053520501 0.17434709 0.92500007 1.8250679e-38
-0.0089200828 0.17596892 0.92500001 1.7240968e-38
-0.0056764162 0.17596893 0.92500007 1.3002839e-38
-0.0016218333 0.17596892 0.92500001 1.0419946e-38
0.0016218334 0.17434707 0.92500007 5.9927005e-39
0.005444726 0.17388371 0.92500007 3.6870587e-39
0.0097625591 0.17328544 0.92799997 7.0067922e-39
-0.056541491 0.17775993 0.92799997 1.520974e-38
-0.053564552 0.17854565 0.92575002 1.6038377e-38
-0.051087748 0.17840166 0.92500001 1.7143626e-38
-0.012704361 0.17867199 0.92500007 1.1432499e-38
-0.0097310003 0.17840166 0.92500001 1.7424924e-38
-0.0056764162 0.17840168 0.92500007 1.84395e-38
-0.0016218333 0.17840166 0.92500001 1.6038458e-38
0.0016218333 0.17840166 0.92500001 3.6737001e-40
0.0048747044 0.17706518 0.92649996 2.1523944e-42
-0.056134716 0.18223444 0.92799997 1.5394497e-38
-0.053520501 0.18164533 0.92500001 1.456544e-38
-0.051087748 0.18164533 0.92500001 1.4012961e-38
-0.01702925 0.18245624 0.92500001 1.4842714e-38
-0.013821965 0.1821367 0.92750001 1.4011876e-38
-0.0097467797 0.18194121 0.92649996 1.2814094e-38
-0.0056834295 0.1818426 0.92600006 5.717578e-39
-0.0016218333 0.18164533 0.92500001 1.5666195e-39
0.0013515278 0.18137503 0.92500007 0
-0.056134716 0.18467508 0.92799997 1.5854697e-38
-0.05346299 0.18573692 0.92679995 1.4195926e-38
-0.050682291 0.18610537 0.92500001 1.3643143e-38
-0.018149046 0.18610142 0.92699999 1.4102984e-38
-0.0089490134 0.18467508 0.92799997 5.9012658e-39
-0.0056883977 0.18603392 0.92666668 3.5873241e-43
-0.0018930156 0.1848177 0.926 0
-0.050399784 0.19021671 0.92724997 8.1989034e-39
-0.046546619 0.18991667 0.92500001 1.0782561e-38
-0.021116707 0.19006088 0.92649996 1.1794869e-38
-0.0056843064 0.18914783 0.926 6.4464774e-40
-0.045929223 0.19306149 0.92724997 4.6014928e-39
-0.042167664 0.19380908 0.92500007 2.9488168e-39
-0.03811308 0.19380909 0.92500007 2.1205009e-39
-0.0340585 0.19461998 0.92500001 0
-0.031625748 0.1954309 0.92500001 0
-0.02245903 0.19347799 0.926 3.1303284e-39
-0.013016745 0.19443764 0.92799997 5.5101718e-40
-0.044745062 0.19606474 0.92799997 0
-0.041356746 0.19705275 0.92500001 0
-0.03811308 0.19705275 0.92500001 0
-0.034869418 0.19705275 0.92500001 0
-0.023592852 0.19606474 0.92799997 0
-0.013016745 0.19606474 0.92799997 8.2724674e-40
0.0016306 0.039949697 0.93000001 2.3509886e-38
-0.0016306 0.042395595 0.93000001 2.350988e-38
0.0016306 0.041580297 0.93000001 2.3509886e-38
0.0046200333 0.042667367 0.93000001 2.3509879e-38
-0.0057071 0.0456568 0.93000001 2.3509866e-38
0.0057071 0.044841498 0.93000001 2.3509874e-38
-0.018208366 0.050276831 0.93000001 2.3509799e-38
-0.010055367 0.048646227 0.93000001 2.3509823e-38
-0.0073376996 0.048102695 0.93000001 2.3509853e-38
0.0073376996 0.048102695 0.93000001 2.3509865e-38
0.0097835995 0.049733296 0.93000001 2.3509862e-38
0.0130448 0.050548598 0.93000001 2.3509852e-38
0.017936599 0.048102695 0.93000001 2.3509852e-38
0.0228284 0.049733296 0.93000001 2.350988e-38
0.028535498 0.051363897 0.93000001 2.3509866e-38
-0.0220131 0.053809799 0.93000001 2.3509768e-38
0.030981399 0.052994497 0.93000001 2.3509811e-38
0.0342426 0.053809799 0.93000001 2.3507973e-38
0.042395599 0.054625098 0.93000001 1.5395863e-38
-0.026089599 0.057070993 0.93000001 2.3509786e-38
0.039134398 0.057886295 0.93000001 1.9913425e-38
0.041580297 0.057070993 0.93000001 1.6134129e-38
0.038319096 0.061147496 0.93000001 2.2310524e-38
0.0456568 0.067669898 0.93000001 5.7175318e-39
-0.030166099 0.070931099 0.93000001 2.3509723e-38
0.0456568 0.070115805 0.93000001 7.3784908e-39
-0.033427298 0.075822897 0.93000001 2.2678585e-38
-0.031796698 0.075007595 0.93000001 2.3231054e-38
0.0456568 0.0741923 0.93000001 1.2629684e-38
0.046472099 0.077453494 0.93000001 1.0882274e-38
0.048102695 0.077453494 0.93000001 1.2935891e-39
-0.039949697 0.090498298 0.93000001 1.6499673e-38
-0.046472099 0.13452449 0.93000001 2.0927252e-38
-0.048102695 0.13778569 0.93000001 2.0370803e-38
0.046472099 0.13778569 0.93000001 3.9654813e-39
0.048646234 0.1377857 0.93000001 5.5324511e-39
-0.052994497 0.14512339 0.93000001 2.1480022e-38
-0.051363897 0.14593869 0.93000001 2.1663323e-38
-0.051363897 0.15001521 0.93000001 2.2583863e-38
-0.054625098 0.15572229 0.93000001 2.1293794e-38
0.0269049 0.15490699 0.93000001 1.2905505e-38
0.029079033 0.15354817 0.93000001 1.2812956e-38
0.034650248 0.15368405 0.93000001 1.4288798e-38
0.0383191 0.1540917 0.93000001 1.0968372e-38
0.041580297 0.1532764 0.93000001 6.3614564e-39
-0.054625098 0.15735289 0.93000001 2.1109072e-38
0.0269049 0.1581682 0.93000001 1.1798824e-38
0.035057899 0.1581682 0.93000001 1.0141113e-38
0.037911445 0.15776055 0.93000001 6.9142911e-39
-0.059516896 0.1638753 0.93000001 1.6964657e-38
0.023643699 0.1606141 0.93000001 1.2443479e-38
0.025274299 0.1606141 0.93000001 1.0783957e-38
-0.059516896 0.16632119 0.93000001 1.6963616e-38
0.0211978 0.16632119 0.93000001 9.8659609e-39
-0.057886295 0.17039768 0.93000001 1.6592629e-38
0.018751899 0.16876709 0.93000001 8.8503699e-39
-0.059516899 0.17365889 0.93000001 1.5303023e-38
0.013860099 0.17365889 0.93000001 7.0975753e-39
0.0171213 0.17284359 0.93000001 7.651496e-39
-0.061147496 0.17855069 0.93000001 1.4654353e-38
-0.058973365 0.17800717 0.93000001 1.5762182e-38
-0.061147496 0.18018129 0.93000001 1.1981762e-38
-0.058293942 0.18140423 0.93000001 1.5578515e-38
-0.057070993 0.18588839 0.93000001 1.474981e-38
-0.0171213 0.1867037 0.93000001 1.4562551e-38
-0.014675399 0.18507309 0.93000001 1.4380971e-38
-0.010055367 0.18616018 0.93000001 7.2845001e-39
-0.053538032 0.18996489 0.93000001 8.111021e-39
-0.020382499 0.19159549 0.93000001 1.1887401e-38
-0.017936599 0.19078019 0.93000001 7.6507463e-39
-0.0096205398 0.19029102 0.93000001 0
-0.049733296 0.1932261 0.93000001 0
-0.046472099 0.19485669 0.93000001 0
-0.020382499 0.1932261 0.93000001 1.0039594e-38
-0.0154907 0.19485669 0.93000001 0
-0.046472099 0.19648729 0.93000001 0
-0.0220131 0.19648729 0.93000001 0
-0.014947167 0.19757436 0.93000001 8.2724534e-40
-0.0016393666 0.035246383 0.935 2.3509886e-38
0.00081968331 0.035246383 0.935 2.3509886e-38
-0.0054099099 0.037869371 0.93500006 2.3509886e-38
-0.0016376133 0.037664227 0.93400002 2.3509886e-38
0.0013638012 0.037923723 0.93366671 2.3509886e-38
0.0040984168 0.038525116 0.935 2.3509886e-38
-0.0094263572 0.04221369 0.935 2.3509872e-38
-0.0057307696 0.041744236 0.93366665 2.3509879e-38
-0.00163586 0.040078569 0.93300003 2.3509886e-38
0.0060614487 0.041440912 0.93419999 2.3509884e-38
0.0090165157 0.043443214 0.935 2.3509883e-38
-0.013934618 0.045902263 0.93500006 2.3509774e-38
-0.0098256795 0.045852296 0.93400002 2.3509827e-38
-0.0073613701 0.044986151 0.93300003 2.3509862e-38
0.0073692598 0.045852296 0.93400002 2.3509877e-38
0.0098313782 0.045877282 0.93450004 2.3509881e-38
0.014344458 0.046312109 0.935 2.3509856e-38
0.018033031 0.045902263 0.935 2.3509849e-38
0.02213145 0.045902267 0.93500006 2.350987e-38
0.026229866 0.045902263 0.935 2.3509848e-38
-0.021775173 0.050918031 0.93380004 2.3509788e-38
-0.01721335 0.048361316 0.935 2.3509803e-38
-0.01390481 0.048257869 0.93300003 2.3509807e-38
0.0098151602 0.048257869 0.93300003 2.3509873e-38
0.01350242 0.048692696 0.93350005 2.3509879e-38
0.022084109 0.048257869 0.93300003 2.350988e-38
0.026188225 0.049101658 0.93350005 2.350987e-38
0.030306071 0.050237089 0.93433332 2.3509832e-38
0.033571072 0.050765134 0.93400002 2.314098e-38
-0.025383007 0.054040361 0.93400002 2.3509802e-38
-0.02371997 0.053165447 0.93300003 2.350982e-38
-0.02699169 0.056437168 0.93300003 2.3509783e-38
-0.028688913 0.062295932 0.935 2.3507966e-38
-0.029760202 0.066345841 0.93433332 2.3323604e-38
-0.03139957 0.070169859 0.93433332 2.2863301e-38
-0.034426697 0.073771499 0.935 2.1847389e-38
-0.03189927 0.072795771 0.93300003 2.2217568e-38
-0.048361316 0.13442805 0.935 1.9728351e-38
-0.046622008 0.1333226 0.93300003 2.1387155e-38
-0.048257869 0.13659431 0.93300003 2.0095323e-38
-0.050766885 0.14329118 0.93400002 2.138712e-38
-0.053279415 0.15000205 0.93500006 2.2216857e-38
-0.053983375 0.15377083 0.93300003 2.1662587e-38
-0.05152959 0.15295291 0.93300003 2.1753362e-38
0.03189927 0.15458877 0.93300003 1.4196249e-38
0.03353513 0.15458877 0.93300003 1.428845e-38
-0.057695184 0.1579451 0.93350005 2.0095637e-38
0.030263407 0.15786049 0.93300003 1.1891723e-38
0.03353513 0.1578605 0.93300003 1.226088e-38
0.038442709 0.15949635 0.93300003 6.6380307e-39
-0.05970889 0.16195014 0.93300003 1.7884786e-38
0.02371997 0.16276807 0.93300003 1.235452e-38
0.02646569 0.16233909 0.93366671 1.0324401e-38
0.029988134 0.16206428 0.9346 9.2184321e-39
0.034407847 0.16221094 0.93449998 6.5476708e-39
0.036846299 0.1621246 0.93400002 6.3614915e-39
-0.062052395 0.16650863 0.93380004 1.2354552e-38
0.023191631 0.16615844 0.93366671 9.9577964e-39
0.026216278 0.16548793 0.93449998 9.4031891e-39
0.034426697 0.16639572 0.935 5.4395422e-39
-0.064754978 0.16967444 0.93500006 7.5600388e-39
-0.062162675 0.17012945 0.93300003 1.2719749e-38
-0.05970889 0.17012945 0.93300003 1.7512468e-38
0.01881239 0.17094737 0.93300003 8.1160671e-39
0.022352619 0.17003915 0.93442869 9.3102859e-39
0.025410183 0.16885476 0.935 6.5447547e-39
0.034426697 0.16803508 0.935 5.7146899e-39
-0.064754978 0.17295317 0.935 7.2834576e-39
-0.062185179 0.17428075 0.9333334 1.2446046e-38
0.01881239 0.17340115 0.93300003 5.3466052e-39
0.02211684 0.17364898 0.93433332 2.120152e-39
0.025410183 0.17459254 0.935 1.2889255e-39
-0.062435322 0.17803609 0.93300003 1.3826814e-38
-0.05970889 0.18239839 0.93300003 1.4656567e-38
-0.059395917 0.18637758 0.93449998 1.1339306e-38
-0.013495845 0.18689701 0.93300003 1.2999186e-38
-0.057064276 0.1897583 0.93433332 7.4670753e-39
-0.054801308 0.19057769 0.93300003 8.3879694e-39
-0.017176529 0.18894184 0.93300003 9.217688e-39
-0.01390481 0.18975978 0.93300003 6.6355434e-39
-0.010633091 0.18894184 0.93300003 5.5280804e-40
-0.054040361 0.19323924 0.93400002 1.8367099e-40
-0.050330311 0.19518104 0.93350005 0
-0.020448251 0.19548526 0.93300003 2.1136513e-39
-0.01799446 0.19466734 0.93300003 2.7626235e-39
-0.01390481 0.19303147 0.93300003 0
-0.0098361988 0.19426495 0.935 6.4357014e-40
-0.020492082 0.19836336 0.935 0
-0.018033031 0.19836336 0.935 9.1835496e-41
-0.0098791569 0.035397168 0.93900001 2.350988e-38
-0.005431476 0.034730375 0.93880004 2.3509884e-38
-0.0016446267 0.033714846 0.93800002 2.3509886e-38
0.0016455033 0.034573101 0.93900001 2.3509886e-38
0.0041203331 0.035434864 0.94 2.3509886e-38
-0.013597099 0.038319096 0.94 2.3509879e-38
-0.0098734582 0.037846137 0.93849999 2.3509884e-38
-0.00740082 0.037004102 0.93800002 2.3509883e-38
0.0024669401 0.037004102 0.93800002 2.3509886e-38
0.0057592615 0.037846137 0.93849999 2.3509886e-38
0.0090647331 0.038731132 0.94 2.3509886e-38
-0.01728699 0.042805001 0.93900001 2.3509827e-38
-0.013986339 0.041957077 0.93844444 2.3509859e-38
-0.010690073 0.041115668 0.93800002 2.3509884e-38
0.00740082 0.040293355 0.93800002 2.3509886e-38
0.010040639 0.041643422 0.93880004 2.3509884e-38
0.013995497 0.041986484 0.93911117 2.3509858e-38
0.01810375 0.041966617 0.9386667 2.3509852e-38
0.02221824 0.041966617 0.93866664 2.3509824e-38
0.026172007 0.042301971 0.93880004 2.3509411e-38
0.029371254 0.043095179 0.93933338 2.2955158e-38
0.032138597 0.043675531 0.94 2.1848467e-38
-0.021425731 0.046971798 0.94 2.3509799e-38
-0.018111058 0.046098638 0.93900001 2.3509811e-38
0.013157013 0.045227233 0.93800002 2.3509853e-38
0.02960328 0.046049546 0.93800002 2.3325064e-38
0.03207022 0.046049543 0.93800002 2.1849568e-38
-0.025518889 0.051036902 0.93900001 2.3509804e-38
-0.022649121 0.049005225 0.93950003 2.3509807e-38
-0.018913208 0.048516486 0.93800002 2.3509804e-38
0.030425593 0.048516486 0.93800002 2.3509831e-38
0.032892533 0.048516486 0.93800002 2.2126845e-38
-0.027165269 0.05432966 0.93900001 2.3509775e-38
-0.029391712 0.057959355 0.94 2.2861181e-38
-0.030063091 0.061360963 0.93950003 2.3231403e-38
-0.032962665 0.066749394 0.94 2.3138492e-38
-0.030490464 0.065101266 0.94 2.2954443e-38
-0.03422682 0.069745854 0.93914294 2.1940677e-38
-0.050161112 0.1356817 0.93800002 1.8534504e-38
-0.050161112 0.13732633 0.93800002 1.9451032e-38
-0.055094991 0.15048334 0.93800002 2.0834283e-38
-0.056739617 0.1554172 0.93800002 2.1203085e-38
-0.055094991 0.15295029 0.93800002 2.1477482e-38
-0.06002887 0.15870647 0.93800002 2.0186469e-38
-0.058508728 0.15739672 0.94 2.0464772e-38
-0.062310543 0.16332358 0.93933338 1.5303693e-38
0.03207022 0.16364035 0.93800002 4.9778381e-39
-0.063318126 0.16528498 0.93800002 1.566783e-38
0.02960328 0.1661073 0.93800002 6.0837905e-39
0.033303689 0.16569613 0.93800002 4.3320862e-39
0.026725182 0.17063001 0.93800002 2.1197778e-39
0.02960328 0.16939655 0.93800002 1.4751287e-39
0.032665186 0.16991261 0.93933338 3.8732856e-39
0.026314026 0.17350811 0.93800002 9.2052557e-40
0.029666398 0.17222993 0.94 2.2101714e-39
-0.058384243 0.191599 0.93800002 3.4111865e-39
-0.056739617 0.19324364 0.93800002 0
-0.055094991 0.19488825 0.93800002 0
-0.01240045 0.035547953 0.94300002 2.350988e-38
-0.0099203596 0.033894565 0.94300002 2.350988e-38
-0.0057868767 0.0327923 0.94300002 2.3509884e-38
-0.0016533933 0.032241169 0.94300002 2.3509886e-38
0.0024800899 0.033894565 0.94300002 2.3509886e-38
0.0066135731 0.035547953 0.94300002 2.3509886e-38
-0.01736063 0.038854741 0.94300002 2.3509792e-38
-0.014053843 0.037201349 0.94300002 2.3509874e-38
0.0074402699 0.037201349 0.94300002 2.3509886e-38
0.010195926 0.037752479 0.94300002 2.3509879e-38
0.014384522 0.038193386 0.94300002 2.3509879e-38
0.018187325 0.038028043 0.94300002 2.3509883e-38
0.022320811 0.038028046 0.94300002 2.3509807e-38
0.025627596 0.038854741 0.94300002 2.3509055e-38
-0.021494113 0.042988226 0.94300002 2.3509778e-38
-0.018462893 0.042161532 0.94300002 2.3509823e-38
0.02728099 0.040508136 0.94300002 2.3508669e-38
0.030587774 0.042161532 0.94300002 2.1571177e-38
-0.022734158 0.045881663 0.94300002 2.3509799e-38
-0.025627596 0.048775103 0.94300002 2.3509792e-38
-0.029485514 0.054837547 0.94300002 2.2215799e-38
-0.02728099 0.052081887 0.94300002 2.3509781e-38
-0.030587774 0.05704207 0.94300002 2.184847e-38
-0.032241169 0.062828943 0.94300002 2.3324316e-38
-0.037201349 0.066962428 0.94300002 2.0464424e-38
-0.033894565 0.065860167 0.94300002 2.2586033e-38
-0.037201352 0.070269212 0.94300002 2.0372963e-38
-0.037201349 0.073576003 0.94300002 2.0740286e-38
-0.05704207 0.15459228 0.94300002 2.1202735e-38
-0.062002245 0.15955245 0.94300002 1.95411e-38
-0.062002245 0.16120586 0.94300002 1.7883311e-38
-0.062002245 0.18766014 0.94300002 7.0050476e-39
-0.061451118 0.1904158 0.94300002 5.715406e-39
-0.060348857 0.19262032 0.94300002 3.8718507e-39
-0.0096959341 0.030195907 0.94800007 2.3509883e-38
-0.005811424 0.029886443 0.94700003 2.3509886e-38
-0.0016604066 0.029886441 0.94700003 2.3509886e-38
0.0016621599 0.030749958 0.94800001 2.3509886e-38
0.0066486401 0.030749958 0.94800001 2.3509883e-38
0.0099729598 0.030749958 0.94800001 2.3509883e-38
0.01412836 0.030749958 0.94800007 2.3509883e-38
0.01745268 0.030749958 0.94800001 2.3509853e-38
-0.013784707 0.034377255 0.9472 2.3509874e-38
-0.0099519193 0.032343738 0.94599998 2.3509879e-38
-0.0074639395 0.032343738 0.94599998 2.3509883e-38
0.0016612833 0.032377928 0.94700003 2.3509886e-38
0.0058114231 0.033207256 0.94700003 2.3509886e-38
0.009958934 0.034025185 0.94666672 2.3509876e-38
0.014108489 0.034025185 0.94666672 2.350988e-38
0.018258044 0.034025185 0.94666666 2.3509876e-38
0.021592885 0.03404915 0.94733334 2.3509816e-38
0.024050472 0.035661042 0.94599998 2.3509745e-38
-0.024101319 0.039060757 0.94800001 2.3509762e-38
-0.021562491 0.038978349 0.94599998 2.3509752e-38
-0.018547345 0.037925184 0.94733334 2.3509796e-38
-0.015757205 0.037319697 0.94599998 2.3509874e-38
0.012439899 0.037319697 0.94599998 2.3509872e-38
0.026538452 0.038149022 0.94599998 2.3509029e-38
0.029087799 0.039060757 0.94800001 2.3321757e-38
-0.025504237 0.041871853 0.94714284 2.3139885e-38
-0.021562491 0.040637005 0.94599998 2.3509786e-38
-0.019074513 0.040637005 0.94599998 2.350981e-38
0.029026432 0.040637005 0.94599998 2.3506869e-38
-0.029087799 0.047371559 0.94800001 2.3509788e-38
-0.026576441 0.045676671 0.94733334 2.3509789e-38
-0.029087799 0.049864799 0.94800001 2.3417574e-38
-0.027367778 0.049759597 0.94599998 2.3509774e-38
-0.032343738 0.055564884 0.94599998 2.2123626e-38
-0.029855758 0.053076901 0.94599998 2.2123965e-38
-0.032343738 0.058052868 0.94599998 2.1848121e-38
-0.037398599 0.063162073 0.94800001 2.1017965e-38
-0.034508105 0.062017903 0.94685721 2.1572607e-38
-0.038425468 0.066069692 0.94599998 1.9911966e-38
-0.035661042 0.065516807 0.94599998 2.1019432e-38
-0.058052868 0.15425475 0.94599998 2.0833598e-38
-0.061818581 0.15807045 0.94650006 1.889863e-38
-0.058882192 0.15674272 0.94599998 2.0557715e-38
-0.063993156 0.16039844 0.94800001 1.8340081e-38
-0.058882192 0.19489175 0.94599998 1.4736727e-39
-0.05722354 0.19655041 0.94599998 6.4320721e-40
-0.0091708088 0.027512427 0.95099998 2.3509886e-38
-0.0058359699 0.027512427 0.95099998 2.3509886e-38
-0.0016674199 0.027512427 0.95099998 2.3509886e-38
0.013339359 0.027512427 0.95099998 2.3509883e-38
-0.012505649 0.030847268 0.95099998 2.3509877e-38
-0.010838229 0.029179849 0.95099998 2.350988e-38
0.00083370996 0.029179849 0.95099998 2.3509886e-38
0.0054191146 0.029596703 0.95099998 2.3509877e-38
0.010004519 0.029179849 0.95099998 2.3509884e-38
0.01417307 0.029179849 0.95099998 2.3509883e-38
0.01834162 0.030013558 0.95099998 2.3509842e-38
0.021676458 0.030847268 0.95099998 2.3509803e-38
-0.017507909 0.035015814 0.95099998 2.3509806e-38
-0.015006779 0.033348396 0.95099998 2.3509866e-38
-0.025011297 0.038350657 0.95099998 2.2954775e-38
-0.021676458 0.037516948 0.95099998 2.3509768e-38
-0.060860824 0.15590376 0.95099998 2.0372657e-38
-0.057525985 0.15256892 0.95099998 2.0374413e-38
-0.064195663 0.15757118 0.95099998 1.4937843e-38
-0.062528245 0.15757118 0.95099998 1.6136716e-38
-0.0092190262 0.022628518 0.95599997 2.3509881e-38
-0.0058666533 0.02262852 0.95600003 2.3509884e-38
-0.0016761866 0.022628518 0.95599997 2.3509886e-38
0.0050285598 0.021790426 0.95599997 2.3509834e-38
-0.013396341 0.027628148 0.95499998 2.3509874e-38
-0.01022018 0.025634084 0.95559996 2.3509886e-38
-0.0058570094 0.025098674 0.95433331 2.3509886e-38
-0.0016748717 0.025129208 0.95550001 2.3509886e-38
0.0016750176 0.025961606 0.95533335 2.3509886e-38
0.0058625625 0.025961604 0.95533329 2.3509881e-38
0.0098810848 0.026292985 0.95520002 2.3509886e-38
0.014474267 0.025478188 0.95514286 2.3509879e-38
0.018132973 0.027059779 0.95466661 2.3509852e-38
0.021790426 0.027657077 0.95599997 2.3509772e-38
-0.021790426 0.031009451 0.95599997 2.3509802e-38
-0.018438052 0.031009451 0.95599997 2.3509831e-38
-0.014565641 0.029966218 0.95479995 2.3509866e-38
0.0025090198 0.029271899 0.954 2.3509886e-38
0.01923582 0.029271899 0.954 2.3509832e-38
0.021768508 0.029302582 0.95499998 2.3509792e-38
0.024304705 0.031009451 0.95599997 2.3509716e-38
-0.024304705 0.033523731 0.95599997 2.3509779e-38
-0.021775229 0.034336694 0.95533323 2.3509772e-38
-0.018837813 0.033906832 0.95499998 2.3509795e-38
-0.015890459 0.03261726 0.954 2.3509863e-38
0.024863435 0.033803098 0.95600003 2.350975e-38
-0.029333265 0.039390385 0.95599997 2.2585291e-38
-0.026371885 0.037673872 0.95499992 2.2862581e-38
0.026818983 0.036876105 0.95599997 2.3509017e-38
-0.029302582 0.041859955 0.95499998 2.286116e-38
-0.029851085 0.046032012 0.95466661 2.341614e-38
-0.030944578 0.050180398 0.954 2.3509081e-38
-0.030944578 0.052689418 0.954 2.2032865e-38
-0.062018901 0.15169488 0.95599997 1.558141e-38
-0.059504624 0.15169488 0.95599997 1.9546482e-38
-0.064533181 0.15504727 0.95599997 1.3642069e-38
-0.061889157 0.15388656 0.954 1.769869e-38
-0.059442382 0.15404698 0.95499998 2.0465534e-38
-0.064398177 0.15639557 0.954 1.3091779e-38
-0.062725499 0.15639557 0.954 1.6684831e-38
-0.02425386 0.20323062 0.954 1.4012985e-45
-0.022581179 0.20323062 0.954 0
-0.0016814466 0.0075665093 0.95899999 2.3509729e-38
0.0016814466 0.0075665093 0.95899999 2.350971e-38
0.0063054245 0.007146148 0.95899999 2.3416782e-38
0.010088679 0.0067257858 0.95899999 2.350972e-38
0.013171332 0.0070060268 0.95899999 2.3509349e-38
-0.0014012055 0.0098084388 0.95899999 2.3509729e-38
0.0016814466 0.010088679 0.95899999 2.3509736e-38
0.0058850637 0.010088679 0.95900005 2.3509738e-38
0.010088679 0.010088679 0.95899999 2.2493039e-38
0.014292298 0.010088679 0.95900005 2.2862138e-38
0.01765519 0.010088679 0.95899999 2.3509729e-38
-0.00084072328 0.01261085 0.95899999 2.3509724e-38
0.0016814466 0.01261085 0.95899999 2.3509751e-38
0.0058850627 0.014292298 0.95900005 2.3509734e-38
0.010256824 0.013956008 0.95900005 2.350937e-38
0.013619718 0.013619718 0.95900005 2.3509369e-38
-0.0050443397 0.019336635 0.95899999 2.3509853e-38
-0.0016814466 0.019336635 0.95899999 2.3509874e-38
0.0019616876 0.018776154 0.95899999 2.3509848e-38
0.0058850627 0.018495912 0.95900005 2.3509831e-38
0.010368921 0.018776154 0.95899999 2.3509863e-38
0.013871934 0.018916273 0.95899999 2.3509859e-38
-0.01261085 0.022699529 0.95899999 2.3509883e-38
-0.010929403 0.022699529 0.95899999 2.3509883e-38
-0.0050443397 0.021018082 0.95899999 2.3509876e-38
-0.0016814466 0.021018082 0.95899999 2.3509883e-38
0.0016814466 0.021858806 0.95899999 2.3509883e-38
0.0075665093 0.021858806 0.95899999 2.3509884e-38
0.010088679 0.021858806 0.95899999 2.3509884e-38
0.014292298 0.021858808 0.95900005 2.3509873e-38
0.01765519 0.021858806 0.95899999 2.3509855e-38
-0.01765519 0.027743869 0.95899999 2.3509853e-38
-0.014532505 0.025582012 0.95900011 2.350987e-38
0.010929403 0.024380974 0.95899999 2.3509886e-38
0.018776154 0.024941457 0.95899999 2.3509855e-38
0.021018082 0.026062422 0.95899999 2.3509747e-38
0.024380974 0.027743869 0.95899999 2.3509741e-38
-0.024380974 0.030266037 0.95899999 2.3509769e-38
-0.021858806 0.029425314 0.95899999 2.3509803e-38
-0.018495914 0.029425314 0.95899999 2.3509863e-38
0.024380974 0.029425314 0.95899999 2.3509681e-38
0.026062422 0.03278821 0.95899999 2.3509734e-38
-0.026062422 0.0361511 0.95899999 2.3508315e-38
0.029425314 0.037832547 0.95899999 2.2584545e-38
-0.031106761 0.045399059 0.95899999 2.2954072e-38
-0.058009904 0.15217091 0.95899999 1.9731232e-38
0.010986386 -0.0050706398 0.96399999 2.3509752e-38
0.012676599 -0.0050706398 0.96399999 2.3509751e-38
-0.0016902132 -0.00084510661 0.96399999 2.3509703e-38
0.0016902132 -0.00084510661 0.96399999 2.3509696e-38
0.0070425551 -0.0014085111 0.96399999 2.3509708e-38
0.010129884 -0.0016884599 0.96299994 2.3509708e-38
0.013493653 -0.0016867067 0.96200001 2.3509736e-38
0.017729998 -0.0016887522 0.963 2.3416811e-38
0.021127665 -0.00084510661 0.96399999 2.3508288e-38
-0.004225533 0.0025353199 0.96399999 2.3509701e-38
-0.0016902132 0.0016902132 0.96399999 2.350966e-38
0.0016902132 0.0016902132 0.96399999 2.3509687e-38
0.0059063956 0.0016878755 0.96266669 2.3509356e-38
0.01012024 0.0016867067 0.96200001 2.3508971e-38
0.013493653 0.0016867067 0.96200001 2.3509695e-38
0.017723862 0.0016878755 0.96266663 2.3509001e-38
0.021127665 0.0016902132 0.96399999 2.3415728e-38
-0.0054290718 0.0061519458 0.96314287 2.350974e-38
-0.0016867067 0.0050601196 0.96200001 2.3509712e-38
0.0016867067 0.0050601196 0.96200001 2.3509712e-38
0.0055661318 0.0048914491 0.96200001 2.3509334e-38
0.01012024 0.0042167665 0.96200001 2.350971e-38
0.013774771 0.0047790022 0.96200007 2.3508996e-38
0.01772386 0.005907564 0.96266663 2.350937e-38
0.021691069 0.0070425551 0.96399999 2.3509736e-38
-0.005574197 0.009963843 0.96320003 2.3509727e-38
-0.00253006 0.010963594 0.96200001 2.3509729e-38
0.019397125 0.01012024 0.96200001 2.3509743e-38
0.021950856 0.010130759 0.963 2.350971e-38
-0.0047860155 0.013230069 0.96333331 2.3509731e-38
-0.0019678245 0.013774771 0.96200007 2.3509734e-38
0.0016867067 0.014337006 0.96200001 2.3509745e-38
0.014337006 0.014337006 0.96200001 2.350972e-38
0.018047761 0.013662323 0.96200001 2.350971e-38
0.021972772 0.013521707 0.96399999 2.3509702e-38
-0.0050631878 0.016875394 0.96249998 2.3509779e-38
-0.0016867067 0.016867066 0.96200001 2.3509814e-38
0.001405589 0.01658595 0.96200007 2.3509775e-38
0.0092768865 0.016867066 0.96200001 2.3509792e-38
0.014337006 0.016867066 0.96200001 2.3509797e-38
0.017921258 0.017499579 0.96199995 2.3509412e-38
0.021958163 0.017734382 0.96333331 2.3509322e-38
0.025956847 0.018230155 0.96399993 2.3507894e-38
-0.016885474 0.022794209 0.963 2.3509867e-38
-0.013793474 0.021675289 0.96333331 2.3509877e-38
-0.010131637 0.02110575 0.963 2.3509876e-38
-0.0075901798 0.021083834 0.96200001 2.3509874e-38
0.019397125 0.021927185 0.96200001 2.3509853e-38
0.021939021 0.021938145 0.96249998 2.3509762e-38
0.025071498 0.022254474 0.96399999 2.3232731e-38
-0.024457246 0.027830658 0.96200001 2.3509774e-38
-0.021949979 0.027014481 0.963 2.3509802e-38
-0.018738573 0.025827652 0.96280003 2.3509842e-38
0.022208303 0.025019482 0.96200007 2.3509767e-38
0.025908131 0.026189245 0.96366662 2.3509744e-38
-0.026743595 0.030683916 0.96333331 2.3509761e-38
0.027029825 0.030407619 0.96349996 2.3509705e-38
0.030423837 0.031268943 0.96399999 2.3508654e-38
0.034649372 0.031268943 0.96399999 2.0928293e-38
0.036339585 0.031268943 0.96399999 1.2261904e-38
-0.02957873 0.034649372 0.96399999 2.3508313e-38
-0.027016237 0.033769201 0.963 2.3509772e-38
0.027830658 0.033734135 0.96200001 2.3508277e-38
0.030408494 0.033786293 0.96349996 2.2860754e-38
0.03408597 0.03408597 0.96399999 2.1294873e-38
0.037184693 0.033804268 0.96399999 1.6686218e-38
-0.03012168 0.038003501 0.96333331 2.3045872e-38
-0.027830658 0.036264192 0.96200001 2.3508634e-38
0.027830658 0.036264192 0.96200001 2.3508287e-38
0.03081483 0.037567798 0.963 2.1846626e-38
0.033804268 0.038029801 0.96399993 2.0740623e-38
0.037546884 0.037788343 0.96399993 2.0280376e-38
-0.031204073 0.042167664 0.96200001 2.2861506e-38
0.031204073 0.041324314 0.96200001 2.1479312e-38
0.033476979 0.041915189 0.96266669 2.1110885e-38
0.037184693 0.041410226 0.96399999 2.1111238e-38
-0.032890782 0.046384431 0.96200001 2.0558434e-38
-0.033565465 0.050095182 0.96200001 2.1019418e-38
-0.033475809 0.053731482 0.96266669 2.1663716e-38
-0.056504674 0.15096024 0.96200001 2.0281476e-38
-0.056504674 0.15264696 0.96200001 2.0374388e-38
0.0016954732 -0.012716049 0.96700001 2.3509726e-38
0.0016954733 -0.01017284 0.96700001 2.3509706e-38
0.011020577 -0.0093251029 0.96700001 2.350971e-38
0.012716049 -0.0093251029 0.96700001 2.3509712e-38
0.018650208 -0.0093251029 0.96700001 2.3509737e-38
-0.0050864201 -0.0042386833 0.96700001 2.3509768e-38
-0.001271605 -0.0055102883 0.96700001 2.3509674e-38
0.0016954734 -0.0059341565 0.96700001 2.3509701e-38
0.0046625519 -0.0055102883 0.96700001 2.350971e-38
0.0098902611 -0.0059341565 0.96700001 2.3509734e-38
0.013846366 -0.0059341565 0.96700001 2.3509729e-38
0.018014405 -0.0057222224 0.96700001 2.3509731e-38
0.021617284 -0.0055102883 0.96700001 2.350937e-38
-0.0093251029 -0.0016954732 0.96700001 2.3508231e-38
-0.0059341565 -0.0016954734 0.96700001 2.3509716e-38
-0.0016954732 -0.0025432098 0.96700001 2.3509696e-38
0.0016954732 -0.0025432098 0.96700001 2.3509709e-38
0.0048038415 -0.0019780523 0.96700001 2.3509712e-38
0.022323733 -0.0019780523 0.96700001 2.3509371e-38
0.024584362 -0.00084773666 0.96700001 2.3509752e-38
-0.01017284 0.0016954732 0.96700001 2.3509722e-38
-0.006273251 0.0015259261 0.96700001 2.3509715e-38
0.02288889 0.0016954732 0.96700001 2.3509737e-38
0.024584362 0.0016954732 0.96700001 2.3509734e-38
-0.010003293 0.0059341565 0.96700001 2.3509006e-38
-0.0076296297 0.0050864201 0.96700001 2.3509737e-38
0.022323733 0.004803841 0.96700001 2.3509734e-38
0.025601646 0.0066123456 0.96700001 2.3509724e-38
-0.01017284 0.010172839 0.96700001 2.3509018e-38
-0.0076296297 0.011020577 0.96700001 2.3509738e-38
0.026279835 0.01017284 0.96700001 2.3509727e-38
0.029670782 0.011020577 0.96700001 2.3509733e-38
-0.0098902611 0.013281207 0.96700001 2.3509723e-38
-0.007064472 0.013846366 0.96700001 2.3509738e-38
0.026279837 0.013563788 0.96700001 2.3509738e-38
0.029670782 0.013563786 0.96700001 2.3509724e-38
-0.013563786 0.019497944 0.96700001 2.3509863e-38
-0.01017284 0.017802469 0.96700001 2.350982e-38
-0.0076296302 0.017802471 0.96700001 2.3509799e-38
0.027127571 0.016106997 0.96700001 2.3509653e-38
0.030348971 0.018141566 0.96700001 2.3415347e-38
-0.017802469 0.022041153 0.96700001 2.350986e-38
0.02741015 0.021758575 0.96700001 2.3323877e-38
0.029670782 0.022041153 0.96700001 2.2585606e-38
-0.026279837 0.027975308 0.96700001 2.3509761e-38
-0.022041153 0.024584362 0.96700001 2.3509816e-38
0.027975308 0.025432099 0.96700001 2.350974e-38
0.030348975 0.026618931 0.96700001 2.3047653e-38
0.033061728 0.027975308 0.96700001 2.0923929e-38
-0.030518519 0.030518519 0.96700001 2.3508711e-38
-0.027975308 0.029670782 0.96700001 2.3509762e-38
0.030518519 0.029670782 0.96700001 2.3509008e-38
0.033626884 0.030235942 0.96700001 2.203246e-38
0.03814815 0.030801099 0.96700001 1.069096e-38
-0.033061728 0.034757201 0.96700001 2.2864398e-38
-0.030801099 0.033626884 0.96700001 2.3324303e-38
0.033061728 0.033061728 0.96700001 2.2491978e-38
0.039843623 0.033909462 0.96700001 1.0325129e-38
-0.033061728 0.036452677 0.96700001 2.3415773e-38
-0.031366255 0.037300412 0.96700001 2.2770404e-38
-0.033061728 0.043234568 0.96700001 2.3045899e-38
0.034757201 0.043234568 0.96700001 2.1571817e-38
0.037300412 0.043234568 0.96700001 2.0742443e-38
-0.033061728 0.044930041 0.96700001 2.2123221e-38
0.034757201 0.045777779 0.96700001 2.1204164e-38
0.037300412 0.045777783 0.96700001 1.9729037e-38
0.043234568 0.045777779 0.96700001 1.3090965e-38
0.044930041 0.045777779 0.96700001 1.0969066e-38
-0.034757201 0.048320986 0.96700001 2.0466221e-38
0.034757201 0.048320986 0.96700001 2.028399e-38
0.03814815 0.050016463 0.96700001 1.9821965e-38
0.04238683 0.050016463 0.96700001 1.5674258e-38
0.044930041 0.050016463 0.96700001 1.0141106e-38
0.037300412 0.054255143 0.96700001 2.0927581e-38
0.043234568 0.053407408 0.96700001 1.6594768e-38
0.045777783 0.054255143 0.96700001 9.5882993e-39
0.038995884 0.056798354 0.96700001 2.037406e-38
0.041539095 0.056798354 0.96700001 1.862199e-38
0.01017284 0.18311112 0.96700001 1.1070482e-39
0.012716049 0.18226337 0.96700001 0
-0.0093540326 -0.017007332 0.97000003 2.3509738e-38
-0.0057399753 -0.017645108 0.97000015 2.3509715e-38
-0.0017007333 -0.017007332 0.97000003 2.3509695e-38
0.001984189 -0.016723879 0.97000003 2.3509646e-38
0.0051022 -0.017007332 0.97000003 2.3509731e-38
0.011054766 -0.016156966 0.97000003 2.3509729e-38
0.012755499 -0.016156966 0.97000003 2.3509729e-38
-0.0093540326 -0.013605866 0.97000003 2.3509689e-38
-0.0059525669 -0.013605866 0.97000015 2.3509305e-38
-0.0017007333 -0.013605866 0.97000003 2.3509743e-38
0.0017007333 -0.014456232 0.97000003 2.3509726e-38
0.0059525669 -0.013605867 0.97000015 2.3509722e-38
0.010204399 -0.013605866 0.97000003 2.3509694e-38
0.013605866 -0.013605866 0.97000003 2.3509703e-38
0.017857701 -0.013605866 0.97000015 2.3509737e-38
0.021259166 -0.012755499 0.97000003 2.3509698e-38
-0.0099209435 -0.0099209435 0.97000003 2.350972e-38
-0.0059525669 -0.010204399 0.97000015 2.3509345e-38
-0.0017007333 -0.010204399 0.97000003 2.3509668e-38
0.0059525669 -0.010204399 0.97000015 2.3509703e-38
0.0099209435 -0.010487854 0.97000003 2.350966e-38
0.013889322 -0.010487854 0.97000003 2.3509702e-38
0.017432516 -0.010629583 0.97000003 2.3509727e-38
0.022109533 -0.010204399 0.97000003 2.3509727e-38
0.024660634 -0.0093540326 0.97000003 2.3509758e-38
-0.013180682 -0.0055273832 0.97000003 2.3509716e-38
-0.010204399 -0.0059525669 0.97000015 2.3509692e-38
-0.0061955289 -0.0064384909 0.97000015 2.3509352e-38
-0.0025511 -0.0068029333 0.97000003 2.3509649e-38
0.0069730068 -0.0062927133 0.97000009 2.3509726e-38
0.0093540326 -0.0076533002 0.97000003 2.3509738e-38
0.014456232 -0.0076533002 0.97000003 2.350973e-38
0.016156966 -0.0076533002 0.97000003 2.3509734e-38
