# .PCD v0.7 - Point Cloud Data file format
VERSION 0.7
FIELDS x y z rgb
SIZE 4 4 4 4
TYPE F F F F
COUNT 1 1 1 1
WIDTH 992
HEIGHT 1
VIEWPOINT 0 0 0 1 0 0 0
POINTS 992
DATA ascii
-0.037608996 0.14366637 0.85799998 8.5652113e-39
-0.033848099 0.14266346 0.85799998 5.811238e-39
-0.030139361 0.14165749 0.85949999 7.1063012e-39
-0.027895533 0.14098553 0.86000001 7.2906995e-39
-0.070115805 0.14400128 0.86000001 5.170909e-39
-0.0655922 0.14601175 0.86000001 1.9433305e-39
-0.063183114 0.14592291 0.85799998 1.3854722e-39
-0.037608996 0.14592291 0.85799998 4.6094158e-39
-0.033915229 0.1454608 0.85971433 1.0185002e-39
-0.061523885 0.14891236 0.8593334 6.475176e-40
-0.057963442 0.14904796 0.85866666 9.4716566e-41
-0.053466145 0.15061219 0.85899997 1.3872967e-39
-0.050453916 0.15061221 0.85900003 8.3096999e-42
-0.045561239 0.15023611 0.85899997 2.8019944e-40
-0.042154804 0.14980128 0.85866666 3.7057758e-40
-0.038604677 0.14971428 0.85925001 4.5171851e-39
-0.035434868 0.14852487 0.86000001 1.0303776e-39
-0.052775331 0.15304846 0.86000001 4.98435e-39
-0.077835724 0.12317692 0.86199999 2.3509886e-38
-0.074812971 0.12317692 0.86199999 2.3509886e-38
-0.070278868 0.12317692 0.86199999 2.3509886e-38
-0.065744743 0.12317692 0.86199999 2.3509886e-38
-0.061966304 0.12317692 0.86199999 2.3509886e-38
-0.058187872 0.12317692 0.86199999 2.3509886e-38
-0.037784331 0.12317692 0.86199999 2.3509886e-38
-0.034005903 0.12317692 0.86199999 2.3509886e-38
-0.030227466 0.12317692 0.86199999 2.3509886e-38
-0.027960405 0.12317692 0.86199999 2.3509886e-38
-0.080858469 0.12619966 0.86199999 1.4464529e-38
-0.073301598 0.12468829 0.86199999 2.3509886e-38
-0.071790233 0.12468829 0.86199999 2.3509886e-38
-0.065744743 0.12468829 0.86199999 2.3509886e-38
-0.049875315 0.12544398 0.86199999 2.3509886e-38
-0.046096884 0.12619966 0.86199999 2.3509886e-38
-0.04186504 0.12529284 0.86199999 2.3509886e-38
-0.02040354 0.12468829 0.86199999 2.1207168e-38
-0.018892165 0.12695536 0.86199999 3.4152208e-39
-0.080858469 0.12997809 0.86199999 2.4118785e-39
-0.018892165 0.12922241 0.86199999 2.9672159e-39
-0.080858469 0.13224515 0.86199999 3.4275032e-39
-0.02040354 0.13375655 0.86199999 6.2790727e-39
-0.07833951 0.13829064 0.86199999 5.176688e-39
-0.024937658 0.13980202 0.86199999 6.2794244e-39
-0.022670599 0.13753498 0.86199999 6.4634541e-39
-0.076324344 0.1413134 0.86199999 5.5425754e-39
-0.027204718 0.14206909 0.86199999 7.4750837e-39
-0.073301598 0.14433615 0.86199999 5.9985019e-39
-0.070278861 0.14584753 0.86199999 5.5357063e-39
-0.066500425 0.14735889 0.86199999 1.5759507e-39
-0.032494523 0.14735889 0.86199999 0
-0.030983152 0.14509183 0.86199999 6.8246304e-39
-0.064233363 0.14887026 0.86199999 4.0584252e-39
-0.061966304 0.15113732 0.86199999 1.8467853e-39
-0.058187872 0.151893 0.86199999 4.6673468e-40
-0.055165123 0.151893 0.86199999 3.3219167e-39
-0.044585511 0.151893 0.86199999 9.3368517e-42
-0.037028644 0.151893 0.86199999 1.0139349e-38
-0.035013482 0.15038165 0.86199999 4.9825465e-39
-0.049875315 0.15340438 0.86199999 7.6605021e-39
-0.046096884 0.15340438 0.86199999 1.0328782e-38
-0.042318452 0.15340438 0.86199999 8.3962973e-39
-0.089688256 0.11933099 0.86699998 4.5179334e-39
-0.085583881 0.11872293 0.86700004 2.1753411e-38
-0.082087554 0.11857091 0.86699998 2.3509886e-38
-0.078408837 0.11789763 0.86625004 2.3509886e-38
-0.073346749 0.11895095 0.86699998 2.3509886e-38
-0.07017979 0.11882427 0.86699998 2.3509886e-38
-0.066126093 0.11933099 0.86699998 2.1942564e-38
-0.061565667 0.11933099 0.86699998 2.0456638e-38
-0.058525383 0.11933099 0.86699998 2.3504503e-38
-0.053204898 0.11933099 0.86699998 2.3509886e-38
-0.050164618 0.11933099 0.86699998 2.3509886e-38
-0.047884405 0.11933099 0.86699998 2.3509886e-38
-0.034203149 0.11933099 0.86699998 2.3509886e-38
-0.088928185 0.12237127 0.86699998 4.7059302e-39
-0.085691534 0.12208898 0.86500001 1.1888524e-38
-0.081803516 0.12194784 0.86400002 2.3508034e-38
-0.078016318 0.1211904 0.86400002 2.3509886e-38
-0.07385084 0.12165283 0.86549997 2.3509886e-38
-0.070235729 0.12150915 0.86520004 2.3509886e-38
-0.066011682 0.12139948 0.86550009 2.0192662e-38
-0.061783433 0.12128981 0.86580002 2.3417324e-38
-0.058099855 0.12150916 0.86520004 2.3509886e-38
-0.053861812 0.12213428 0.86533338 2.3509886e-38
-0.05007739 0.1221578 0.86549997 2.3509886e-38
-0.04631079 0.12222836 0.86600006 2.3509886e-38
-0.041722905 0.12213428 0.86533338 2.3509886e-38
-0.037971281 0.12150533 0.86625004 2.3509886e-38
-0.034143977 0.12139948 0.86550009 2.3509886e-38
-0.029591447 0.12139948 0.86549997 2.3509886e-38
-0.025812572 0.12222837 0.86600006 2.3509886e-38
-0.022000242 0.12213428 0.86533332 2.3509886e-38
-0.018380543 0.12258955 0.86639994 1.751898e-38
-0.01444133 0.12237125 0.86700004 6.1821701e-39
-0.01140105 0.12313133 0.86699998 8.0220988e-39
-0.089332335 0.12577187 0.86600006 7.1948493e-39
-0.085348241 0.12567034 0.8646 2.7723541e-39
-0.082560956 0.12573504 0.86400002 1.0138249e-38
-0.049233597 0.1249776 0.86400002 2.3509886e-38
-0.046203844 0.1249776 0.86400002 2.3509886e-38
-0.017966405 0.12577361 0.86600006 5.2598481e-39
-0.014745357 0.1260196 0.86700004 6.5523931e-39
-0.01140105 0.12541154 0.86699998 8.5741936e-39
-0.085043155 0.12931028 0.8646 2.9632502e-39
-0.082560956 0.12952225 0.86400002 2.2274872e-39
-0.017814962 0.13001472 0.86475003 3.9781476e-39
-0.015173785 0.12898834 0.86549997 5.9102832e-39
-0.08194685 0.13429832 0.86550003 4.5320361e-39
-0.018935999 0.13330944 0.86400002 6.2794398e-39
-0.081327483 0.13757266 0.86699998 5.1763321e-39
-0.079807341 0.1390928 0.86699998 5.3610779e-39
-0.021965759 0.13861151 0.86400002 6.4634555e-39
-0.019001748 0.13605252 0.86699998 6.4630898e-39
-0.077527136 0.14289315 0.86699998 6.002113e-39
-0.074986562 0.14315616 0.86400002 5.7240758e-39
-0.025529411 0.14281689 0.86500001 7.5686947e-39
-0.023161752 0.14163141 0.86625004 6.3708998e-39
-0.074359298 0.14567965 0.86549997 5.3502402e-39
-0.069684476 0.1477008 0.86400002 4.6816261e-40
-0.029256646 0.14598446 0.8646 7.3760119e-39
-0.02584238 0.14517337 0.86699998 7.1054899e-39
-0.072206646 0.14821364 0.86699998 1.9436612e-39
-0.069593303 0.15006779 0.86600006 2.6772774e-39
-0.066200256 0.15012461 0.86400002 3.6910832e-39
-0.033112578 0.15040006 0.86500001 3.3247922e-39
-0.029946757 0.14942975 0.86700004 5.6289515e-39
-0.066126093 0.15277407 0.86699998 5.08087e-39
-0.061891131 0.15378201 0.86625004 6.7356844e-39
-0.057765316 0.15429419 0.86699998 1.1156029e-38
-0.053900972 0.15512967 0.86600006 8.7589534e-39
-0.050164618 0.15581435 0.86699998 1.2625632e-38
-0.046203844 0.1552752 0.86400002 1.2725886e-38
-0.04135149 0.15516606 0.86550003 7.2910246e-39
-0.037937749 0.15478733 0.86549997 1.3003188e-38
-0.034583181 0.15391417 0.86699998 1.1802845e-38
-0.045604199 0.15733448 0.86699998 1.2907762e-38
-0.042563915 0.15733448 0.86699998 4.7088183e-39
-0.084757008 0.11530007 0.87099999 2.3509886e-38
-0.081320912 0.11491828 0.87099999 2.3509886e-38
-0.077884816 0.11453649 0.87099999 2.3509886e-38
-0.074010238 0.11368468 0.87033325 2.323366e-38
-0.070337243 0.11397245 0.87019998 2.3509886e-38
-0.066773944 0.11485209 0.87049997 2.3509886e-38
-0.06184971 0.11530007 0.87099999 2.3509886e-38
-0.058031823 0.11530007 0.87099999 2.3509527e-38
-0.054977518 0.11530007 0.87099999 2.2586856e-38
-0.034360953 0.11530007 0.87099999 2.3509886e-38
-0.02977949 0.11530007 0.87099999 2.3509886e-38
-0.025961606 0.11530007 0.87099999 2.3509886e-38
-0.022143722 0.11530007 0.87099999 2.3509886e-38
-0.019089416 0.11530007 0.87099999 2.3509886e-38
-0.089895152 0.11808262 0.86900002 7.0961488e-39
-0.086517356 0.11700694 0.86950004 2.2308419e-38
-0.082276918 0.11655897 0.86900002 2.3509886e-38
-0.076944157 0.11655897 0.86900002 2.3509886e-38
-0.074201591 0.11716843 0.86900008 2.3509886e-38
-0.069833808 0.11706685 0.86900008 2.3509886e-38
-0.066278636 0.1173208 0.86900008 2.3509886e-38
-0.061707687 0.1173208 0.86900008 2.1754954e-38
-0.057772506 0.11783154 0.86940002 2.3231149e-38
-0.054360472 0.11776227 0.86985719 2.3325137e-38
-0.050309706 0.11738785 0.86949998 2.3509886e-38
-0.046307065 0.11795923 0.86949998 2.3509886e-38
-0.041932423 0.11817203 0.86966664 2.3509886e-38
-0.038120389 0.11817204 0.8696667 2.3509886e-38
-0.034282051 0.1173208 0.86900008 2.3509886e-38
-0.029733904 0.11817203 0.86966664 2.3509886e-38
-0.025921863 0.11817204 0.8696667 2.3509886e-38
-0.022109827 0.11817203 0.86966664 2.3509886e-38
-0.017980307 0.11801875 0.87014282 2.3509886e-38
-0.014295802 0.1183741 0.86974996 1.5762546e-38
-0.0106778 0.11898032 0.87 6.642407e-39
-0.017521935 0.12112991 0.86900002 2.3509823e-38
-0.011427349 0.12112991 0.86900002 7.4689348e-39
-0.012950997 0.12722449 0.86900002 7.8420558e-39
-0.011427349 0.12722449 0.86900002 8.7585848e-39
-0.013976696 0.13037173 0.8696667 6.920475e-39
-0.011440499 0.12965988 0.87 8.3916002e-39
-0.084757008 0.13438949 0.87099999 4.1636067e-39
-0.017026326 0.13392924 0.8696667 6.2769063e-39
-0.082370721 0.13805045 0.87 4.9926597e-39
-0.020569229 0.13865185 0.86900002 6.4627339e-39
-0.018325839 0.1374438 0.87099999 6.1861442e-39
-0.081702702 0.14126167 0.87099999 5.361431e-39
-0.079991452 0.14093731 0.86900002 5.084484e-39
-0.021354722 0.14186132 0.87 5.8180861e-39
-0.077840544 0.1457594 0.87050003 5.0787148e-39
-0.075420506 0.1470319 0.86900002 4.7019771e-39
-0.025901992 0.1470319 0.86900002 6.8256968e-39
-0.023143707 0.14573152 0.87033337 7.2892491e-39
-0.073994547 0.15027708 0.87014294 5.0750798e-39
-0.070849568 0.15160283 0.86900002 8.2986983e-39
-0.028695343 0.15109496 0.86900008 1.1343655e-38
-0.025931505 0.15025306 0.87000006 1.0328083e-38
-0.070128508 0.15397729 0.86949998 9.5869106e-39
-0.066278629 0.15465012 0.86900008 9.0362689e-39
-0.033520225 0.15465012 0.86900002 7.5632618e-39
-0.029721921 0.15394764 0.86933339 1.2078681e-38
-0.026725182 0.15347891 0.87099999 1.3643531e-38
-0.069485478 0.1565332 0.87099999 7.9284738e-39
-0.066012122 0.15682513 0.87050003 7.5611389e-39
-0.061778694 0.15711707 0.87000006 7.3778028e-39
-0.058031823 0.1565332 0.87099999 1.2628257e-38
-0.054171275 0.15743151 0.87033337 8.4816294e-39
-0.049632482 0.15856943 0.87099999 1.0511015e-38
-0.046471223 0.15871319 0.86900008 1.2079794e-38
-0.04151937 0.15884015 0.86900002 8.3044282e-39
-0.038135 0.15864247 0.87 1.3277593e-38
-0.035351586 0.15793937 0.87033337 1.0695752e-38
-0.045814596 0.16111468 0.87099999 7.6536526e-39
-0.04276029 0.16111468 0.87099999 6.6402209e-39
-0.085146248 0.11122708 0.875 2.3509886e-38
-0.081566527 0.11020431 0.875 2.3509886e-38
-0.078242503 0.10969292 0.875 1.7333857e-38
-0.074350394 0.10960818 0.87433338 1.742857e-38
-0.070000455 0.11009494 0.87471437 2.0651471e-38
-0.066224858 0.11071569 0.875 2.3509886e-38
-0.062133752 0.11122708 0.875 2.3509886e-38
-0.058298331 0.11122708 0.875 2.3509886e-38
-0.055997081 0.11122708 0.875 2.3509886e-38
-0.037587084 0.11122708 0.875 2.3509886e-38
-0.033751667 0.11046 0.875 2.3509886e-38
-0.030223085 0.11061342 0.875 2.3509886e-38
-0.026080832 0.11122708 0.875 2.3509886e-38
-0.022245418 0.11122708 0.875 2.3509886e-38
-0.019177083 0.11122708 0.875 2.3509886e-38
-0.08944191 0.11521591 0.875 2.0185409e-38
-0.086027123 0.11393563 0.87460005 2.3509886e-38
-0.082272179 0.11321887 0.8738001 2.3509886e-38
-0.078063659 0.11250351 0.87300003 2.2312063e-38
-0.068879694 0.11250351 0.87300003 2.3509886e-38
-0.065818377 0.11326885 0.87300003 2.3509886e-38
-0.062038481 0.11335476 0.87366676 2.3509886e-38
-0.058231704 0.11339771 0.87400007 2.3509886e-38
-0.054190401 0.11374463 0.87414289 2.3509886e-38
-0.04979749 0.11414911 0.87388897 2.3509886e-38
-0.045972399 0.11493012 0.87400001 2.3509886e-38
-0.042157438 0.11420716 0.87433338 2.3509886e-38
-0.038000368 0.1140006 0.87442863 2.3509886e-38
-0.034133714 0.11342192 0.87300009 2.3509886e-38
-0.029882062 0.11339772 0.87400001 2.3509886e-38
-0.026051026 0.11339772 0.87400001 2.3509886e-38
-0.022212103 0.11335476 0.8736667 2.3509886e-38
-0.017420899 0.11390728 0.87350005 2.3509886e-38
-0.01378646 0.11412009 0.8736667 1.9729865e-38
-0.010406658 0.1142576 0.87471437 9.9495456e-39
-0.090308934 0.11709549 0.87300003 1.2433388e-38
-0.010714619 0.11709549 0.87300003 8.2057586e-39
-0.088214576 0.13500667 0.875 5.3570954e-39
-0.086482286 0.13393275 0.87300003 4.7124448e-39
-0.016071929 0.13546342 0.87300003 5.8155666e-39
-0.014052089 0.13311571 0.87433338 7.1945396e-39
-0.011506249 0.13270541 0.875 8.2976067e-39
-0.085592769 0.13771468 0.87433338 4.3462029e-39
-0.08342097 0.13852473 0.87300003 4.6238814e-39
-0.016607866 0.13822608 0.87433338 5.9091972e-39
-0.082579017 0.14232877 0.87379998 5.7287688e-39
-0.02066391 0.14311671 0.87300003 6.2783426e-39
-0.018651083 0.14078069 0.87433338 6.0013942e-39
-0.08198528 0.14557956 0.87400007 6.0042668e-39
-0.07882899 0.14770868 0.87300003 6.6463993e-39
-0.021452909 0.14557838 0.87400001 6.9219085e-39
-0.077927776 0.14997867 0.87433338 8.113591e-39
-0.022848213 0.1498197 0.87460005 8.9480166e-39
-0.077475414 0.15264958 0.875 8.4809414e-39
-0.074350983 0.15432197 0.87433338 1.0231549e-38
-0.025785398 0.15497042 0.8736667 1.0324801e-38
-0.0230125 0.15264958 0.875 8.1171811e-39
-0.069752567 0.15815388 0.87433338 9.496531e-39
-0.065818377 0.15918863 0.87300003 8.2068432e-39
-0.063522384 0.15995397 0.87300003 5.8036556e-39
-0.058165077 0.1584233 0.87300003 1.0049251e-38
-0.054338425 0.15944374 0.87300003 1.0232981e-38
-0.050511777 0.15995397 0.87300003 8.8514279e-39
-0.033444539 0.15803407 0.8736667 7.5621954e-39
-0.030647388 0.15707237 0.87400001 1.1433329e-38
-0.068270415 0.16032042 0.875 1.2813019e-38
-0.066736244 0.16032042 0.875 1.1528051e-38
-0.061366662 0.16032042 0.875 7.0975809e-39
-0.058042638 0.16083181 0.875 9.8656078e-39
-0.054846454 0.16147104 0.875 1.0879056e-38
-0.049803432 0.16243669 0.87400001 9.5890602e-39
-0.046025001 0.16338874 0.875 9.5879349e-39
-0.042158604 0.16275404 0.87433338 9.8652547e-39
-0.034518749 0.16032042 0.875 8.4830545e-39
-0.090928741 0.10325818 0.87900001 1.9083439e-38
-0.07312277 0.1039113 0.87800002 2.3509886e-38
-0.071583338 0.1039113 0.87800002 1.2908117e-38
-0.089914873 0.10570233 0.8785001 2.1849648e-38
-0.086114094 0.10590746 0.87966675 2.3509886e-38
-0.081999391 0.10577259 0.87885725 2.3509886e-38
-0.077800073 0.10552964 0.87866676 2.2035843e-38
-0.074080437 0.10580595 0.87840003 1.5955246e-38
-0.070096508 0.1063005 0.87866676 8.1164805e-39
-0.06592226 0.1067872 0.87949997 1.7612594e-38
-0.061717331 0.10723386 0.88 2.3509886e-38
-0.057859998 0.10723387 0.88 2.3509886e-38
-0.054002665 0.10723386 0.88 2.3509886e-38
-0.042430665 0.10723387 0.88 2.3509886e-38
-0.037801869 0.1064624 0.88000005 2.3509886e-38
-0.033918817 0.1056097 0.87933344 2.3509886e-38
-0.030064404 0.10560969 0.87933338 2.3509886e-38
-0.026360312 0.10590203 0.87919998 2.3509886e-38
-0.022744678 0.1067872 0.87950003 2.3509886e-38
-0.017743733 0.10723387 0.88 2.3509886e-38
-0.0138864 0.10723386 0.88 2.3509886e-38
-0.010029066 0.10569094 0.88000005 9.4043158e-39
-0.0069431998 0.10646239 0.88 8.4845189e-39
-0.093135305 0.11160843 0.87800002 3.3175783e-39
-0.090056457 0.11006901 0.87800014 2.0558535e-38
-0.08636184 0.10976111 0.87800008 2.3509886e-38
-0.083385609 0.10904273 0.87800002 2.3509886e-38
-0.069274202 0.10852958 0.87800002 2.3505574e-38
-0.065938778 0.10904273 0.87800002 2.3509886e-38
-0.062346779 0.10929929 0.87800014 2.3509886e-38
-0.057728499 0.10929929 0.87800014 2.3509886e-38
-0.053920846 0.11015141 0.87866676 2.3509886e-38
-0.050300132 0.1106158 0.87885725 2.3509886e-38
-0.046252932 0.11023499 0.87933344 2.3509886e-38
-0.042366378 0.11015142 0.87866676 2.3509886e-38
-0.037715957 0.10929929 0.87800014 2.3509886e-38
-0.033867389 0.10852958 0.87800002 2.3509886e-38
-0.029633962 0.10891443 0.87800002 2.3509886e-38
-0.026170254 0.10929929 0.87800002 2.3509886e-38
-0.022321686 0.10929929 0.87800014 2.3509886e-38
-0.017520621 0.10993837 0.8785001 2.3509886e-38
-0.013865361 0.11015141 0.87866676 2.3509886e-38
-0.010013871 0.11015142 0.87866676 9.6808802e-39
-0.0069326796 0.11015141 0.87866676 8.4834245e-39
-0.093135305 0.11391757 0.87800002 2.3952731e-39
-0.090441324 0.11353271 0.87800002 1.6958936e-38
-0.0461828 0.11314786 0.87800002 2.3509886e-38
-0.0084668463 0.11314786 0.87800002 7.1916123e-39
-0.090826176 0.13162097 0.87800002 7.6565533e-39
-0.090364352 0.13377617 0.87800008 7.0108321e-39
-0.013085127 0.13469984 0.87800002 7.1959885e-39
-0.0115457 0.13469984 0.87800002 8.3901554e-39
-0.089799896 0.1377787 0.87800014 6.643137e-39
-0.086977609 0.13931811 0.87800002 5.540758e-39
-0.013854841 0.1377787 0.87800014 7.7466315e-39
-0.010455376 0.13813411 0.87885725 8.4827126e-39
-0.08871866 0.14194986 0.88 6.7382221e-39
-0.086240917 0.14245105 0.87833345 6.4634457e-39
-0.01731855 0.14239697 0.87800002 6.1854211e-39
-0.01413245 0.14158575 0.87933338 7.5629493e-39
-0.010029066 0.1411784 0.88 8.2054083e-39
-0.08871866 0.14426425 0.88 7.0144489e-39
-0.086257428 0.14632925 0.87849998 5.9088216e-39
-0.02078226 0.14701524 0.87800002 6.8304276e-39
-0.017743733 0.14477856 0.88 5.9095559e-39
-0.014657865 0.14426425 0.88 7.3814364e-39
-0.085438177 0.14855468 0.87800002 6.275079e-39
-0.081908137 0.14969552 0.87866676 7.6587211e-39
-0.079280473 0.15163352 0.87800002 1.1615242e-38
-0.020829599 0.14889306 0.88 8.487428e-39
-0.078887723 0.15443301 0.87933338 9.9567763e-39
-0.023091398 0.15471236 0.87800002 8.1161063e-39
-0.07628841 0.15720123 0.87900001 9.4961359e-39
-0.073691428 0.15842536 0.87866676 1.0051124e-38
-0.071583338 0.15933065 0.87800002 8.1146546e-39
-0.030041613 0.1589385 0.87866676 1.1340416e-38
-0.069583952 0.16201968 0.87866676 5.255888e-39
-0.066195346 0.16240951 0.87800002 8.0213729e-39
-0.062346783 0.16240951 0.87800002 7.3749273e-39
-0.058113355 0.16356409 0.87800002 1.0417354e-38
-0.053879932 0.16394894 0.87800002 7.5632464e-39
-0.040794805 0.16394894 0.87800002 7.7433007e-39
-0.03812141 0.16288686 0.87850004 9.956702e-39
-0.033906836 0.16182476 0.87900001 7.1912367e-39
-0.064803198 0.16432239 0.88 7.2809044e-39
-0.061460178 0.1648367 0.88 8.6638192e-39
-0.057816751 0.16651115 0.87933338 9.5875566e-39
-0.053941302 0.16644831 0.87900001 8.8506964e-39
-0.050049778 0.16632149 0.87833345 7.8351306e-39
-0.046235397 0.16644831 0.87900007 1.1799885e-38
-0.042791415 0.16615681 0.87950003 9.3134906e-39
-0.037801865 0.16509385 0.88 8.5770326e-39
-0.057088532 0.1689512 0.88 8.1098901e-39
-0.054002665 0.1689512 0.88 8.4783602e-39
-0.050916798 0.1689512 0.88 6.6373216e-39
-0.088920295 0.10283826 0.88200003 2.3509886e-38
-0.085827425 0.10283826 0.88200009 2.3509886e-38
-0.081961319 0.10206504 0.88200003 2.3509886e-38
-0.07809522 0.10283826 0.88200009 2.3509886e-38
-0.074229121 0.10283826 0.88200003 2.3509886e-38
-0.071909457 0.10283826 0.88200003 2.3509886e-38
-0.037887782 0.10283826 0.88200009 2.3509886e-38
-0.034021683 0.10206504 0.88200003 2.3509886e-38
-0.03015558 0.10283826 0.88200009 2.3509886e-38
-0.02628948 0.10283826 0.88200003 2.3509886e-38
-0.085054196 0.10438471 0.88200003 2.3509886e-38
-0.069589794 0.10438471 0.88200003 4.068132e-39
-0.065723702 0.10541566 0.88200009 1.1722173e-38
-0.061857596 0.10593114 0.88200003 2.3509886e-38
-0.057991497 0.10593115 0.88200009 2.3509886e-38
-0.054125398 0.10593114 0.88200003 2.3509886e-38
-0.050259303 0.10747759 0.88200009 2.3509886e-38
-0.04561998 0.10696211 0.88200009 2.3509886e-38
-0.041753881 0.10515792 0.88200003 2.3509886e-38
-0.037887782 0.10438471 0.88200009 2.3509886e-38
-0.02551626 0.10438471 0.88200003 2.3509886e-38
-0.022036772 0.10515793 0.88200003 2.3509886e-38
-0.01817067 0.10554453 0.88200003 2.3509886e-38
-0.01366022 0.10541566 0.88200009 2.3509886e-38
-0.049486078 0.10902402 0.88200003 2.3509886e-38
-0.01314474 0.14304569 0.88200003 7.6551464e-39
-0.010825081 0.14304569 0.88200003 8.2061173e-39
-0.017784059 0.14665407 0.88200009 4.990475e-39
-0.01314474 0.14459214 0.88200003 8.1190014e-39
-0.010825081 0.14459214 0.88200003 8.9454802e-39
-0.085054196 0.15077789 0.88200003 6.0032061e-39
-0.081961319 0.15309757 0.88200003 9.6809013e-39
-0.07809522 0.15696366 0.88200003 9.4964778e-39
-0.027062699 0.1585101 0.88200003 1.0508487e-38
-0.02396982 0.15696366 0.88200003 8.9451691e-39
-0.074229121 0.16082975 0.88200003 9.0362395e-39
-0.071909457 0.1623762 0.88200003 3.7821886e-39
-0.033248462 0.16314942 0.88200003 7.447551e-40
-0.03015558 0.16082975 0.88200003 9.589765e-39
-0.069589794 0.16469586 0.88200003 2.3974437e-39
-0.066110305 0.16585569 0.88200003 5.8075778e-39
-0.062115338 0.16727327 0.88200009 7.0050055e-39
-0.041753881 0.16778874 0.88200003 6.643804e-39
-0.039434221 0.16778874 0.88200003 5.3469065e-39
-0.034021683 0.16469586 0.88200003 3.3237132e-39
-0.061084379 0.16933517 0.88200003 7.4674733e-39
-0.057991501 0.17036615 0.88200009 9.0311794e-39
-0.054125398 0.17088163 0.88200003 8.750987e-39
-0.050259303 0.17036615 0.88200009 7.0989948e-39
-0.04561998 0.16933517 0.88200009 1.0692824e-38
-0.053352181 0.17242806 0.88200003 4.9763808e-39
-0.051805738 0.17242806 0.88200003 7.5599267e-39
-0.089222744 0.09542954 0.88499999 1.6504559e-38
-0.086507268 0.095041618 0.88499999 2.3509886e-38
-0.083203554 0.095645212 0.88700002 2.3509886e-38
-0.089222744 0.097757094 0.88499999 2.3509886e-38
-0.086119346 0.097757086 0.88500011 2.3509886e-38
-0.081885047 0.097733431 0.88620007 2.3509886e-38
-0.07849279 0.098311149 0.8865 2.3509886e-38
-0.075427525 0.09875562 0.88700002 2.3509886e-38
-0.048989009 0.09875562 0.88700002 2.3509886e-38
-0.0458786 0.09875562 0.88700002 2.3509886e-38
-0.041990578 0.09875562 0.88700002 2.3509886e-38
-0.038044117 0.098607175 0.88566673 2.3509886e-38
-0.034137398 0.098532945 0.88499999 2.3509886e-38
-0.028771322 0.09875562 0.88700002 2.3509886e-38
-0.02566091 0.09875562 0.88700002 2.3509886e-38
-0.089222744 0.10086049 0.88499999 2.3509886e-38
-0.086119346 0.1008605 0.88500011 2.3509886e-38
-0.082240097 0.10008465 0.88499999 2.3509886e-38
-0.078389779 0.1008982 0.88533342 2.3509886e-38
-0.074116029 0.10115208 0.88620007 2.3509886e-38
-0.069984294 0.10264364 0.88700002 2.3509886e-38
-0.066096283 0.10264363 0.88700002 2.3509886e-38
-0.062208265 0.10264364 0.88700002 2.3509886e-38
-0.05812585 0.10206042 0.88700002 2.3509886e-38
-0.053654633 0.10264363 0.88700002 2.3509886e-38
-0.049748205 0.10182717 0.88666672 2.3509886e-38
-0.04582151 0.10173726 0.88588893 2.3509886e-38
-0.041895896 0.10163634 0.88500011 2.3509886e-38
-0.038016647 0.1008605 0.88500011 2.3509886e-38
-0.034137398 0.10008465 0.88499999 2.3509886e-38
-0.030280359 0.10093588 0.88566673 2.3509886e-38
-0.02541394 0.10132275 0.88614291 2.3509886e-38
-0.021756528 0.1017883 0.88633341 2.3509886e-38
-0.018136773 0.10234557 0.88666666 2.3509886e-38
-0.014246127 0.10282511 0.88633341 2.3509886e-38
-0.0108619 0.10318805 0.88499999 1.2723012e-38
-0.065171398 0.10473974 0.88499999 1.7436186e-38
-0.062067997 0.10473974 0.88499999 2.3509886e-38
-0.058188748 0.10473975 0.88499999 2.3509886e-38
-0.054309495 0.10473974 0.88499999 2.3509886e-38
-0.050430249 0.10551559 0.88500011 2.3509886e-38
-0.046085488 0.10536041 0.88500005 2.3509886e-38
-0.022499649 0.10473974 0.88499999 2.3509886e-38
-0.017068699 0.10473974 0.88499999 2.3509886e-38
-0.01474115 0.10473974 0.88499999 2.3509886e-38
-0.090774447 0.14275639 0.88499999 7.7476769e-39
-0.089222744 0.14663564 0.88499999 7.1048411e-39
-0.01399686 0.14696702 0.88700002 7.5661779e-39
-0.010886447 0.14696702 0.88700002 8.6696262e-39
-0.089222744 0.14818735 0.88499999 6.9204484e-39
-0.02094795 0.15129074 0.88499999 8.3973833e-39
-0.018171722 0.14956477 0.8858 7.198487e-39
-0.01399686 0.14852224 0.88700002 7.2892323e-39
-0.01166405 0.14852224 0.88700002 8.7603771e-39
-0.085439928 0.15379275 0.88600004 4.6202646e-39
-0.082240097 0.15516999 0.88499999 8.1161007e-39
-0.020995291 0.15318786 0.88700002 7.9364094e-39
-0.082166754 0.15785348 0.88700002 7.1023369e-39
-0.079395317 0.15853202 0.88499999 9.8649128e-39
-0.024827197 0.15904924 0.88499999 1.0508867e-38
-0.022525072 0.15845311 0.88600004 9.1277555e-39
-0.080093138 0.16096389 0.88700002 8.8511084e-39
-0.077716939 0.16165075 0.8865 8.7585708e-39
-0.074740216 0.16318712 0.88499999 5.8101085e-39
-0.030258149 0.16266988 0.88499999 5.7204324e-39
-0.025948107 0.16144079 0.88619995 6.5512805e-39
-0.076982729 0.16407429 0.88700002 5.8082826e-39
-0.073495351 0.16610222 0.88620007 2.676204e-39
-0.069826499 0.16680774 0.88499999 2.8587792e-39
-0.036464948 0.16680774 0.88499999 1.1984649e-38
-0.034175098 0.16699623 0.88600004 4.5193277e-39
-0.030623192 0.16524377 0.88660002 2.5904544e-39
-0.027216116 0.16407429 0.88700002 6.6427545e-39
-0.072317109 0.16873991 0.88700002 2.5223372e-44
-0.069673084 0.1691315 0.88633341 3.4119488e-39
-0.066013873 0.17008296 0.88588893 8.1099378e-39
-0.062373959 0.17107478 0.88566673 8.3883394e-39
-0.059740443 0.17146283 0.88499999 8.9426034e-39
-0.048878551 0.17146283 0.88499999 7.3690867e-39
-0.045775145 0.17146283 0.88499999 1.0691743e-38
-0.041895896 0.17068699 0.88499999 1.0696858e-38
-0.037854027 0.17024998 0.88575006 1.1893183e-38
-0.034992151 0.16873991 0.88700002 6.8195703e-39
-0.064541079 0.17340554 0.88700002 1.013863e-38
-0.062208265 0.17418315 0.88700002 6.8217521e-39
-0.058211248 0.17385614 0.88533342 4.1494956e-39
-0.054568112 0.17404902 0.88499999 5.0718246e-39
-0.050119907 0.17394555 0.88500005 1.0505193e-38
-0.045775145 0.17379038 0.88500011 1.2076509e-38
-0.041943237 0.17398764 0.88599998 1.171099e-38
-0.038491365 0.17379434 0.88700002 1.1893556e-38
-0.058320254 0.17651597 0.88700002 1.2031997e-39
-0.053654626 0.17651597 0.88700002 2.6747677e-39
-0.049766615 0.17651595 0.88700002 6.6351524e-39
-0.0458786 0.17651597 0.88700002 1.2719303e-38
-0.024214407 0.091389857 0.89099997 2.3509886e-38
-0.021871079 0.091389857 0.89099997 2.3509886e-38
-0.018746639 0.091389857 0.89099997 2.3509886e-38
-0.085777 0.093574964 0.88949996 2.3509886e-38
-0.081729218 0.094212078 0.88999993 2.3509886e-38
-0.078892104 0.094514303 0.89099997 2.3509886e-38
-0.024735149 0.093993567 0.89099997 2.3509886e-38
-0.02183835 0.094371706 0.88966668 2.3509886e-38
-0.018154139 0.094777316 0.88928574 2.3509886e-38
-0.014288206 0.095341295 0.88900006 1.6318996e-38
-0.077792764 0.096524209 0.89033335 2.3509886e-38
-0.073893003 0.098263644 0.89099997 2.3509886e-38
-0.070299894 0.09841986 0.89099997 2.3509886e-38
-0.066394344 0.09841986 0.89099997 2.3509886e-38
-0.061851025 0.097750515 0.89024997 2.3509886e-38
-0.05775889 0.097564518 0.89033335 2.3509886e-38
-0.053655941 0.097750515 0.89024997 2.3509886e-38
-0.050176602 0.098012209 0.88966668 2.3509886e-38
-0.045710977 0.096882358 0.88980001 2.3509886e-38
-0.042132597 0.096748054 0.88999999 2.3509886e-38
-0.038245168 0.096784584 0.89033329 2.3509886e-38
-0.033587731 0.097638749 0.89099997 2.3509886e-38
-0.030157333 0.097491466 0.88966668 2.3509886e-38
-0.025747698 0.096748054 0.88999999 2.3509886e-38
-0.021821987 0.098198943 0.889 2.3509886e-38
-0.017944783 0.098309688 0.88999999 2.3509886e-38
-0.01429931 0.098013386 0.88966668 1.899266e-38
-0.072480172 0.100537 0.889 2.3509886e-38
-0.070142105 0.100537 0.889 2.3509886e-38
-0.066245317 0.100537 0.88900006 2.3509886e-38
-0.061569177 0.100537 0.88900006 2.3509886e-38
-0.053775609 0.100537 0.88900006 2.3509886e-38
-0.017405633 0.10105658 0.88900006 2.3509886e-38
-0.013768635 0.10105658 0.88900006 2.3509886e-38
-0.011690349 0.10209572 0.889 1.8902645e-38
-0.017145846 0.15119518 0.889 7.3814335e-39
-0.01402842 0.15119518 0.889 7.8402313e-39
-0.011690349 0.15041582 0.889 8.6660389e-39
-0.02104263 0.15509197 0.889 7.7509195e-39
-0.018345125 0.15379231 0.89050001 6.7364215e-39
-0.085140981 0.15778421 0.89099997 3.8841429e-39
-0.08339116 0.1582094 0.889 5.4431897e-39
-0.021089969 0.15778421 0.89099997 7.0119462e-39
-0.081894986 0.16144663 0.88966668 5.1673147e-39
-0.024160055 0.16288553 0.889 3.8823156e-39
-0.022601342 0.16132683 0.889 6.4569535e-39
-0.08045432 0.16481419 0.89099997 5.7190353e-39
-0.077935666 0.1652236 0.889 4.7059428e-39
-0.075597592 0.16756167 0.889 5.0725729e-39
-0.029377392 0.16716775 0.88966668 4.0681138e-39
-0.026042784 0.16576661 0.88940001 6.8285905e-39
-0.07412304 0.17009085 0.88999999 3.5992323e-39
-0.070921458 0.17067909 0.889 0
-0.033549156 0.1704814 0.88999999 3.4094082e-39
-0.031208456 0.16931063 0.88999999 4.3356917e-39
-0.073424339 0.1726253 0.89099997 2.490389e-39
-0.070220999 0.17321266 0.88999999 2.3970836e-39
-0.06661737 0.17488955 0.88980001 9.8620317e-39
-0.037409119 0.17535524 0.889 1.235273e-38
-0.034629207 0.17314605 0.89099997 5.0700015e-39
-0.064832121 0.17809306 0.89099997 8.7589085e-39
-0.061937023 0.17800978 0.88980001 1.4776286e-39
-0.057672393 0.17847267 0.889 3.7487537e-40
-0.053775609 0.17847268 0.88900006 1.0134345e-39
-0.049878825 0.17847267 0.889 3.4126242e-39
-0.045982044 0.17847268 0.88900006 1.0780703e-38
-0.042132597 0.17789406 0.88999999 1.1890301e-38
-0.038274389 0.17731196 0.89099997 1.152331e-38
-0.060145464 0.1804364 0.89099997 5.5346273e-39
-0.057802133 0.1804364 0.89099997 3.1392799e-39
-0.053896587 0.18043642 0.89099997 5.542808e-40
-0.049991034 0.1804364 0.89099997 2.9513321e-39
-0.046085488 0.18043642 0.89099997 4.9742326e-39
-0.042179935 0.1804364 0.89099997 1.1520761e-38
-0.085427657 0.091697574 0.89399999 2.3509886e-38
-0.083076432 0.091697574 0.89399999 2.3509886e-38
-0.025340926 0.090652585 0.89399999 2.3509886e-38
-0.02194472 0.090130091 0.89399999 2.3509886e-38
-0.0195935 0.090130091 0.89399999 2.3509886e-38
-0.077276759 0.093892053 0.89399999 2.3509886e-38
-0.073671557 0.094048798 0.89399999 2.3509886e-38
-0.069752857 0.094048798 0.89399999 2.3509886e-38
-0.066095404 0.094310045 0.89399999 2.3509886e-38
-0.061915457 0.094832532 0.89399999 2.3509886e-38
-0.057996757 0.094832532 0.89399999 2.3509886e-38
-0.054078057 0.094832532 0.89399999 2.3509886e-38
-0.050159357 0.094832532 0.89399999 2.3509886e-38
-0.046240658 0.094832532 0.89399999 2.3509886e-38
-0.042321958 0.094832532 0.89399999 2.3509886e-38
-0.038403258 0.094832532 0.89399999 2.3509886e-38
-0.03370082 0.094832532 0.89399999 2.3509886e-38
-0.02978212 0.094048798 0.89399999 2.3509886e-38
-0.026908405 0.093787551 0.89399999 2.3509886e-38
-0.017242279 0.093265057 0.89399999 2.3509886e-38
-0.014891059 0.093265057 0.89399999 1.475782e-38
-0.076022781 0.096400015 0.89399999 2.3509886e-38
-0.073671557 0.096400015 0.89399999 2.3509886e-38
-0.069752857 0.096400015 0.89399999 2.3509886e-38
-0.065834157 0.096400015 0.89399999 2.3509886e-38
-0.060347974 0.096400015 0.89399999 2.3509886e-38
-0.055645537 0.096400015 0.89399999 2.3509886e-38
-0.050159357 0.096400015 0.89399999 2.3509886e-38
-0.047808137 0.096400015 0.89399999 2.3509886e-38
-0.03370082 0.096400015 0.89399999 2.3509886e-38
-0.017242279 0.15518051 0.89399999 6.6442371e-39
-0.014107319 0.15439677 0.89399999 8.3004976e-39
-0.0195935 0.15831548 0.89399999 6.550968e-39
-0.083337687 0.16327915 0.89399999 3.2373414e-39
-0.02194472 0.16223417 0.89399999 5.6336809e-39
-0.081508957 0.16615286 0.89399999 3.6950685e-39
-0.079157732 0.16693661 0.89399999 4.8903719e-39
-0.024295939 0.16693661 0.89399999 6.7364173e-39
-0.077590257 0.17007159 0.89399999 4.2453136e-39
-0.029520875 0.17111656 0.89399999 5.3534688e-39
-0.026908405 0.17007157 0.89399999 6.9207861e-39
-0.076022781 0.17320654 0.89399999 3.88011e-39
-0.073671557 0.17477401 0.89399999 2.2155888e-39
-0.032655831 0.17425153 0.89399999 3.3175797e-39
-0.03056586 0.17399028 0.89399999 3.0485837e-39
-0.072887816 0.17634149 0.89399999 1.4012985e-45
-0.069752857 0.17712523 0.89399999 4.6097675e-39
-0.066617899 0.17869271 0.89399999 9.5879419e-39
-0.038403258 0.17947647 0.89399999 1.1338197e-38
-0.034745805 0.176864 0.89399999 4.6061353e-39
-0.065050416 0.18104392 0.89399999 8.9436795e-39
-0.061915457 0.18156642 0.89399999 7.9302577e-39
-0.057996757 0.18261142 0.89399999 6.2710404e-39
-0.054078057 0.18261144 0.89399999 1.9379075e-39
-0.050159357 0.18261142 0.89399999 2.8594896e-39
-0.046240658 0.18261144 0.89399999 4.150199e-39
-0.042321958 0.18261142 0.89399999 1.0970499e-38
-0.038403258 0.18104392 0.89399999 1.1428937e-38
-0.05721302 0.18417889 0.89399999 1.0050711e-38
-0.054078057 0.18417889 0.89399999 8.6656171e-39
-0.050943099 0.18417889 0.89399999 4.8852319e-39
-0.061405241 0.079511911 0.898 2.3509886e-38
-0.059043497 0.079511911 0.898 2.3509886e-38
-0.062192492 0.081873648 0.89799994 2.3509886e-38
-0.059043497 0.081873655 0.898 2.3509886e-38
-0.076362923 0.08738438 0.898 2.3509886e-38
-0.074001178 0.08738438 0.898 2.3509886e-38
-0.070064947 0.08659713 0.89799994 2.3509886e-38
-0.066391133 0.086859547 0.898 2.3509886e-38
-0.062192485 0.08633472 0.898 2.3509886e-38
-0.059043497 0.084235385 0.898 2.3509886e-38
-0.025941735 0.087254636 0.89666671 2.3509886e-38
-0.022779306 0.087189756 0.89600003 2.3509886e-38
-0.084047787 0.090331733 0.89600003 2.3509886e-38
-0.081429474 0.090855405 0.89600009 2.3509886e-38
-0.077783518 0.090353742 0.89622223 2.3509886e-38
-0.073836371 0.090331733 0.89600003 2.3509886e-38
-0.069943197 0.090375759 0.89644444 2.3509886e-38
-0.066030532 0.090397775 0.89666671 2.3509886e-38
-0.062115148 0.090420179 0.89688885 2.3509886e-38
-0.058213007 0.090464994 0.89733332 2.3509886e-38
-0.054471459 0.090653248 0.89724994 2.3509886e-38
-0.049866553 0.091081105 0.89720005 2.3509886e-38
-0.046070587 0.091354981 0.89679998 2.3509886e-38
-0.043202132 0.091902718 0.89600003 2.3509886e-38
-0.036973126 0.090464994 0.89733332 2.3509886e-38
-0.033826474 0.090464987 0.89733326 2.3509886e-38
-0.029882353 0.090431385 0.89700001 2.3509886e-38
-0.026549673 0.089703336 0.89600003 2.3509886e-38
-0.021993812 0.088760741 0.89600003 2.3509886e-38
-0.065195948 0.093473703 0.89600003 2.3509886e-38
-0.062053975 0.093473703 0.89600009 2.3509886e-38
-0.058126509 0.093473703 0.89600003 2.3509886e-38
-0.05419904 0.093473703 0.89600009 2.3509886e-38
-0.050271571 0.093473703 0.89600003 2.3509886e-38
-0.046344109 0.093473703 0.89600009 2.3509886e-38
-0.041353416 0.092927366 0.89680004 2.3509886e-38
-0.03799415 0.093018427 0.89666671 2.3509886e-38
-0.033776209 0.093473703 0.89600009 2.3509886e-38
-0.08738438 0.15981106 0.898 3.3313279e-39
-0.017300138 0.15806125 0.89700001 6.4605605e-39
-0.014411815 0.15695432 0.89666671 8.1157574e-39
-0.08659713 0.16138555 0.898 2.9621894e-39
-0.019637333 0.16102614 0.89600003 5.8177204e-39
-0.084141582 0.16671132 0.89700001 3.2376889e-39
-0.082476795 0.16731007 0.89600003 2.7763506e-39
-0.022830153 0.16610904 0.898 6.7360641e-39
-0.081737325 0.16976167 0.89649999 2.8671071e-39
-0.079334825 0.17045206 0.89600003 4.707054e-39
-0.025162961 0.16985504 0.89700001 6.9208029e-39
-0.081086405 0.17240702 0.898 4.1542334e-39
-0.078148171 0.17406392 0.89680004 3.3262496e-39
-0.029063253 0.17437951 0.89600003 6.3676277e-39
-0.027008345 0.17385235 0.89733332 6.6460055e-39
-0.076192856 0.176736 0.89600003 2.7784666e-39
-0.074153721 0.17791599 0.89666671 3.506322e-39
-0.070301652 0.17948523 0.89600003 3.0428033e-39
-0.033462014 0.1786212 0.89600003 3.8703653e-39
-0.03066843 0.17772049 0.89700001 3.4152236e-39
-0.073738769 0.18080431 0.898 1.9375488e-39
-0.069962099 0.18158397 0.89666671 3.3190189e-39
-0.06598144 0.18223445 0.89600003 8.6663458e-39
-0.062839471 0.18301994 0.89600003 8.6667297e-39
-0.040060163 0.18301994 0.89600003 1.1705566e-38
-0.037703678 0.18301994 0.89600003 1.0784329e-38
-0.033835825 0.18177298 0.8976 4.3324281e-39
-0.030702619 0.18027948 0.898 3.4155711e-39
-0.061765112 0.18529356 0.89749998 8.2060879e-39
-0.058126509 0.18616192 0.89600003 8.6663304e-39
-0.05419904 0.18694741 0.89600003 8.2035698e-39
-0.050084554 0.18591528 0.89733332 4.8860012e-39
-0.046344109 0.18537644 0.89600003 7.1919696e-39
-0.041646052 0.1854457 0.8963334 7.3781349e-39
-0.03802162 0.18539044 0.89733332 6.1781708e-39
-0.058256254 0.18893918 0.898 6.6391027e-39
-0.054320019 0.18972644 0.898 4.7051637e-39
-0.050383784 0.18815194 0.898 4.7944908e-39
-0.065559767 0.079777539 0.90100002 2.3509886e-38
-0.063980013 0.079777539 0.90100002 2.3509886e-38
-0.05687112 0.079777539 0.90100002 2.3509886e-38
-0.053711616 0.078987665 0.90100002 2.3509886e-38
-0.050211519 0.079471149 0.90200001 2.3509886e-38
-0.04670617 0.079954632 0.903 2.3509886e-38
-0.068871804 0.083121151 0.903 2.3509886e-38
-0.06634964 0.082147166 0.90100002 2.3509886e-38
-0.056871116 0.082147166 0.90100002 2.3509886e-38
-0.053800594 0.082284369 0.90250003 2.3509886e-38
-0.049872689 0.082329519 0.903 2.3509886e-38
-0.045914538 0.082329519 0.903 2.3509886e-38
-0.042197298 0.082341969 0.90140003 2.3509886e-38
-0.037998237 0.083121151 0.903 2.3509886e-38
-0.082239226 0.087773621 0.90200001 2.3509876e-38
-0.078987665 0.087676309 0.90100002 2.3509886e-38
-0.069509149 0.084516801 0.90100002 2.3509886e-38
-0.066086352 0.085043393 0.90100002 2.3509886e-38
-0.062400259 0.085833266 0.90100002 2.3509886e-38
-0.057479087 0.086317465 0.90125 2.3509886e-38
-0.05377093 0.086190954 0.90199995 2.3509886e-38
-0.04984853 0.086244412 0.90255558 2.3509886e-38
-0.045880642 0.086222798 0.90233326 2.3509886e-38
-0.041925412 0.08622279 0.90233338 2.3509886e-38
-0.037970185 0.086222798 0.90233338 2.3509886e-38
-0.034014959 0.086222798 0.90233338 2.3509886e-38
-0.030048918 0.086190954 0.90199995 2.3509886e-38
-0.026855808 0.086096555 0.90100002 2.3509886e-38
-0.082239226 0.089355126 0.90200001 2.3509886e-38
-0.052921735 0.089256063 0.90100002 2.3509886e-38
-0.04976223 0.089256071 0.90100002 2.3509886e-38
-0.045812845 0.089256063 0.90100002 2.3509886e-38
-0.041863464 0.090045944 0.90100002 2.3509886e-38
-0.038703956 0.090045944 0.90100002 2.3509886e-38
-0.090245813 0.158326 0.903 6.2729014e-39
-0.087870926 0.15911762 0.903 3.9759784e-39
-0.089700535 0.16162051 0.90149999 5.627162e-39
-0.086886436 0.16350447 0.90100002 2.3164795e-39
-0.02137401 0.16386741 0.903 6.0914304e-39
-0.018999118 0.16307577 0.903 6.4598444e-39
-0.086751722 0.16585627 0.90233338 2.7774492e-39
-0.02137401 0.1662423 0.903 6.3698208e-39
-0.084610604 0.17080359 0.90200001 1.6732457e-39
-0.024486175 0.17140323 0.90100002 7.0126454e-39
-0.022536032 0.16961703 0.90199995 6.368362e-39
-0.082329519 0.1741586 0.903 3.0532962e-39
-0.02530323 0.17396486 0.90200001 6.4619786e-39
-0.081537887 0.17653349 0.903 3.2352016e-39
-0.078870781 0.17857817 0.90266669 2.4997595e-39
-0.029225437 0.17851213 0.90100002 6.1810925e-39
-0.026915418 0.17732511 0.903 6.1857434e-39
-0.076788113 0.18128327 0.903 3.0522018e-39
-0.075204842 0.18286653 0.903 4.6148164e-39
-0.02979527 0.18220377 0.90233338 5.7190171e-39
-0.072566077 0.18497753 0.90300006 7.2307001e-43
-0.069443397 0.18555298 0.90220004 4.9789129e-39
-0.066596337 0.18618558 0.90220004 7.9284318e-39
-0.063190132 0.18720077 0.90100002 8.2060879e-39
-0.037124202 0.18720077 0.90100002 5.1683405e-39
-0.034325879 0.18555228 0.90220004 3.3186475e-39
-0.030873569 0.18444978 0.903 4.2435227e-39
-0.065705292 0.18919957 0.90300006 8.7563638e-39
-0.061678756 0.18978167 0.90200001 8.387989e-39
-0.059240751 0.19036028 0.90100002 6.3632543e-39
-0.053711612 0.19194002 0.90100002 5.9004769e-39
-0.04936729 0.18996534 0.90100002 4.4267971e-39
-0.045863692 0.18978167 0.90200001 6.454001e-39
-0.042352207 0.18959539 0.903 5.4409561e-39
-0.037998237 0.18919957 0.903 6.9168106e-39
-0.05778899 0.19236609 0.90300006 4.3335337e-39
-0.049872693 0.19236609 0.90300006 4.7008771e-39
-0.04670617 0.19236608 0.903 7.190438e-39
-0.03494744 0.083397299 0.90600002 2.3509886e-38
-0.091541529 0.16318272 0.90799999 7.6561875e-39
-0.01667946 0.16202903 0.90600002 6.735704e-39
-0.01509094 0.16123477 0.90600002 7.3789168e-39
-0.089818589 0.16612132 0.9066667 4.8921417e-39
-0.0198565 0.1667946 0.90600002 6.0010383e-39
-0.088357478 0.16955082 0.90799999 1.4885083e-39
-0.086669892 0.17016011 0.90700001 1.9494878e-39
-0.021445019 0.17076591 0.90600002 5.6344081e-39
-0.0198565 0.16997164 0.90600002 5.4496595e-39
-0.086765453 0.17273489 0.90799999 2.4100792e-39
-0.083581395 0.17591894 0.90799999 3.0529431e-39
-0.024622058 0.17553145 0.90600002 6.1861274e-39
-0.022080427 0.17426063 0.90600008 5.3574569e-39
-0.019878417 0.17334066 0.90700001 4.7120987e-39
-0.08198937 0.179103 0.90799999 2.8681987e-39
-0.025151566 0.178179 0.90600002 6.2783174e-39
-0.022536762 0.17791133 0.90733337 5.7262408e-39
-0.081399672 0.18162253 0.90733337 3.0536508e-39
-0.078160092 0.18307957 0.9066667 2.3160843e-39
-0.026769016 0.18155679 0.90700006 6.5538015e-39
-0.077213287 0.18626711 0.90799999 1.6703576e-39
-0.074925192 0.18612158 0.90600002 2.6765599e-39
-0.032564659 0.1866511 0.90600002 5.162895e-39
-0.030216068 0.18606284 0.90700001 5.7182983e-39
-0.07344538 0.1895774 0.90733337 1.0141589e-39
-0.070084944 0.19023035 0.90640002 4.0540588e-39
-0.065923586 0.19141667 0.90600002 8.1102881e-39
-0.041301519 0.19141667 0.90600002 5.9937473e-39
-0.038165681 0.19162793 0.90700001 7.5603766e-39
-0.034209725 0.18934728 0.90750003 4.2395374e-39
-0.031044517 0.18865515 0.90799999 4.6115962e-39
-0.069253162 0.19343123 0.90799999 6.1698387e-39
-0.066021182 0.19408523 0.90733337 3.7745852e-39
-0.062020659 0.19401422 0.90700006 1.2950478e-39
-0.058108971 0.19502327 0.90799999 5.0703771e-39
-0.054009676 0.1945937 0.90600002 7.9269759e-39
-0.050038379 0.19459371 0.90600002 5.5277553e-39
-0.045802325 0.19406419 0.90600002 8.5726886e-39
-0.042469241 0.19389762 0.90720004 7.1897625e-39
-0.039004654 0.19343123 0.90799999 3.8700641e-39
-0.053332891 0.19661528 0.90799999 7.1861276e-39
-0.050148837 0.19661528 0.90799999 4.5118097e-39
-0.046168771 0.19661528 0.90799999 5.0656771e-39
-0.043780729 0.19661528 0.90799999 3.9619108e-39
-0.018348632 0.16513771 0.91000003 6.0013858e-39
-0.089349866 0.16992429 0.91000003 2.86637e-39
-0.018348632 0.16912653 0.91000003 5.4503742e-39
-0.085361034 0.1747109 0.91000003 2.8717762e-39
-0.024730766 0.18268856 0.91000003 7.0148118e-39
-0.023135234 0.18109304 0.91000003 6.4634429e-39
-0.080574431 0.18508185 0.91000003 3.4209773e-39
-0.078978904 0.18587962 0.91000003 2.0402205e-39
-0.029517367 0.18747516 0.91000003 6.82465e-39
-0.027124066 0.18508185 0.91000003 6.5527239e-39
-0.077383369 0.1890707 0.91000003 1.6692674e-39
-0.075787835 0.19066623 0.91000003 3.413762e-39
-0.032708433 0.19066623 0.91000003 5.1615063e-39
-0.070203468 0.19465506 0.91000003 3.7749509e-39
-0.040686097 0.19545284 0.91000003 3.8725247e-39
-0.038292799 0.19465506 0.91000003 4.3320932e-39
-0.035899498 0.19226177 0.91000003 7.0986978e-39
-0.065416858 0.19704837 0.91000003 1.6595213e-39
-0.062225796 0.19704837 0.91000003 2.1233862e-39
-0.058236968 0.19704837 0.91000003 5.3469388e-39
-0.054248132 0.19784614 0.91000003 5.6202676e-39
-0.050259303 0.19864391 0.91000003 2.9451945e-39
-0.046270467 0.19864391 0.91000003 2.2087154e-39
-0.042281635 0.19758022 0.91000003 2.1176184e-39
-0.093966566 0.16664258 0.91300005 8.574181e-39
-0.017341927 0.1667493 0.91299999 6.0028221e-39
-0.0144387 0.16604505 0.91500008 7.5640227e-39
-0.092846006 0.16968408 0.91299999 8.3919519e-39
-0.090444818 0.17048448 0.91299999 4.4297062e-39
-0.016808329 0.16968408 0.91299999 5.2659815e-39
-0.092782013 0.17299703 0.91500008 9.3146313e-39
-0.089742608 0.17387719 0.91400003 4.157455e-39
-0.087243229 0.17528686 0.91299999 2.871056e-39
-0.018028211 0.17347611 0.91400003 4.4380426e-39
-0.085784025 0.17797954 0.9145 2.5930468e-39
-0.020009914 0.17768805 0.91299999 4.6220625e-39
-0.084534779 0.18148884 0.91400003 2.5923307e-39
-0.022034576 0.18229011 0.91400003 6.3712557e-39
-0.082621448 0.18529664 0.91500002 4.4358369e-39
-0.025364012 0.186095 0.91366673 7.567966e-39
-0.023262348 0.18529664 0.91500002 7.937459e-39
-0.080928601 0.18910137 0.91400003 4.1585522e-39
-0.078820229 0.18997221 0.91433334 2.5912265e-39
-0.02930679 0.19009726 0.91340011 5.6286138e-39
-0.025936184 0.18904001 0.91500008 6.8314757e-39
-0.076037683 0.19289558 0.91299999 3.3226776e-39
-0.073957644 0.19410479 0.91366667 1.2003551e-39
-0.036017846 0.19449638 0.91299999 3.5938373e-39
-0.033634633 0.19380251 0.91349995 4.0543937e-39
-0.031283852 0.19331814 0.91500002 4.6104821e-39
-0.072995648 0.19652675 0.91500002 2.4878176e-39
-0.069710784 0.19818246 0.91400003 4.0584056e-39
-0.065705284 0.19951704 0.91400003 2.0276018e-39
-0.061630543 0.19929877 0.91299999 1.935032e-39
-0.057628557 0.19929875 0.91299999 3.4072642e-39
-0.055227365 0.19929875 0.91299999 3.9604058e-39
-0.041620627 0.19929875 0.91299999 3.2243345e-39
-0.03765396 0.19788457 0.91385716 5.2554872e-39
-0.034492448 0.19652675 0.91500002 2.0300667e-39
-0.064974152 0.20133965 0.91500002 6.269691e-39
-0.061765548 0.20214181 0.91500008 4.8878173e-39
-0.0577548 0.20214181 0.91500002 3.6896413e-39
-0.053725056 0.20206845 0.91466665 3.045711e-39
-0.049678944 0.20192176 0.91399997 4.2427982e-39
-0.045672581 0.20192176 0.91400003 5.2590998e-39
-0.041688569 0.20203178 0.9145 5.7215507e-39
-0.038770586 0.20187442 0.91500008 6.6438685e-39
-0.048931152 0.20454825 0.91500002 4.0645769e-39
-0.047326848 0.20454825 0.91500002 3.7876383e-39
-0.015290819 0.17061335 0.91799998 6.7353537e-39
-0.016900379 0.17463724 0.91799998 5.0834176e-39
-0.015290819 0.17383248 0.91799998 6.7367998e-39
-0.092751332 0.17743734 0.92000002 8.4859608e-39
-0.090375558 0.17833398 0.9188 4.9850562e-39
-0.087721013 0.17946592 0.91799998 2.3153627e-39
-0.017559633 0.17833468 0.9188 5.6380375e-39
-0.014672242 0.17784445 0.91960001 7.6605484e-39
-0.090234414 0.18207841 0.91900003 6.2747076e-39
-0.087184489 0.18214855 0.91799998 3.1444031e-39
-0.020141415 0.18207929 0.91900003 5.7269681e-39
-0.018550266 0.18227652 0.92000002 5.5440286e-39
-0.085939631 0.18590558 0.91960001 4.4351391e-39
-0.082892336 0.18751372 0.91799998 4.6191744e-39
-0.02228136 0.18711339 0.91866672 7.2928533e-39
-0.02494818 0.19073285 0.91799998 6.7396935e-39
-0.023389466 0.18953532 0.92000002 6.8315164e-39
-0.081282772 0.1923424 0.91799998 4.1567543e-39
-0.078419589 0.19435909 0.91839999 4.3404099e-39
-0.029467924 0.19435909 0.91839999 6.0910226e-39
-0.025780136 0.19335759 0.91899997 6.8343806e-39
-0.076454096 0.19717108 0.91799998 6.4555312e-39
-0.074362375 0.1983885 0.91866672 4.7059722e-39
-0.0335325 0.19824414 0.91799998 7.1948408e-39
-0.030917108 0.19813836 0.92000002 8.1157406e-39
-0.07339453 0.20082679 0.92000002 4.2518212e-39
-0.070495397 0.20181742 0.91900003 4.8950424e-39
-0.066260219 0.20307282 0.91799998 6.9154205e-39
-0.03675162 0.20199977 0.91799998 6.3679935e-39
-0.034143247 0.20136449 0.92000002 7.0151636e-39
-0.069093019 0.20459062 0.92000002 3.9745351e-39
-0.065819554 0.20605466 0.91933334 2.5004672e-39
-0.062035561 0.20624898 0.91900003 2.8681805e-39
-0.058007278 0.20624897 0.91900003 4.4326111e-39
-0.053978994 0.20624898 0.91900003 3.6972237e-39
-0.050237089 0.20659232 0.9193334 2.6845221e-39
-0.045610514 0.20645499 0.91920006 4.433721e-39
-0.042147797 0.2059056 0.91866672 4.4358776e-39
-0.037878431 0.20497927 0.9193334 4.1603669e-39
-0.058070399 0.20889212 0.92000002 2.9600202e-39
-0.053231198 0.20889212 0.92000002 1.9523184e-39
-0.049198534 0.20889212 0.92000002 4.2518212e-39
-0.046778932 0.20889212 0.92000002 5.817705e-39
-0.096290432 0.17558843 0.92299998 9.0369696e-39
-0.094672106 0.17558843 0.92299998 9.7745346e-39
-0.096290432 0.17801592 0.92299998 9.0351731e-39
-0.094672106 0.17801592 0.92299998 9.5883469e-39
-0.093458362 0.18165715 0.92299998 8.6681857e-39
-0.013755776 0.18044341 0.92299998 7.4758152e-39
-0.089007959 0.18610755 0.92299998 5.1716181e-39
-0.020229081 0.18610755 0.92299998 6.6478482e-39
-0.018610757 0.18529838 0.92299998 7.1088221e-39
-0.08658047 0.18853503 0.92299998 4.5269788e-39
-0.083343819 0.19096254 0.92299998 4.711726e-39
-0.022656571 0.19096254 0.92299998 6.647851e-39
-0.081725493 0.19500835 0.92299998 4.0670796e-39
-0.077679679 0.19905417 0.92299998 5.444982e-39
-0.028860157 0.19824502 0.92300004 8.2140837e-39
-0.026702389 0.19662668 0.92299998 7.7534783e-39
-0.07444302 0.20229082 0.92299998 3.699016e-39
-0.033175696 0.20309998 0.92299998 6.5534707e-39
-0.031557366 0.20229082 0.92299998 6.9240609e-39
-0.072554976 0.20525776 0.92300004 3.2387637e-39
-0.069857769 0.20741555 0.92300004 2.7785072e-39
-0.067160554 0.20795497 0.92299998 2.8717734e-39
-0.041267328 0.20795497 0.92299998 3.333846e-39
-0.038030673 0.20714581 0.92299998 3.8863009e-39
-0.034794021 0.20471831 0.92299998 5.1719824e-39
