# .PCD v0.7 - Point Cloud Data file format
VERSION 0.7
FIELDS x y z rgb
SIZE 4 4 4 4
TYPE F F F F
COUNT 1 1 1 1
WIDTH 622
HEIGHT 1
VIEWPOINT 0 0 0 1 0 0 0
POINTS 622
DATA ascii
0.026615599 0.13469106 0.92000002 2.3509886e-38
0.030164346 0.13404582 0.92000002 2.3509886e-38
0.0338744 0.13388452 0.92000002 2.3509884e-38
0.037907064 0.13388452 0.92000002 2.3509874e-38
0.022237277 0.13814765 0.92000008 2.3509799e-38
0.025790364 0.1378161 0.9193334 2.350983e-38
0.029820109 0.13781609 0.91933334 2.3509851e-38
0.033849854 0.13781609 0.91933334 2.3509849e-38
0.037907071 0.13791722 0.91999996 2.3509828e-38
0.041536465 0.13832046 0.92000002 2.350979e-38
0.018550266 0.14194986 0.92000002 2.3509713e-38
0.02174367 0.14174414 0.91866672 2.3509708e-38
0.025752958 0.14164126 0.91799998 2.3509743e-38
0.029776856 0.14164126 0.9180001 2.3509764e-38
0.033800758 0.14164126 0.91799998 2.3509754e-38
0.037893914 0.14189814 0.91966671 2.3509769e-38
0.041939735 0.14194986 0.92000002 2.3509719e-38
0.044359334 0.14275639 0.92000002 2.3509699e-38
0.017896974 0.14624098 0.91960001 2.3505721e-38
0.021738797 0.14573531 0.91844451 2.3414617e-38
0.02575296 0.14566517 0.9180001 2.3509336e-38
0.029776858 0.14566517 0.9180001 2.3509696e-38
0.033800758 0.14566517 0.9180001 2.3509719e-38
0.037824657 0.14566517 0.9180001 2.3509345e-38
0.041864049 0.14571749 0.91833341 2.3508613e-38
0.045511525 0.14621298 0.92000008 2.3506814e-38
0.01773365 0.14993411 0.91949999 2.2673821e-38
0.02172906 0.14968908 0.9180001 2.3041502e-38
0.025752958 0.14968908 0.91799998 2.3505365e-38
0.02977686 0.14968908 0.9180001 2.2583807e-38
0.033800758 0.14968908 0.91799998 2.1658524e-38
0.037824661 0.14968908 0.9180001 2.2858868e-38
0.041848563 0.14968908 0.91799998 2.3228774e-38
0.045972399 0.15001521 0.92000002 2.3043298e-38
0.017743733 0.15404788 0.92000002 2.1845126e-38
0.02172906 0.15371297 0.9180001 2.1659648e-38
0.02575296 0.15371299 0.9180001 2.2120619e-38
0.029776858 0.15371297 0.9180001 2.1752579e-38
0.033800758 0.15371299 0.9180001 1.9907587e-38
0.037824657 0.15371297 0.9180001 2.1843688e-38
0.041879542 0.15382519 0.91866672 2.2122098e-38
0.045511529 0.15381745 0.92000008 2.2028821e-38
0.018550266 0.15808053 0.92000002 2.1199757e-38
0.021767925 0.15802354 0.91966671 2.0555126e-38
0.025752958 0.15773687 0.91799998 2.0186348e-38
0.02977686 0.15773688 0.9180001 2.0922815e-38
0.033800758 0.15773687 0.91799998 2.184443e-38
0.037824661 0.15773688 0.9180001 2.1660068e-38
0.041895024 0.15790871 0.91900003 2.0094152e-38
0.045165867 0.15808053 0.92000002 1.9817552e-38
0.023389466 0.16211319 0.92000002 1.9632811e-38
0.025799423 0.16205505 0.91966671 1.9539909e-38
0.029820109 0.1619969 0.91933334 1.9355523e-38
0.033849854 0.16199689 0.91933334 1.8893808e-38
0.037889142 0.16203566 0.91955554 1.8617587e-38
0.041939735 0.16211319 0.92000002 1.8894894e-38
0.044359334 0.16050012 0.92000002 2.0001955e-38
0.026615599 0.16533934 0.92000002 1.7788186e-38
0.029841732 0.16533934 0.92000002 1.8156616e-38
0.0338744 0.16533934 0.92000002 1.7973301e-38
0.03831033 0.16574261 0.92000002 1.7603812e-38
0.041133199 0.16614586 0.92000002 1.7971864e-38
0.023465736 0.1318936 0.92299998 2.3509886e-38
0.025893226 0.1318936 0.92299998 2.3509886e-38
0.030262707 0.13124628 0.92299998 2.3509886e-38
0.033984859 0.13108446 0.92299998 2.3509886e-38
0.038030677 0.13108446 0.92299998 2.3509883e-38
0.041267328 0.1318936 0.92299998 2.3509872e-38
0.021847408 0.13432111 0.92299998 2.3509879e-38
0.025623506 0.13405138 0.92300004 2.3509883e-38
0.028320715 0.13351195 0.92299998 2.3509886e-38
0.042076491 0.13432111 0.92299998 2.3509851e-38
0.018071316 0.13944581 0.92300004 2.3509752e-38
0.020229081 0.13755776 0.92299998 2.3509823e-38
0.042885654 0.13755776 0.92299998 2.3509772e-38
0.045798641 0.13933793 0.92299998 2.3509719e-38
0.016992429 0.14241274 0.92299998 2.3509715e-38
0.046445973 0.14225091 0.92299998 2.3509698e-38
0.015374102 0.1456494 0.92299998 2.3508971e-38
0.016992429 0.14484023 0.92299998 2.3509677e-38
0.047740631 0.1456494 0.92299998 2.3508994e-38
0.015374102 0.1496952 0.92300004 2.3136916e-38
0.04935896 0.14888604 0.92299998 2.2859661e-38
0.015374102 0.15374103 0.92299998 2.2858184e-38
0.047740631 0.15455019 0.92299998 2.2120658e-38
0.016992429 0.15859601 0.92299998 2.1383789e-38
0.047740631 0.15778685 0.92300004 2.0370366e-38
0.04935896 0.15697768 0.92299998 2.0371459e-38
0.017801594 0.16183266 0.92299998 2.0184191e-38
0.021038245 0.16183266 0.92299998 2.0000129e-38
0.046445973 0.1619945 0.92299998 1.9449518e-38
0.017801594 0.16426013 0.92299998 1.8248817e-38
0.021645118 0.16608077 0.92299992 1.8156254e-38
0.025623506 0.16695736 0.92300004 1.8064405e-38
0.029939041 0.1674968 0.92300004 1.7972562e-38
0.033984859 0.1674968 0.92299998 1.8156243e-38
0.037221514 0.1674968 0.92299998 1.7326152e-38
0.042885654 0.16668764 0.92299998 1.7880748e-38
0.044908561 0.16547389 0.92299998 1.7604162e-38
0.030262707 0.16976246 0.92299998 1.7325794e-38
0.033984859 0.16911513 0.92299998 1.7418315e-38
0.038030677 0.16911513 0.92300004 1.7049212e-38
0.042076491 0.16911513 0.92299998 1.6957736e-38
0.026847038 0.12284553 0.92799997 2.3509886e-38
0.030426642 0.1221947 0.92799997 2.3509886e-38
0.03389778 0.12230317 0.92799997 2.3509886e-38
0.036609598 0.12284553 0.92799997 2.3509886e-38
0.015457386 0.12772682 0.92799997 2.3509886e-38
0.017898025 0.12691328 0.92799997 2.3509886e-38
0.021965759 0.12609972 0.92799991 2.3509886e-38
0.026019027 0.12603091 0.92750001 2.3509886e-38
0.030057391 0.12591679 0.92666668 2.3509886e-38
0.034114167 0.12589416 0.92649996 2.3509886e-38
0.038195491 0.12596209 0.92700005 2.3509886e-38
0.042304426 0.12691326 0.92799997 2.3509886e-38
0.046372157 0.12691328 0.92799997 2.3509872e-38
0.049626343 0.12772682 0.92799997 2.3509828e-38
0.014237065 0.13057423 0.92799997 2.350988e-38
0.017882904 0.1300616 0.92724997 2.3509883e-38
0.021894751 0.12974668 0.92500007 2.3509886e-38
0.025949333 0.12974666 0.92500001 2.3509886e-38
0.029598456 0.1293412 0.92500001 2.3509886e-38
0.0340585 0.12893574 0.92500001 2.3509886e-38
0.038113084 0.12893574 0.92500007 2.3509886e-38
0.042167664 0.12974666 0.92500001 2.3509873e-38
0.04634805 0.1300969 0.92750001 2.3509849e-38
0.050439887 0.13016745 0.92799997 2.3509802e-38
0.0097625591 0.13504875 0.92799997 2.3509807e-38
0.01382474 0.13418639 0.92766666 2.3509853e-38
0.017840166 0.13380125 0.92500007 2.3509865e-38
0.021083832 0.13217942 0.92500001 2.3509886e-38
0.042978581 0.13217942 0.92500001 2.3509853e-38
0.046222251 0.13380125 0.92500007 2.3509818e-38
0.050331187 0.13394414 0.92600006 2.3509745e-38
0.053422894 0.13531993 0.92799997 2.3509694e-38
0.0065083727 0.13830292 0.92799997 2.3509684e-38
0.0097625591 0.13830292 0.92799997 2.350972e-38
0.013798734 0.13800487 0.926 2.3509744e-38
0.01756986 0.13758552 0.92500007 2.3509799e-38
0.046627708 0.13745037 0.92500001 2.350975e-38
0.050276831 0.13785583 0.92500001 2.3509716e-38
0.053694077 0.13830292 0.92799997 2.3509661e-38
0.056134716 0.13911647 0.92799997 2.3507533e-38
0.0061597098 0.1426031 0.92800003 2.3508941e-38
0.0097511634 0.14221635 0.92699999 2.3509677e-38
0.013785584 0.14191042 0.92500007 2.3509701e-38
0.050276831 0.14191042 0.92500007 2.3509331e-38
0.053637095 0.14221635 0.92699999 2.3507154e-38
0.056785554 0.14269607 0.92799997 2.3505362e-38
0.0056948266 0.1464384 0.92799997 2.3505345e-38
0.0097454656 0.1462017 0.92649996 2.3321317e-38
0.012974666 0.145965 0.92500001 2.3507157e-38
0.050276831 0.145965 0.92500001 2.3230603e-38
0.053694077 0.14643839 0.92799997 2.2583756e-38
0.056948267 0.14643839 0.92799997 2.2950402e-38
0.0056948261 0.14969258 0.92799997 2.2763124e-38
0.0099047562 0.14988878 0.92620003 2.3133697e-38
0.012974667 0.15001959 0.92500007 2.3227675e-38
0.050682291 0.15042503 0.92500001 2.2029157e-38
0.053694077 0.14969258 0.92799997 2.2029892e-38
0.056948267 0.14969258 0.92799997 2.2212847e-38
0.0056948266 0.15376031 0.92799991 2.0921742e-38
0.009586175 0.15388584 0.92679995 2.2488315e-38
0.012974666 0.15407416 0.92500001 2.2580867e-38
0.050276831 0.15407416 0.92500001 2.1844391e-38
0.053694081 0.15376031 0.92799997 2.0832073e-38
0.056134716 0.15376031 0.92799997 2.0830624e-38
0.0061015994 0.15742126 0.92799997 2.0645501e-38
0.0097454656 0.15757293 0.92649996 2.0830248e-38
0.013785583 0.15812874 0.92500007 2.1567818e-38
0.050682291 0.1585342 0.92500001 1.9910128e-38
0.053694077 0.15782803 0.92799997 1.9819374e-38
0.0073219193 0.16189578 0.92799997 1.9538454e-38
0.0097625591 0.16189578 0.92799997 1.9815385e-38
0.013785584 0.16218334 0.92500007 2.018454e-38
0.050276831 0.16218333 0.92500001 1.9079668e-38
0.053694077 0.16189578 0.92799997 1.9079302e-38
0.056134716 0.16108224 0.92799997 1.89882e-38
0.0097625591 0.1659635 0.92799997 1.7325745e-38
0.013993245 0.16610257 0.9253751 1.7787802e-38
0.017840166 0.16704883 0.92500001 1.7602747e-38
0.047195353 0.16656227 0.92500001 1.7142844e-38
0.05011465 0.16591355 0.92500001 1.7418712e-38
0.053694077 0.1659635 0.92799997 1.640673e-38
0.010576106 0.16840415 0.92799997 1.6312686e-38
0.013590712 0.17041762 0.92757148 1.5668397e-38
0.017840166 0.1702925 0.92500001 1.5853537e-38
0.021894749 0.1702925 0.92500007 1.6681126e-38
0.025949333 0.1702925 0.92500001 1.7049538e-38
0.028382082 0.17110342 0.92500001 1.7049214e-38
0.0340585 0.17110342 0.92500001 1.6866236e-38
0.038113084 0.17110342 0.92500007 1.6406e-38
0.042167664 0.17110342 0.92500001 1.622198e-38
0.046248116 0.17038499 0.92550004 1.5577677e-38
0.050602596 0.17035668 0.92799997 1.4377741e-38
0.052880529 0.16921771 0.92799997 1.4561048e-38
0.014915022 0.17382781 0.92799997 1.4192239e-38
0.017882902 0.17395893 0.92724997 1.4101478e-38
0.021894751 0.17353615 0.92500007 1.4655027e-38
0.025969714 0.17367752 0.92574996 1.5022722e-38
0.030206645 0.17414434 0.92500007 1.4930524e-38
0.034220684 0.1740227 0.92500001 1.5023084e-38
0.037910353 0.17414434 0.92500007 1.4931595e-38
0.042167664 0.17353615 0.92500001 1.4286611e-38
0.046323068 0.17391226 0.92699999 1.3642331e-38
0.050168708 0.1738278 0.92799997 1.2718602e-38
0.028474132 0.17653961 0.92799997 1.3548321e-38
0.033355411 0.17653961 0.92799997 1.3732712e-38
0.039863784 0.17735316 0.92799997 1.2625652e-38
0.042304426 0.17735316 0.92799997 1.2072853e-38
0.045558609 0.17653961 0.92799997 1.2626405e-38
0.026089599 0.1198491 0.93000001 2.3509886e-38
0.030166101 0.11984911 0.93000001 2.3509886e-38
0.0342426 0.1198491 0.93000001 2.3509886e-38
0.036688495 0.1198491 0.93000001 2.3509886e-38
0.022339221 0.12245806 0.93000001 2.3509886e-38
0.025817832 0.12202324 0.93000001 2.3509886e-38
0.028535498 0.1214797 0.93000001 2.3509886e-38
0.035057899 0.1214797 0.93000001 2.3509886e-38
0.038645219 0.12213194 0.93000001 2.3509886e-38
0.042395599 0.122295 0.93000001 2.3509886e-38
0.0456568 0.1231103 0.93000001 2.3509886e-38
0.048102695 0.1231103 0.93000001 2.3509886e-38
0.014675399 0.12637149 0.93000001 2.3509886e-38
0.017936599 0.1247409 0.93000001 2.3509886e-38
0.042395599 0.1247409 0.93000001 2.3509886e-38
0.0456568 0.1247409 0.93000001 2.3509886e-38
0.049733296 0.12582797 0.93000001 2.3509858e-38
0.0097835995 0.13126329 0.93000001 2.3509856e-38
0.0130448 0.12881739 0.93000001 2.3509883e-38
0.051363897 0.12800209 0.93000001 2.3509828e-38
0.052994497 0.13126329 0.93000001 2.3509747e-38
0.0067941668 0.13398096 0.93000001 2.3509759e-38
0.0097835995 0.13289389 0.93000001 2.350983e-38
0.053809799 0.13370919 0.93000001 2.350971e-38
0.0050548599 0.13713346 0.93000001 2.3509684e-38
0.057070993 0.13778569 0.93000001 2.3508602e-38
0.0024458999 0.1418622 0.93000001 2.3508617e-38
0.0040765 0.1418622 0.93000001 2.3509643e-38
0.058701597 0.1418622 0.93000001 2.3228787e-38
0.0016306 0.14593869 0.93000001 2.3319174e-38
0.059516899 0.14593869 0.93000001 2.2398313e-38
0.061147496 0.14593869 0.93000001 2.1937334e-38
0.0016306 0.15001521 0.93000001 2.1474516e-38
0.059516896 0.15001521 0.93000001 2.1383824e-38
0.061147496 0.15001521 0.93000001 2.0645899e-38
0.0016306 0.1540917 0.93000001 1.9999789e-38
0.058538534 0.15376559 0.93000001 2.0830617e-38
0.061147496 0.1524611 0.93000001 2.0185213e-38
0.0024458999 0.1581682 0.93000001 1.9446627e-38
0.0048917998 0.1589835 0.93000001 2.0184516e-38
0.057070993 0.1581682 0.93000001 1.9816496e-38
0.0052994499 0.16183704 0.93000001 1.8985623e-38
0.05734276 0.16224471 0.93000001 1.7974772e-38
0.0073376996 0.16632119 0.93000001 1.741794e-38
0.056255694 0.16632119 0.93000001 1.5946847e-38
0.009511834 0.16985416 0.93000001 1.5760599e-38
0.054625098 0.1695824 0.93000001 1.4377017e-38
0.056255694 0.1695824 0.93000001 1.3363246e-38
0.0105989 0.17202829 0.93000001 1.4285086e-38
0.012773033 0.17474596 0.93000001 1.3730539e-38
0.051363897 0.1752895 0.93000001 9.5835965e-39
0.05364674 0.17333278 0.93000001 1.1150569e-38
0.0154907 0.17692009 0.93000001 1.2718235e-38
0.017936599 0.17692009 0.93000001 1.2994412e-38
0.022013098 0.1769201 0.93000001 1.29948e-38
0.026361367 0.17746362 0.93000001 1.2717846e-38
0.030166101 0.17855069 0.93000001 1.1888812e-38
0.0342426 0.17855069 0.93000001 1.207319e-38
0.037503794 0.17855069 0.93000001 1.1796604e-38
0.0456568 0.17855069 0.93000001 8.3865121e-39
0.048917994 0.17692009 0.93000001 1.1429325e-38
0.035057899 0.18018129 0.93000001 1.1520042e-38
0.038319096 0.18018131 0.93000001 1.1242389e-38
0.041580297 0.18018129 0.93000001 1.0596662e-38
0.026229866 0.11557535 0.935 2.3509886e-38
0.030328281 0.11557536 0.93500006 2.3509886e-38
0.034426697 0.11557535 0.935 2.3509886e-38
0.03688575 0.11557535 0.935 2.3509886e-38
0.040984165 0.11557535 0.935 2.3509886e-38
0.018033031 0.11885408 0.935 2.3509886e-38
0.022122977 0.11799201 0.93466675 2.3509886e-38
0.026201813 0.11790727 0.93400002 2.3509886e-38
0.030273639 0.11782371 0.9333334 2.3509886e-38
0.03437103 0.1178446 0.93350005 2.3509886e-38
0.037645381 0.1178446 0.93349999 2.3509886e-38
0.041759141 0.11790729 0.93400002 2.3509886e-38
0.045902267 0.11803439 0.935 2.3509886e-38
0.048361316 0.11885408 0.935 2.3509886e-38
0.0098361988 0.12377217 0.935 2.3509886e-38
0.014135374 0.12230465 0.93475002 2.3509886e-38
0.018007318 0.1219575 0.93366671 2.3509886e-38
0.021675145 0.12064467 0.93300003 2.3509886e-38
0.038442709 0.1202357 0.93300003 2.3509886e-38
0.04171443 0.1202357 0.93300003 2.3509886e-38
0.045804083 0.12105363 0.93300003 2.3509886e-38
0.050165929 0.12182949 0.93425 2.3509886e-38
0.05382587 0.12322572 0.93500006 2.350983e-38
0.0068306942 0.12650445 0.93500006 2.3509876e-38
0.0098305009 0.1261633 0.93449998 2.3509886e-38
0.013495845 0.12555225 0.93300003 2.3509886e-38
0.050711662 0.12514329 0.93300003 2.3509867e-38
0.054070607 0.1261633 0.93449998 2.350982e-38
0.0024590499 0.13196902 0.935 2.3509705e-38
0.0059372247 0.13042913 0.93425 2.3509813e-38
0.0098151602 0.12923294 0.93300003 2.3509877e-38
0.054193951 0.12983452 0.93380004 2.3509783e-38
0.057651054 0.13087609 0.93500006 2.3509722e-38
0.0024590499 0.13442805 0.935 2.3509682e-38
0.0046378593 0.13396314 0.93366671 2.3509682e-38
0.054801308 0.1333226 0.93300003 2.3509715e-38
0.058157187 0.13433221 0.93433332 2.3509685e-38
0.0018011993 0.13807939 0.93419999 2.3509695e-38
0.059331924 0.13789439 0.93350005 2.3508236e-38
0.061476246 0.13852647 0.935 2.3507882e-38
-0.00081968331 0.14180522 0.93500006 2.3505715e-38
0.00081909884 0.14170294 0.93433332 2.3506799e-38
0.05970889 0.14150189 0.93300003 2.3504663e-38
0.06227402 0.14175409 0.93466663 2.3135861e-38
-0.00163849 0.14574757 0.93400002 2.2858185e-38
0.063115619 0.14590362 0.935 2.1937332e-38
0.064754978 0.14590362 0.935 2.110793e-38
-0.00163849 0.14984164 0.93400002 2.1197586e-38
0.062980607 0.1496812 0.93300003 2.0645895e-38
0.064754978 0.15000205 0.93500006 1.9908331e-38
-0.0016384899 0.15393566 0.93400002 2.0183122e-38
0.062525332 0.15426324 0.93433332 1.9264034e-38
0.064754978 0.15410046 0.935 1.797258e-38
-0.0014747287 0.15773635 0.93419999 1.8892358e-38
0.00081792998 0.15867841 0.93300003 1.8801258e-38
0.05970889 0.15786049 0.93300003 1.9724316e-38
0.062230185 0.15802969 0.93400002 1.8064413e-38
0.064754978 0.15819888 0.93500006 1.5022298e-38
-0.00081968331 0.16229729 0.935 1.7693104e-38
0.0016362981 0.16203737 0.93350005 1.7971811e-38
0.0040896498 0.16276807 0.93300003 1.8248782e-38
0.059836879 0.16229729 0.935 1.7881828e-38
0.062022708 0.16202407 0.93500006 1.6129043e-38
0.0016380516 0.16548793 0.93449998 1.6955922e-38
0.0049075801 0.16603978 0.93300003 1.7325022e-38
0.058778573 0.16585428 0.93380004 1.6223435e-38
0.061476246 0.16475634 0.935 1.5210366e-38
0.0024590499 0.16803508 0.935 1.6767963e-38
0.0054990803 0.17003864 0.93442869 1.5388616e-38
0.059131343 0.16985646 0.93419999 1.1151634e-38
-0.0040984168 0.17377286 0.935 2.5796826e-39
-0.0019125945 0.17404608 0.93500006 1.5640803e-39
0.00081968331 0.17459254 0.935 2.4795584e-39
0.006825434 0.17337632 0.93433332 1.4189316e-38
0.0098199816 0.17431244 0.93350005 1.4006378e-38
0.054801308 0.17585494 0.93300003 2.484966e-39
0.057900544 0.17410754 0.93350005 3.963291e-39
-0.00081968331 0.17623191 0.935 1.6584297e-39
0.0016393666 0.17705159 0.935 8.2652647e-40
0.0057377834 0.17787126 0.935 4.7862148e-39
0.0096677039 0.17812304 0.9346 9.5770959e-39
0.0135843 0.17854913 0.93340009 1.1700111e-38
0.018033031 0.17951064 0.935 1.2069912e-38
0.022084113 0.17912666 0.93300003 1.1886638e-38
0.025355829 0.17912666 0.93300003 1.1611497e-38
0.050302695 0.1787177 0.93300003 3.9622289e-39
0.053983375 0.17830873 0.93300003 1.5662425e-39
0.056558147 0.17787127 0.935 1.0101905e-39
0.0098361988 0.18115 0.935 5.5101298e-40
0.013114933 0.18115 0.935 6.0737096e-39
0.022459324 0.18180577 0.93500006 1.0132084e-38
0.026215401 0.18187283 0.93449998 9.7668934e-39
0.030263409 0.18158047 0.93300003 9.7679709e-39
0.034080416 0.1818531 0.93300003 9.0300346e-39
0.037624776 0.18239839 0.93300003 5.898637e-39
0.042146627 0.18208717 0.93350005 4.2370067e-39
0.045878161 0.18187283 0.93449998 3.5948855e-39
0.050000682 0.18115 0.93500006 2.7765888e-40
0.053279415 0.18115 0.935 1.1985432e-39
0.023115071 0.18574025 0.93500006 1.6548326e-39
0.026065929 0.18574023 0.93500006 2.2087154e-39
0.030316886 0.18518268 0.93466663 2.854075e-39
0.034389876 0.18505117 0.93400002 2.0261206e-39
0.037665106 0.18505117 0.93400002 9.2086609e-40
0.040984165 0.18442874 0.935 2.7550649e-40
0.018390713 0.11501224 0.93933338 2.3509886e-38
0.02220246 0.11512387 0.93800008 2.3509886e-38
0.026314026 0.11430155 0.93800002 2.3509886e-38
0.029666398 0.11454526 0.94 2.3509886e-38
0.034161948 0.11401138 0.93900001 2.3509886e-38
0.03802314 0.11406871 0.93880004 2.3509886e-38
0.042211253 0.11393461 0.93885726 2.3509886e-38
0.045943644 0.11477601 0.93920004 2.3509886e-38
0.0098887999 0.11948966 0.94 2.3509886e-38
0.014203095 0.11795265 0.93925005 2.3509886e-38
0.017829062 0.117125 0.9386667 2.3509886e-38
0.050222233 0.11773308 0.93914294 2.3509886e-38
0.054388396 0.11948966 0.94 2.3509859e-38
0.0060949377 0.12207443 0.93959999 2.3509874e-38
0.0098725818 0.12176681 0.93850005 2.3509886e-38
0.0123347 0.12088005 0.93800002 2.3509886e-38
0.054546785 0.12142827 0.93800008 2.3509848e-38
0.057369649 0.12214947 0.93933338 2.3509767e-38
0.060980931 0.12278593 0.94 2.3509743e-38
-0.00082406664 0.12773032 0.94 2.3509719e-38
0.0018118946 0.12635747 0.93959999 2.3509802e-38
0.005209445 0.12530985 0.93833339 2.3509863e-38
0.05760343 0.12590277 0.9386667 2.3509734e-38
0.061334111 0.12631764 0.94000006 2.3509729e-38
0.066200018 0.12718093 0.94 2.1388516e-38
0.069221601 0.12690625 0.94 8.4812188e-39
-0.00082406664 0.13020253 0.94 2.3509712e-38
0.0016446267 0.1299255 0.93800002 2.350973e-38
0.0041115666 0.1291032 0.93800002 2.3509828e-38
0.058384243 0.1291032 0.93800002 2.3509726e-38
0.061718501 0.13001785 0.93866676 2.3509705e-38
0.065650642 0.13047722 0.94 2.2861097e-38
-0.0008223133 0.13403708 0.93800008 2.3509671e-38
0.0008223133 0.13403708 0.93800008 2.3509688e-38
0.062495813 0.13403708 0.93800008 2.3508971e-38
0.06592533 0.13432287 0.94 2.2767834e-38
0.068397529 0.13514693 0.94 1.9633902e-38
-0.0013705222 0.13842276 0.93800008 2.3509642e-38
0.06276992 0.13787454 0.93800008 2.3414589e-38
0.0658907 0.13836913 0.93950003 2.249122e-38
0.068397529 0.1384432 0.94 2.0093796e-38
-0.0041203331 0.14173946 0.94 2.3505724e-38
-0.0024669401 0.14226021 0.93800008 2.3505717e-38
0.065832406 0.14236073 0.9386667 2.1937319e-38
0.068349026 0.14246126 0.93933338 1.9171119e-38
0.066607378 0.14637178 0.93800002 2.0370384e-38
0.069148839 0.14570375 0.93900001 1.6775133e-38
-0.0041159499 0.1498197 0.93900001 2.0552249e-38
0.066607378 0.14966103 0.93800002 1.9999064e-38
0.068252005 0.14966103 0.93800002 1.6495632e-38
-0.0041115666 0.15377259 0.93800008 1.9538471e-38
0.066607378 0.15377259 0.93800008 1.7419735e-38
0.069423527 0.15448591 0.93900007 1.1426375e-38
-0.0041115666 0.15788415 0.93800002 1.8523271e-38
0.066607378 0.15788415 0.93800002 1.5114538e-38
0.06959822 0.15778668 0.93839997 9.2155441e-39
-0.0041144891 0.16211203 0.9386667 1.7137447e-38
-0.0024669401 0.16199572 0.93800008 1.760127e-38
0.063318126 0.16364035 0.93800002 1.5943866e-38
0.065949529 0.16232465 0.93800002 1.1333106e-38
0.068252012 0.16199572 0.93800008 9.9498427e-39
-0.0041203331 0.16646145 0.94 1.3449653e-38
-0.0016472565 0.16628437 0.93900001 1.6125783e-38
0.06276992 0.1663814 0.93800008 1.262637e-38
0.065785065 0.1661073 0.93800002 8.5694516e-39
-0.0055517103 0.17005819 0.93825006 3.3125561e-39
-0.0014822679 0.17003439 0.93880004 1.1419553e-38
0.001480164 0.17054777 0.93800002 1.4831462e-38
0.062495809 0.17021887 0.93800008 7.1893856e-39
0.064962752 0.16939655 0.93800002 7.8361815e-39
-0.0016472565 0.17286903 0.93900001 2.4795584e-39
0.0019187313 0.17405632 0.93800008 9.3894872e-39
0.0046597756 0.17460452 0.93800008 1.3170148e-38
0.062495813 0.17350811 0.93800002 4.1480789e-39
0.015640609 0.18274905 0.93900001 6.0747928e-39
0.018090893 0.18255356 0.93800002 7.640308e-39
0.020557834 0.18337588 0.93800002 6.1637486e-39
0.048516486 0.18337588 0.93800002 8.2831313e-40
0.015657267 0.18541498 0.94 0
0.018090893 0.18584281 0.93800002 0
0.020557834 0.18584281 0.93800002 1.0101905e-39
0.043582607 0.18502049 0.93800002 0
0.045227233 0.18502049 0.93800002 0
0.015707236 0.11491083 0.94300002 2.3509886e-38
0.022320811 0.11325745 0.94300002 2.3509886e-38
0.026454292 0.11325745 0.94300002 2.3509886e-38
0.02976108 0.11325745 0.94300002 2.3509886e-38
0.033067867 0.11325745 0.94300002 2.3509886e-38
0.047121707 0.11325745 0.94300002 2.3509886e-38
0.048775103 0.11408414 0.94300002 2.3509886e-38
0.0066135731 0.11987101 0.94300002 2.3509881e-38
0.010747056 0.11821762 0.94300002 2.3509886e-38
0.01240045 0.11656422 0.94300002 2.3509886e-38
0.05456198 0.11821762 0.94300002 2.3509869e-38
0.05704207 0.11987101 0.94300002 2.3509783e-38
-0.00082669663 0.1231778 0.94300002 2.3509745e-38
0.0016533933 0.1231778 0.94300002 2.3509851e-38
0.0041334834 0.12152441 0.94300002 2.3509872e-38
0.058695462 0.12152441 0.94300002 2.3509775e-38
0.062002249 0.12207554 0.94300002 2.3509741e-38
0.065309033 0.1231778 0.94300002 1.7425209e-38
-0.00082669663 0.1248312 0.94300002 2.3509737e-38
0.00082669663 0.1248312 0.94300002 2.3509852e-38
0.063655637 0.12565789 0.94300002 2.3509736e-38
0.065309033 0.12565789 0.94300002 2.2216825e-38
0.066962428 0.12979138 0.94300002 2.2032467e-38
0.068615824 0.13061807 0.94300002 1.5117782e-38
-0.0024800899 0.13392484 0.94300002 2.3509674e-38
0.069442518 0.13392484 0.94300002 1.6776589e-38
-0.0041334834 0.13805835 0.94300002 2.3509678e-38
-0.0024800899 0.13723165 0.94300002 2.3509632e-38
0.070930578 0.13838902 0.94300002 1.3089504e-38
-0.0057868767 0.14219183 0.94300002 2.3040065e-38
0.071095906 0.14219183 0.94300002 1.2995493e-38
0.073576003 0.14219183 0.94300002 8.0192205e-39
-0.0049601803 0.14632532 0.94300002 2.2121331e-38
0.071509257 0.14673865 0.94300002 1.0321466e-38
0.073576003 0.14632532 0.94300002 8.47947e-39
-0.0057868767 0.15045878 0.94300002 2.0367856e-38
0.071095914 0.15045878 0.94300002 1.2070674e-38
-0.0057868767 0.15376557 0.94300002 1.8800899e-38
0.071371481 0.15349001 0.94300002 1.0227497e-38
-0.0057868767 0.16285923 0.94300002 1.5293532e-38
-0.0063380077 0.16671716 0.94300002 6.9967253e-39
0.014053843 0.18435335 0.94300002 1.3775324e-39
0.019114841 0.11053363 0.94800001 2.3509886e-38
0.02175606 0.11077138 0.9472 2.3509886e-38
0.025727242 0.11037699 0.9466666 2.3509886e-38
0.029876798 0.110377 0.94666672 2.3509886e-38
0.033831004 0.11062349 0.94700003 2.3509886e-38
0.038189352 0.11124636 0.94700003 2.3509886e-38
0.041902475 0.11160273 0.94650006 2.3509886e-38
0.049759597 0.11195909 0.94599998 2.3509886e-38
0.052247576 0.11195909 0.94599998 2.3509886e-38
0.010249986 0.11496606 0.94800007 2.3509886e-38
0.014104106 0.11393364 0.94633335 2.3509886e-38
0.018264472 0.11290677 0.94700003 2.3509886e-38
0.046540476 0.1121958 0.94800001 2.3509886e-38
0.050588921 0.11444707 0.94599998 2.3509886e-38
0.053597998 0.11466169 0.94640011 2.3509866e-38
0.057344519 0.11552012 0.94800001 2.3509809e-38
0.0061443811 0.11807928 0.9472 2.3509884e-38
0.0096754776 0.11748795 0.94599998 2.3509886e-38
0.053906232 0.11693506 0.94599998 2.3509866e-38
0.058083989 0.11782619 0.94649994 2.350981e-38
0.061499916 0.11884443 0.94800001 2.2587471e-38
-0.0016612833 0.12287097 0.94700003 2.3509744e-38
0.0019350955 0.12135813 0.94599998 2.3509856e-38
0.0041466332 0.12025236 0.94599998 2.3509877e-38
0.058882192 0.12025236 0.94599998 2.3509783e-38
0.062199496 0.12080525 0.94599998 2.3509747e-38
-0.0041554002 0.12715524 0.94800001 2.3509736e-38
-0.001936849 0.12642233 0.94666672 2.350973e-38
0.067175455 0.12522832 0.94599998 1.6688401e-38
-0.0048185107 0.13009137 0.94760001 2.3509713e-38
-0.0024879798 0.13020429 0.94599998 2.3509712e-38
-0.0058150557 0.13419764 0.94742858 2.3509335e-38
-0.0066425032 0.13781375 0.94700003 2.3507873e-38
-0.0124662 0.14377683 0.94800001 1.6125861e-38
-0.0095574204 0.14253022 0.94800001 2.1380575e-38
-0.0070532211 0.14147426 0.94650006 2.2856754e-38
-0.012453049 0.14611492 0.94700003 1.6032938e-38
-0.0099576181 0.1460382 0.94650006 1.990655e-38
-0.0074639395 0.14596149 0.94599998 2.0922457e-38
-0.012439899 0.15010813 0.94599998 1.280793e-38
-0.0099519193 0.15010813 0.94600004 1.8523998e-38
-0.0074639395 0.15010813 0.94599998 2.0183461e-38
0.073810071 0.15093744 0.94599998 8.4787511e-39
-0.0124662 0.15458088 0.94800001 1.1055509e-38
-0.0099519193 0.15425475 0.94599998 1.6864867e-38
-0.0074639395 0.15425475 0.94599998 1.815664e-38
0.074362956 0.1545312 0.94599998 9.1234185e-39
-0.0124662 0.15707411 0.94800001 1.0593823e-38
-0.0099624395 0.15773949 0.94700003 1.3730245e-38
-0.0066385581 0.15765578 0.94650006 1.7787149e-38
0.074639395 0.15674272 0.94599998 9.3081657e-39
-0.0095574204 0.16164505 0.94800001 9.9487623e-39
-0.0068099471 0.16159211 0.9472 1.5571938e-38
-0.0091418801 0.166216 0.94800001 7.9190795e-39
-0.0069163153 0.16625808 0.94666672 7.9190501e-39
-0.0091225933 0.16918263 0.94599998 5.7100054e-39
0.021676458 0.10754858 0.95099998 2.3509886e-38
0.02584501 0.10671487 0.95100009 2.3509886e-38
0.030013558 0.10671487 0.95099998 2.3509886e-38
0.033348396 0.10754858 0.95099998 2.3509886e-38
0.017507909 0.11088342 0.95099998 2.3509886e-38
0.02084275 0.109216 0.95099998 2.3509886e-38
0.035849527 0.109216 0.95099998 2.3509886e-38
0.037516948 0.109216 0.95099998 2.3509886e-38
0.0058359699 0.11505198 0.95100009 2.3509873e-38
0.0091708088 0.11421826 0.95099998 2.3509886e-38
0.013339359 0.11255084 0.95099998 2.3509886e-38
0.0025011299 0.11922053 0.95099998 2.350987e-38
0.00416855 0.11755311 0.95099998 2.350988e-38
0.00083370996 0.12088794 0.95099998 2.3509862e-38
-0.0050022597 0.12672392 0.95099998 2.3509727e-38
-0.0091708088 0.13089246 0.95099998 2.2859337e-38
-0.0075033898 0.13005875 0.95099998 2.3509767e-38
-0.012505649 0.13422731 0.95099998 1.4099387e-38
-0.010004519 0.13422731 0.95100009 2.2766079e-38
-0.0075033898 0.13255988 0.95099998 2.3509722e-38
-0.012505649 0.13756214 0.95099998 1.6034031e-38
-0.010004519 0.13839585 0.95099998 2.2488018e-38
-0.012505649 0.1417307 0.95099998 1.5390814e-38
-0.010838229 0.1417307 0.95099998 2.0646325e-38
-0.010838229 0.16257344 0.95099998 7.556799e-39
-0.010838229 0.16424087 0.95099998 6.9117828e-39
0.018597607 0.10605737 0.95559996 2.3509883e-38
0.021766756 0.10632651 0.95499998 2.3509886e-38
0.033983454 0.10596831 0.95480007 2.3509886e-38
0.036038011 0.10643785 0.95599997 2.3509886e-38
0.010895212 0.11146641 0.95599997 2.3509886e-38
0.014232683 0.11051171 0.95499992 2.3509886e-38
0.018132973 0.10907837 0.95466661 2.3509886e-38
0.038804188 0.10859621 0.95533335 2.3509886e-38
0.042019334 0.10931647 0.95480007 2.3509886e-38
0.045652855 0.11098906 0.95550001 2.3509886e-38
0.049447503 0.11146641 0.95599997 2.3509886e-38
0.0025142799 0.11481878 0.95599997 2.3509789e-38
0.0066907201 0.11290589 0.954 2.3509853e-38
0.010045723 0.11302424 0.95499998 2.3509886e-38
-0.0012553865 0.11846483 0.95499998 2.3509744e-38
0.0015068146 0.11768688 0.95479995 2.3509834e-38
-0.0016726799 0.12126929 0.954 2.3509762e-38
-0.014512632 0.13869831 0.95500004 1.1060931e-38
-0.014806314 0.14219651 0.95600003 1.0784003e-38
-0.012545099 0.16224995 0.954 8.8464533e-39
-0.012571399 0.16594246 0.95599997 9.3088663e-39
-0.01087242 0.16643165 0.954 7.9259305e-39
0.037832551 0.10621138 0.95899999 2.3509886e-38
0.042036165 0.10677186 0.95899999 2.3509886e-38
0.010088679 0.11097547 0.95899999 2.3509877e-38
0.014292296 0.1084533 0.95899999 2.3509879e-38
0.046239778 0.10929403 0.95899999 2.3509886e-38
-0.015973743 0.14376368 0.95899999 8.9397391e-39
0.038874906 0.10394812 0.96399999 2.3509785e-38
0.042167664 0.10373246 0.96200001 2.1850493e-38
0.016023712 0.10710587 0.96200001 2.3509886e-38
0.038794253 0.10541916 0.96200001 2.3509886e-38
0.042167664 0.10541916 0.96200001 2.3509886e-38
0.044697724 0.10626252 0.96200001 2.2682629e-38
0.0075901798 0.11216599 0.96200001 2.3509866e-38
