# .PCD v0.7 - Point Cloud Data file format
VERSION 0.7
FIELDS x y z rgb
SIZE 4 4 4 4
TYPE F F F F
COUNT 1 1 1 1
WIDTH 648
HEIGHT 1
VIEWPOINT 0 0 0 1 0 0 0
POINTS 648
DATA ascii
0.050895758 0.070736483 0.98400003 2.3509879e-38
0.053196132 0.07102403 0.98400009 2.3509876e-38
0.058141936 0.070909016 0.98400003 2.3509858e-38
0.062110074 0.071599118 0.98400003 2.3509845e-38
0.064698003 0.071599118 0.98400003 2.3509838e-38
0.0474452 0.07418704 0.98400003 2.3509846e-38
0.050033115 0.07418704 0.98400003 2.3509855e-38
0.05348368 0.07418704 0.98400003 2.3509853e-38
0.057796881 0.074187033 0.98400009 2.350983e-38
0.062110078 0.07418704 0.98400003 2.3509823e-38
0.064698003 0.07418704 0.98400003 2.3509814e-38
0.043132 0.078500234 0.98400003 2.3509744e-38
0.0474452 0.077637598 0.98400003 2.3509775e-38
0.050112545 0.078011587 0.98220009 2.3509774e-38
0.05418063 0.078260906 0.98100007 2.3509785e-38
0.05848068 0.078260913 0.98100007 2.3509751e-38
0.061920714 0.078260913 0.98100007 2.3509724e-38
0.065269761 0.078011587 0.98220009 2.3509705e-38
0.068148561 0.077637598 0.98400003 2.3509685e-38
0.03795616 0.082813442 0.98400003 2.3509706e-38
0.042269357 0.081950806 0.98400009 2.350972e-38
0.046534345 0.081866644 0.98300004 2.3509727e-38
0.04973856 0.082093872 0.98159999 2.3509708e-38
0.054180633 0.082560956 0.98100007 2.3509702e-38
0.05848068 0.082560956 0.98100001 2.350968e-38
0.061920717 0.082560956 0.98100001 2.3509687e-38
0.06565427 0.082194865 0.98280001 2.350967e-38
0.069011196 0.081950806 0.98400009 2.350893e-38
0.034505598 0.086263999 0.98400003 2.3509653e-38
0.03795616 0.086263999 0.98400003 2.3509668e-38
0.042181693 0.086088672 0.98200005 2.3509646e-38
0.046440542 0.086001001 0.98100001 2.3509657e-38
0.049880579 0.086000994 0.98100001 2.3509663e-38
0.05418063 0.086001001 0.98100007 2.350967e-38
0.05848068 0.086000994 0.98100001 2.3509315e-38
0.061920717 0.086000994 0.98100001 2.350861e-38
0.065511324 0.086198904 0.98325002 2.3413141e-38
0.069011196 0.086263999 0.98400003 2.3414181e-38
0.034505598 0.089714557 0.98400003 2.3413845e-38
0.03795616 0.089714557 0.98400003 2.3509269e-38
0.04226936 0.089714557 0.98400009 2.3509649e-38
0.046440542 0.089441031 0.98100001 2.3509671e-38
0.049880575 0.089441031 0.98100001 2.3509666e-38
0.05418063 0.089441046 0.98100007 2.3507869e-38
0.05848068 0.089441031 0.98100001 2.3413871e-38
0.061920717 0.089441031 0.98100001 2.3136923e-38
0.065560639 0.089714557 0.98400003 2.2768503e-38
0.069011196 0.089714557 0.98400003 2.2583755e-38
0.035368241 0.092302479 0.98400003 2.2674502e-38
0.03795616 0.093165115 0.98400003 2.3136524e-38
0.042239547 0.093964644 0.98333347 2.341419e-38
0.046463773 0.093789749 0.98150003 2.3043636e-38
0.049880579 0.093741089 0.98100007 2.3135101e-38
0.05418063 0.093741089 0.98100007 2.2767398e-38
0.058510926 0.093787991 0.98150003 2.2491179e-38
0.062110078 0.094027758 0.98400009 2.2305711e-38
0.065388121 0.094027758 0.98400003 2.2120256e-38
0.069011196 0.092302479 0.98400003 2.2858167e-38
0.04226936 0.098340973 0.98400009 2.1843651e-38
0.046510234 0.098191053 0.98250002 2.1844386e-38
0.049880579 0.098041132 0.98100001 2.1843281e-38
0.053869765 0.097929634 0.98159999 2.1752514e-38
0.058070399 0.09839461 0.98280001 2.1200097e-38
0.062110074 0.098340958 0.98400003 2.1015727e-38
0.065273099 0.098053418 0.98400009 2.0739866e-38
0.042614412 0.101619 0.98400003 2.0277405e-38
0.0465464 0.10171459 0.98325002 2.1106037e-38
0.049956851 0.10163766 0.98250002 2.0830564e-38
0.053443573 0.10171459 0.98325002 2.0923128e-38
0.057796877 0.10179152 0.98400009 2.0738371e-38
0.062110074 0.10092888 0.98400003 2.0461104e-38
0.064698003 0.10092888 0.98400003 2.0276357e-38
0.0474452 0.10524207 0.98400003 2.0000449e-38
0.050033119 0.10524208 0.98400003 2.0001207e-38
0.053196132 0.10495453 0.98400009 2.0001214e-38
0.057451826 0.10506956 0.98400003 1.9356918e-38
0.051050927 0.066625789 0.98699999 2.3509886e-38
0.05364674 0.066625789 0.98699999 2.3509886e-38
0.057973087 0.066625789 0.98699999 2.3509886e-38
0.061434165 0.066625789 0.98699999 2.3509886e-38
0.046436153 0.070663713 0.98699999 2.350988e-38
0.049753025 0.069654234 0.98699999 2.3509881e-38
0.053935163 0.068933174 0.98699999 2.3509886e-38
0.057540454 0.068788968 0.98699999 2.3509881e-38
0.062299438 0.069221601 0.98699999 2.3509866e-38
0.065760523 0.070952132 0.98699999 2.3509844e-38
0.068356328 0.071817406 0.98699999 2.3509828e-38
0.038937148 0.075278483 0.98699999 2.3509839e-38
0.041532956 0.074413218 0.98699999 2.3509845e-38
0.044994038 0.07441321 0.98699999 2.3509845e-38
0.066625789 0.07441321 0.98699999 2.3509738e-38
0.068356328 0.07441321 0.98699999 2.3509737e-38
0.035476066 0.078739569 0.98699999 2.3509771e-38
0.038071878 0.077874295 0.98699999 2.3509783e-38
0.041244533 0.077585876 0.98699999 2.3509785e-38
0.045282464 0.077585876 0.98699999 2.3509783e-38
0.070086867 0.077874303 0.98699999 2.3509696e-38
0.033961844 0.082416959 0.98699999 2.3509667e-38
0.038071878 0.080470107 0.98699999 2.3509737e-38
0.071817413 0.082200646 0.98699999 2.3323464e-38
0.073547944 0.083931185 0.98699999 2.2953583e-38
0.032014988 0.08652699 0.98699999 2.3506374e-38
0.071817406 0.08652699 0.98699999 2.3414537e-38
0.073547944 0.08652699 0.98699999 2.3045791e-38
0.030284448 0.089988075 0.98699999 2.3411006e-38
0.032014988 0.089988075 0.98699999 2.3412064e-38
0.071817406 0.089988075 0.98699999 2.2307171e-38
0.073547944 0.089988075 0.98699999 2.2491545e-38
0.033745527 0.09344916 0.98699999 2.230572e-38
0.066625789 0.094314426 0.98699999 2.2670198e-38
0.070519499 0.093881793 0.98699999 2.2303548e-38
0.073547944 0.094314426 0.98699999 2.1477399e-38
0.035476066 0.096044965 0.98699999 2.2306068e-38
0.038244933 0.097429395 0.98699999 2.147521e-38
0.066625789 0.099506043 0.98699999 2.0094802e-38
0.070086867 0.097775504 0.98699993 2.0554376e-38
0.073547944 0.096910238 0.98699999 2.0369943e-38
0.038937148 0.10210185 0.98699999 1.9264376e-38
0.040667687 0.10296712 0.98699999 1.8895613e-38
0.062299438 0.10296712 0.98699999 1.9540917e-38
0.06604895 0.10239027 0.98699999 1.8988872e-38
0.068356328 0.10210185 0.98699999 1.8896684e-38
0.041532956 0.10469767 0.98699999 1.8895221e-38
0.044994041 0.10556294 0.98699999 1.9447638e-38
0.054512009 0.10642821 0.98699999 1.9171105e-38
0.059703626 0.10642821 0.98699999 1.880337e-38
0.062299438 0.10556294 0.98699999 1.8620063e-38
0.065760523 0.10556294 0.98699999 1.7975072e-38
0.068356328 0.10469767 0.98699999 1.797582e-38
0.047589846 0.10815874 0.98699999 1.8707605e-38
0.050474085 0.10873559 0.98699999 1.8339908e-38
0.053646736 0.10902401 0.98699999 1.8525337e-38
0.057626981 0.10885096 0.98699999 1.8157325e-38
0.062299438 0.10815874 0.98699999 1.797364e-38
0.038554631 0.062904924 0.99199998 2.3509886e-38
0.04174336 0.062615037 0.99199998 2.3509886e-38
0.046045158 0.061681382 0.991 2.3509886e-38
0.050389048 0.061681386 0.99100006 2.3509886e-38
0.053864151 0.061681382 0.99099994 2.3509886e-38
0.057694305 0.061911572 0.99071437 2.3509886e-38
0.061915457 0.061479971 0.99124998 2.3509886e-38
0.066093653 0.061745383 0.99200004 2.3509886e-38
0.069398336 0.062093247 0.99200004 2.3509874e-38
0.072181225 0.063484691 0.99199998 2.3509844e-38
0.035655785 0.0669633 0.99199998 2.3509883e-38
0.038264744 0.066093653 0.99199998 2.3509884e-38
0.041648023 0.065943092 0.98975003 2.3509886e-38
0.045952238 0.065893769 0.98900002 2.3509886e-38
0.049998343 0.065604769 0.98900002 2.3509886e-38
0.053755447 0.065026753 0.98900002 2.3509886e-38
0.058090564 0.065026753 0.98900002 2.3509886e-38
0.062714688 0.065604769 0.98900002 2.3509881e-38
0.065893769 0.065893777 0.98900002 2.3509873e-38
0.069467068 0.0659924 0.99050003 2.350983e-38
0.073572673 0.06626758 0.99200004 2.3509769e-38
0.030437866 0.070441917 0.99199998 2.3509792e-38
0.034478277 0.070115648 0.99150002 2.3509863e-38
0.038167879 0.07026352 0.98949999 2.3509869e-38
0.041617122 0.070228897 0.98900002 2.3509873e-38
0.04479621 0.069072857 0.98900002 2.3509883e-38
0.066182785 0.069072857 0.98900002 2.3509856e-38
0.069939882 0.07022889 0.98900002 2.3509774e-38
0.074081399 0.070169933 0.99124998 2.3509734e-38
0.077978909 0.06986215 0.99199998 2.3509687e-38
0.026959252 0.075659834 0.99199998 2.3509701e-38
0.029742142 0.074268393 0.99200004 2.3509715e-38
0.033634301 0.073996253 0.990125 2.3509825e-38
0.037860017 0.074275002 0.98900002 2.3509851e-38
0.071095914 0.074564002 0.98900002 2.3509717e-38
0.074564002 0.07456401 0.98900002 2.3509705e-38
0.078268796 0.073920533 0.99200004 2.3509671e-38
0.026089597 0.078268789 0.99199998 2.3509685e-38
0.029522186 0.078150451 0.99049997 2.3509694e-38
0.033467099 0.077858694 0.98900002 2.3509755e-38
0.071962938 0.078032099 0.98900002 2.3509694e-38
0.07456401 0.078032099 0.98900002 2.3509298e-38
0.078210279 0.078208968 0.99125004 2.3415662e-38
0.080877751 0.078268796 0.99199998 2.33217e-38
0.026089597 0.081747405 0.99199998 2.3509653e-38
0.029478792 0.081500188 0.98900002 2.3509611e-38
0.032079864 0.080633171 0.98900002 2.3509716e-38
0.07456401 0.081500188 0.98900002 2.3415305e-38
0.078151762 0.081623793 0.99049997 2.3136561e-38
0.080877751 0.081747405 0.99199998 2.2491587e-38
0.026089599 0.086095683 0.99200004 2.3507872e-38
0.029478792 0.085835308 0.98900002 2.3416006e-38
0.075431034 0.085835308 0.98900002 2.2400417e-38
0.078151762 0.085965499 0.99049997 2.2399731e-38
0.080877751 0.086095676 0.99199998 2.1937332e-38
0.026089599 0.090443939 0.99199998 2.2859263e-38
0.02861177 0.090170428 0.98900002 2.3411006e-38
0.075431027 0.090170428 0.98900002 2.2491545e-38
0.078151762 0.090307184 0.99050003 2.1293749e-38
0.080877751 0.090443939 0.99199998 2.073989e-38
0.023480639 0.09479221 0.99199998 2.156709e-38
0.026089597 0.093922555 0.99199998 2.1844762e-38
0.029522188 0.09378054 0.99050003 2.2764515e-38
0.032079864 0.094505541 0.98900002 2.2305011e-38
0.074853018 0.093349516 0.98900002 2.1108251e-38
0.078151755 0.09378054 0.99050003 1.9817183e-38
0.081747405 0.093922555 0.99199998 1.8342801e-38
0.023480639 0.096531518 0.99199998 2.1383062e-38
0.026379485 0.097111285 0.99199998 2.1473077e-38
0.029568212 0.097401172 0.99199998 2.1751099e-38
0.033597153 0.098190382 0.98899996 2.1014287e-38
0.037282001 0.099707678 0.98900002 1.9907945e-38
0.074997514 0.098407149 0.98900002 1.926329e-38
0.077954426 0.097744659 0.99019998 1.871118e-38
0.081747405 0.097401172 0.99199998 1.7422282e-38
0.029568214 0.10174944 0.99200004 1.9446606e-38
0.033880532 0.10251564 0.99100006 1.917109e-38
0.037282001 0.10230875 0.98900002 1.9264006e-38
0.071095914 0.10230875 0.98900002 1.8343148e-38
0.074621208 0.102387 0.98975003 1.7971848e-38
0.07844273 0.1020973 0.99200004 1.7234638e-38
0.081573479 0.10140157 0.99200004 1.5945388e-38
0.087834984 0.10348874 0.99199998 8.0174255e-39
0.089574285 0.10348874 0.99199998 7.9252298e-39
0.029568212 0.10522804 0.99199998 1.7233146e-38
0.033916477 0.10609771 0.99200004 1.806437e-38
0.038205571 0.10593727 0.99050003 1.8710852e-38
0.041617118 0.10664387 0.98900002 1.8895223e-38
0.070575707 0.10595025 0.98900002 1.6960217e-38
0.074678406 0.10593727 0.99050003 1.640528e-38
0.077978909 0.10580781 0.99199998 1.5484432e-38
0.087834984 0.1060977 0.99199998 7.8319398e-39
0.089574285 0.1060977 0.99199998 8.2929179e-39
0.035655785 0.10957631 0.99199998 1.7144636e-38
0.038264744 0.10957631 0.99199998 1.7328273e-38
0.041678924 0.10941062 0.99050003 1.8156585e-38
0.045735478 0.11032871 0.98899996 1.7602362e-38
0.049998343 0.111268 0.98900002 1.7510149e-38
0.053755447 0.11184601 0.98900002 1.7601605e-38
0.058524076 0.1114125 0.98900002 1.7050623e-38
0.062425677 0.11097898 0.98900002 1.6591089e-38
0.065893769 0.11011197 0.98900002 1.622231e-38
0.069650881 0.10953395 0.98900002 1.5945007e-38
0.074268393 0.10975025 0.99200004 1.4378752e-38
0.038554631 0.11276504 0.99199998 1.6129762e-38
0.04174336 0.11392458 0.99200004 1.5391829e-38
0.045996945 0.1145628 0.98999995 1.5391079e-38
0.050287351 0.11444708 0.98900002 1.5576188e-38
0.053755447 0.11444708 0.98900002 1.5667705e-38
0.058090564 0.11444708 0.98900002 1.5576228e-38
0.062568352 0.1147081 0.99125004 1.4930858e-38
0.066093653 0.11479423 0.99199998 1.4009626e-38
0.069572262 0.11392459 0.99199998 1.3733064e-38
0.073050879 0.11218527 0.99199998 1.4379158e-38
0.042613011 0.11740319 0.99199998 1.3362096e-38
0.046067517 0.11821368 0.99150002 1.2994403e-38
0.050363619 0.11809532 0.99049997 1.2994403e-38
0.053836975 0.11809532 0.99049997 1.3086616e-38
0.057397112 0.11827285 0.99199998 1.2903302e-38
0.06131056 0.11783802 0.99199998 1.3087329e-38
0.065223999 0.11740319 0.99199998 1.2901853e-38
0.05043989 0.12088181 0.99199998 9.6753816e-39
0.042741884 0.05844298 0.995 2.3509886e-38
0.046231017 0.057570703 0.995 2.3509886e-38
0.050301671 0.057861459 0.99500006 2.3509886e-38
0.054081567 0.05844298 0.995 2.3509886e-38
0.057570696 0.057570696 0.995 2.3509886e-38
0.061932113 0.05844298 0.99500006 2.3509886e-38
0.06629353 0.05844298 0.995 2.3509886e-38
0.069782667 0.05844298 0.995 2.3509886e-38
0.035763618 0.063676685 0.995 2.3509886e-38
0.037508182 0.061932109 0.995 2.3509886e-38
0.041869599 0.060187545 0.995 2.3509886e-38
0.070654951 0.060187545 0.995 2.350988e-38
0.07414408 0.061932117 0.995 2.3509849e-38
0.034891333 0.06629353 0.995 2.3509877e-38
0.075888649 0.065421246 0.995 2.3509767e-38
0.078214735 0.066584289 0.99500006 2.3509734e-38
0.029657632 0.069782667 0.995 2.3509795e-38
0.032274481 0.068910383 0.995 2.3509867e-38
0.079377778 0.068910383 0.995 2.3509668e-38
0.081122346 0.070654951 0.995 2.3509696e-38
0.023551648 0.075888649 0.995 2.350965e-38
0.026168499 0.07414408 0.995 2.3509688e-38
0.028785348 0.072399512 0.995 2.3509781e-38
0.08199463 0.07414408 0.995 2.3322758e-38
0.023551648 0.078505501 0.995 2.3509625e-38
0.082866915 0.078505501 0.995 2.2952917e-38
0.084611475 0.078505501 0.995 2.24912e-38
0.023551648 0.08199463 0.995 2.3508585e-38
0.082866915 0.08199463 0.995 2.2307195e-38
0.084611475 0.08199463 0.995 2.2031283e-38
0.023551648 0.08548376 0.995 2.3507831e-38
0.082866915 0.08548376 0.995 2.1200118e-38
0.084611475 0.08548376 0.995 2.0923879e-38
0.023551648 0.089845181 0.99500006 2.2675913e-38
0.082866922 0.089845181 0.99500006 2.027855e-38
0.084611475 0.089845181 0.99500006 1.9908677e-38
0.022388605 0.093915842 0.99500006 2.0462183e-38
0.084611475 0.094206601 0.995 1.7697403e-38
0.022679366 0.097695723 0.995 2.0367841e-38
0.025296215 0.098568007 0.995 2.0551107e-38
0.085193001 0.097986482 0.99500006 1.5670543e-38
0.023551648 0.10031258 0.995 1.9536647e-38
0.026168499 0.10205715 0.995 1.9076717e-38
0.082866915 0.10380171 0.995 1.3363518e-38
0.08548376 0.10205715 0.995 1.2350102e-38
0.090194099 0.10135932 0.995 8.8457022e-39
0.027040781 0.10554628 0.995 1.7325395e-38
0.029657632 0.10729085 0.995 1.7234257e-38
0.079377778 0.10729085 0.995 1.3916423e-38
0.08199463 0.10641856 0.995 1.2443041e-38
0.08548376 0.10641856 0.995 8.7545337e-39
0.030529916 0.10903541 0.995 1.7236111e-38
0.033146765 0.10990769 0.995 1.7235018e-38
0.078214742 0.10961694 0.99500006 1.3178492e-38
0.035763618 0.11339682 0.995 1.5298927e-38
0.037508182 0.11426912 0.995 1.5574798e-38
0.074580222 0.11383297 0.995 1.1335633e-38
0.038554925 0.11740933 0.995 1.354649e-38
0.04157884 0.11892129 0.99500006 1.2532705e-38
0.062804401 0.11950281 0.995 1.2441643e-38
0.066584289 0.11892129 0.99500006 1.1519325e-38
0.069782667 0.11688596 0.995 1.1612224e-38
0.072399512 0.11601368 0.995 1.1890623e-38
0.046667159 0.12168353 0.995 9.3048068e-39
0.050592434 0.12299194 0.995 8.0159051e-39
0.054372326 0.12182891 0.99500006 8.9371187e-39
0.057570696 0.12211967 0.995 7.7411006e-39
0.061059825 0.12124739 0.995 8.3857343e-39
0.042870753 0.055119537 0.99800003 2.3509886e-38
0.045495495 0.055119537 0.99800003 2.3509886e-38
0.049870059 0.055119537 0.99800003 2.3509886e-38
0.054244623 0.055119537 0.99800003 2.3509886e-38
0.05774428 0.055119537 0.99800003 2.3509886e-38
0.062118851 0.055119537 0.99800003 2.3509886e-38
0.065618493 0.055119537 0.99800003 2.3509886e-38
0.039371099 0.05774428 0.99800003 2.3509886e-38
0.041704204 0.057452641 0.99800003 2.3509886e-38
0.051619884 0.056869365 0.99800003 2.3509886e-38
0.054244623 0.056869365 0.99800003 2.3509886e-38
0.062118851 0.056869369 0.99800003 2.3509886e-38
0.066493407 0.056869365 0.99800003 2.3509886e-38
0.069993064 0.056869365 0.99800003 2.3509886e-38
0.073492721 0.058619194 0.99800003 2.3509876e-38
0.076117463 0.058619194 0.99800003 2.3509865e-38
0.034996532 0.062118843 0.99800003 2.3509879e-38
0.038496189 0.060369018 0.99800003 2.3509886e-38
0.078158922 0.062118843 0.99800009 2.3509788e-38
0.030621966 0.067368321 0.99800003 2.3509839e-38
0.032955065 0.066201769 0.99800003 2.350987e-38
0.026539039 0.070284709 0.99800003 2.3509709e-38
0.02887214 0.06911815 0.99800003 2.3509797e-38
0.082533494 0.069701426 0.99800003 2.3509674e-38
0.02362266 0.073492721 0.99800003 2.3509645e-38
0.025372487 0.072617806 0.99800003 2.3509687e-38
0.084866591 0.073492721 0.99800003 2.29518e-38
0.021872833 0.077867292 0.99800003 2.3509621e-38
0.086033151 0.077867284 0.99800003 2.2030231e-38
0.021872833 0.082241856 0.99800003 2.3506422e-38
0.086616419 0.082241856 0.99800003 2.1293358e-38
0.021872833 0.085741505 0.99800003 2.3412394e-38
0.086616419 0.085741505 0.99800003 2.0370345e-38
0.021172902 0.090466045 0.99800009 2.0462518e-38
0.086616419 0.090116076 0.99800003 1.8433547e-38
0.01837318 0.09449064 0.99800003 2.0185242e-38
0.020123007 0.09449064 0.99800003 1.9908655e-38
0.086616419 0.09449064 0.99800003 1.6314829e-38
0.01837318 0.097990289 0.99800003 1.8800875e-38
0.020706281 0.098281935 0.99800003 1.9629921e-38
0.086616419 0.097115375 0.99800003 1.5025148e-38
0.089241162 0.098865204 0.99800003 1.0599143e-38
0.022747748 0.10148995 0.99800003 1.8522123e-38
0.088366248 0.10061503 0.99800003 1.1151591e-38
0.02362266 0.10411468 0.99800003 1.649562e-38
0.026247401 0.10673942 0.99800003 1.6772263e-38
0.029455416 0.11053072 0.99800003 1.6680785e-38
0.079617113 0.11111399 0.99800003 9.2144412e-39
0.082241856 0.11023907 0.99800003 8.2017214e-39
0.085741505 0.11023907 0.99800003 7.2801967e-39
0.088366248 0.11023907 0.99800003 7.2812898e-39
0.030621966 0.11286382 0.99800003 1.6034363e-38
0.033246703 0.11373873 0.99800003 1.5113085e-38
0.078450561 0.11344709 0.99800003 8.2021152e-39
0.08311677 0.11286382 0.99800003 3.9632756e-39
0.085741505 0.11286382 0.99800003 5.6196174e-39
0.035871446 0.11723839 0.99800003 1.3361375e-38
0.037621275 0.11986312 0.99800003 1.2527691e-38
0.070284709 0.11927985 0.99800003 8.3890106e-39
0.073492721 0.1181133 0.99800003 5.5320391e-39
0.076992378 0.11636347 0.99800003 5.6227928e-39
0.039371099 0.12161295 0.99800003 5.0563333e-39
0.041995838 0.12161295 0.99800003 8.3796471e-39
0.045495495 0.12336278 0.99800003 7.0878405e-39
0.053369712 0.12336278 0.99800003 8.1995901e-39
0.062556297 0.12292533 0.99800003 5.620625e-39
0.066493407 0.12161295 0.99800003 4.7905126e-39
0.050220024 0.12581253 0.99800009 0
0.054536264 0.12569588 0.99800003 3.6734198e-40
0.057452641 0.12569588 0.99800003 1.8367099e-40
0.061243933 0.12511261 0.99800003 0
0.046062402 0.046062402 1.0039999 2.3509886e-38
0.048409529 0.04576901 1.0039999 2.3509886e-38
0.055450913 0.046649184 1.0039999 2.3509886e-38
0.058091432 0.046649184 1.0039999 2.3509886e-38
0.038727622 0.051930223 1.0039999 2.3509886e-38
0.042424351 0.050521947 1.0039999 2.3509886e-38
0.045723423 0.050118156 1.003 2.3509886e-38
0.050133057 0.050351132 1.0032499 2.3509886e-38
0.054516386 0.050118156 1.003 2.3509886e-38
0.058033578 0.050118156 1.003 2.3509886e-38
0.061550763 0.050118156 1.0029999 2.3509886e-38
0.06570591 0.050628502 1.0031428 2.3509886e-38
0.069533683 0.051930223 1.0039999 2.3509886e-38
0.034299802 0.054969408 1.00325 2.3509886e-38
0.038129564 0.054296352 1.0022 2.3509886e-38
0.041829567 0.054115172 1.0010002 2.3509886e-38
0.045632251 0.053530145 1.001 2.3509886e-38
0.050019972 0.053530149 1.0010002 2.3509886e-38
0.054407686 0.053530145 1.001 2.3509886e-38
0.057917859 0.053530145 1.001 2.3509886e-38
0.061428033 0.053530145 1.001 2.3509886e-38
0.066254519 0.053968914 1.001 2.3509886e-38
0.069981962 0.054755431 1.0020001 2.3509886e-38
0.074227951 0.054864135 1.0039999 2.3509886e-38
0.077455245 0.054570742 1.0039999 2.3509876e-38
0.080095768 0.055450913 1.0039999 2.3509852e-38
0.030219283 0.058384828 1.0039999 2.3509866e-38
0.034240406 0.05794635 1.0015 2.3509883e-38
0.037734363 0.057917859 1.001 2.3509886e-38
0.073713645 0.057040315 1.001 2.3509886e-38
0.078101359 0.057917859 1.001 2.3509855e-38
0.081856109 0.058091432 1.0039999 2.3509796e-38
0.026405198 0.061612125 1.0039999 2.3509757e-38
0.02985817 0.061473403 1.00175 2.3509866e-38
0.033054136 0.061135523 1.0010002 2.3509873e-38
0.07985644 0.060550489 1.001 2.3509807e-38
0.08261399 0.061520077 1.0025001 2.3509717e-38
0.085376807 0.061612125 1.0039999 2.3509775e-38
0.023306837 0.066402458 1.0032499 2.350971e-38
0.02636531 0.065912619 1.0025001 2.3509743e-38
0.029660964 0.065464735 1.001 2.350986e-38
0.032469105 0.064060666 1.001 2.3509872e-38
0.07985644 0.065815754 1.001 2.3509757e-38
0.082530722 0.065847747 1.0015 2.3509675e-38
0.086256981 0.066013001 1.0039999 2.323273e-38
0.089484274 0.067186564 1.0039999 1.7331223e-38
0.021969706 0.070308223 1.0024999 2.3509699e-38
0.025448756 0.069325924 1.001 2.350971e-38
0.086064339 0.070255406 1.00175 2.3507129e-38
0.089777671 0.070413858 1.0039999 1.9265494e-38
0.092418194 0.071294032 1.0039999 1.3362911e-38
0.017896857 0.074227951 1.0039999 2.3509674e-38
0.02106104 0.073713645 1.001 2.3509656e-38
0.086876795 0.073713645 1.001 2.29518e-38
0.089643545 0.073822781 1.0025001 2.0831355e-38
0.092418194 0.073934555 1.0039999 1.5115347e-38
0.01775741 0.077888668 1.0028 2.3507142e-38
0.020183496 0.078101359 1.0010002 2.3509668e-38
0.086876795 0.076346271 1.001 2.2398674e-38
0.08950942 0.078101359 1.001 2.0277438e-38
0.093011871 0.077888675 1.0028 1.3086991e-38
0.01740534 0.082109295 1.0028 2.3505696e-38
0.020183496 0.082489073 1.001 2.350714e-38
0.08950942 0.082489073 1.001 1.9355487e-38
0.094364062 0.082045577 1.0036249 1.0230041e-38
0.017589658 0.086191885 1.00325 2.2856389e-38
0.020183496 0.08599925 1.001 2.2856757e-38
0.08950942 0.08599925 1.001 1.8249499e-38
0.093298361 0.086256981 1.0039999 1.1888786e-38
0.014962945 0.089777671 1.0039999 2.0185643e-38
0.017563358 0.08957582 1.00175 2.0830631e-38
0.020183496 0.088631876 1.001 2.1199762e-38
0.08950942 0.08950942 1.001 1.6681802e-38
0.093298361 0.089777663 1.0039999 1.1058323e-38
0.011442253 0.094178542 1.0039999 1.3726966e-38
0.01406787 0.094083868 1.003 1.8984953e-38
0.017112095 0.093458362 1.001 2.0001942e-38
0.08950942 0.093897134 1.001 1.4101079e-38
0.092418194 0.094178542 1.0039999 1.1148763e-38
0.010562079 0.098579407 1.0039999 7.276573e-39
0.014040694 0.098284855 1.001 1.5848501e-38
0.016673323 0.098284855 1.001 1.8522834e-38
0.08950942 0.097407311 1.001 1.2258967e-38
0.09228012 0.098430812 1.0025001 8.7535332e-39
0.011442252 0.1021001 1.0039999 7.8297482e-39
0.014061732 0.10194887 1.0025001 1.0409728e-38
0.01756336 0.10187195 1.00175 1.6216524e-38
0.020768527 0.10208754 1.0010002 1.7230301e-38
0.011442252 0.10562079 1.0039999 6.5422912e-39
0.014082773 0.10562079 1.0039999 5.1546456e-39
0.018483639 0.10562079 1.0039999 1.4003135e-38
0.021958744 0.10599543 1.002 1.5665532e-38
0.025448756 0.10793784 1.001 1.6218773e-38
0.022694267 0.11030798 1.0033998 1.4280103e-38
0.026345367 0.11065397 1.00175 1.6125809e-38
0.023177896 0.11412913 1.0039999 5.5205526e-39
0.026364435 0.11425158 1.0024999 1.1881233e-38
0.029543959 0.11437315 1.0010002 1.464924e-38
0.07985644 0.11495818 1.001 4.4217427e-39
0.082196563 0.11437315 1.0010002 5.1618454e-39
0.085121706 0.11495818 1.001 5.1611532e-39
0.026671415 0.11753148 1.003 3.4025909e-39
0.029836472 0.11759081 1.001 8.1927419e-39
0.033346646 0.11759081 1.001 1.2068854e-38
0.078540131 0.11802958 1.001 2.5800091e-39
0.082673825 0.11785577 1.00325 3.8704172e-39
0.085121706 0.11671327 1.001 5.3455487e-39
0.027203845 0.12022344 1.001 0
0.030159671 0.12093033 1.0020001 0
0.033933662 0.12114377 1.0028 4.6011089e-39
0.037770309 0.12268542 1.0020001 3.2149598e-39
0.042122081 0.12373361 1.001 4.0443492e-39
0.066693291 0.12373361 1.001 1.1978075e-39
0.070203468 0.12285607 1.001 9.2050736e-40
0.073889159 0.12232955 1.001 9.2122902e-40
0.077516332 0.1213935 1.001 1.8435413e-39
0.080975935 0.12146391 1.0039999 3.3172378e-39
0.033446584 0.12410443 1.0039999 1.8367099e-40
0.037495382 0.12516063 1.0039999 0
0.042248316 0.12586477 1.0039999 0
0.045665786 0.12646158 1.00175 0
0.048264883 0.12724379 1.001 0
0.053530145 0.12724379 1.001 0
0.058795404 0.12724379 1.001 0
0.061428033 0.12724379 1.001 0
0.065815747 0.12636624 1.001 4.5917748e-40
0.070308663 0.1265569 1.0024999 1.4718847e-39
0.073568404 0.1263262 1.003 2.3030803e-39
0.051775057 0.12899886 1.001 0
0.054407686 0.12899886 1.001 0
0.057917859 0.12899886 1.001 0
0.061428033 0.12899886 1.001 0
0.065949008 0.12925661 1.003 1.2856997e-39
0.034429327 0.043257359 1.007 2.3509734e-38
0.036194935 0.043257359 1.007 2.3509851e-38
0.034429327 0.045905769 1.007 2.3509818e-38
0.037960544 0.045905769 1.007 2.3509886e-38
0.043257359 0.045905769 1.007 2.3509886e-38
0.045022968 0.045022968 1.007 2.3509886e-38
0.050319787 0.046788573 1.007 2.3509886e-38
0.053497881 0.045729212 1.007 2.3509886e-38
0.058265015 0.045022968 1.007 2.3509886e-38
0.061796229 0.046788573 1.007 2.3509886e-38
0.065327436 0.045905769 1.007 2.3509886e-38
0.034429327 0.050319787 1.007 2.3509879e-38
0.038313664 0.049613547 1.007 2.3509886e-38
0.041491754 0.048554178 1.007 2.3509886e-38
0.050319787 0.048554178 1.007 2.3509886e-38
0.067093045 0.048554178 1.007 2.3509886e-38
0.027366901 0.055616606 1.007 2.3509768e-38
0.030015312 0.055616606 1.007 2.3509851e-38
0.033546522 0.052968197 1.007 2.3509886e-38
0.036194935 0.052085392 1.007 2.3509886e-38
0.071507066 0.053851001 1.007 2.3509886e-38
0.073272668 0.053851001 1.007 2.3509886e-38
0.027366901 0.058265015 1.007 2.3509778e-38
0.029132508 0.057382215 1.007 2.350986e-38
0.023247153 0.062090497 1.007 2.3509719e-38
0.087397523 0.061796229 1.007 1.5488025e-38
0.089751661 0.062090497 1.007 8.1146476e-39
0.021481548 0.06621024 1.007 2.3509709e-38
0.090340197 0.065033168 1.007 1.0511304e-38
0.017950334 0.07091853 1.007 2.3509695e-38
0.093577147 0.070624262 1.007 7.9252088e-39
0.015007655 0.075038284 1.007 2.3505357e-38
0.016773263 0.073272668 1.007 2.3509668e-38
0.094459943 0.07415548 1.007 7.6471422e-39
0.015007655 0.077686682 1.007 2.3135838e-38
0.015007655 0.082100704 1.007 2.2858523e-38
0.01441912 0.086808994 1.007 2.128979e-38
0.011476442 0.090045929 1.007 1.6405241e-38
0.013242049 0.090045929 1.007 2.0369293e-38
0.016773263 0.10593639 1.007 1.1511408e-38
0.014124852 0.1085848 1.007 4.5132741e-39
0.018538868 0.10946761 1.007 7.0864e-39
0.020304475 0.10946761 1.007 1.3724099e-38
0.018538868 0.11299881 1.007 2.4835045e-39
0.020304475 0.11299881 1.007 2.8519226e-39
0.083866306 0.12094405 1.007 4.9771249e-39
0.034429327 0.12624086 1.007 4.5917748e-40
0.043257359 0.12800647 1.007 0
0.038073633 0.043386228 1.01 2.3509852e-38
0.03276103 0.046042532 1.01 2.3509811e-38
0.041615367 0.046042532 1.01 2.3509886e-38
0.050469697 0.045157097 1.01 2.3509886e-38
0.068178363 0.046927962 1.01 2.3509886e-38
0.034531899 0.048698831 1.01 2.3509848e-38
0.036302764 0.048698831 1.01 2.3509886e-38
0.069949232 0.050469697 1.01 2.3509886e-38
0.074376397 0.050469697 1.01 2.3509886e-38
0.026563 0.054896865 1.01 2.3509771e-38
0.030399878 0.053421147 1.01 2.3509852e-38
0.03276103 0.052240565 1.01 2.3509886e-38
0.071720093 0.052240565 1.01 2.3509886e-38
0.074376397 0.052240565 1.01 2.3509883e-38
0.023021266 0.05932403 1.01 2.3509712e-38
0.025677565 0.058438599 1.01 2.3509774e-38
0.021250401 0.061980329 1.01 2.350972e-38
0.020364966 0.06552206 1.01 2.350973e-38
0.015052366 0.071720093 1.01 2.350898e-38
0.017413523 0.06876865 1.01 2.3509724e-38
0.09297049 0.068178363 1.01 9.4871241e-39
0.014166933 0.074376397 1.01 2.3322433e-38
0.013281499 0.077918127 1.01 2.2951526e-38
0.013281499 0.081459865 1.01 2.2305426e-38
0.011510633 0.087657891 1.01 1.834101e-38
0.013281499 0.085001595 1.01 2.1383459e-38
0.0097397659 0.090314195 1.01 1.3915039e-38
0.016823232 0.10979372 1.01 1.1031106e-39
0.016823232 0.11245003 1.01 1.3811366e-39
0.041615367 0.12838782 1.01 0
0.039962847 0.043515101 1.013 2.3509872e-38
0.027529962 0.047067355 1.013 2.2672744e-38
0.030194154 0.046179295 1.013 2.3416084e-38
0.062164433 0.04529123 1.013 2.3509886e-38
0.026937922 0.050027572 1.013 2.3509751e-38
0.030194154 0.049731545 1.013 2.3509839e-38
0.032858342 0.049731545 1.013 2.350986e-38
0.071933128 0.05061961 1.013 2.3509886e-38
0.02326726 0.054527085 1.013 2.3509747e-38
0.026345879 0.052987777 1.013 2.3509781e-38
0.02930609 0.052395735 1.013 2.3509852e-38
0.01864933 0.059500244 1.013 2.3509698e-38
0.021757551 0.058168147 1.013 2.3509736e-38
0.01864933 0.062164433 1.013 2.3509719e-38
0.020425456 0.061276369 1.013 2.350973e-38
0.01864933 0.065716684 1.013 2.3509726e-38
0.014209013 0.070156999 1.013 2.3323932e-38
0.011544824 0.075485386 1.013 1.9356629e-38
0.013320949 0.073709257 1.013 2.3321411e-38
0.011544824 0.078149572 1.013 1.9724677e-38
0.011544824 0.081701823 1.013 1.9447362e-38
0.011544824 0.085254073 1.013 1.880198e-38
0.015097077 0.11100791 1.013 3.5016361e-39
0.015097077 0.11278404 1.013 3.5016361e-39
0.062348533 0.04364397 1.016 2.3509886e-38
0.070468664 0.04638312 1.0175 2.3509886e-38
0.07281097 0.046657663 1.0170001 2.1852112e-38
0.02404872 0.050769519 1.016 2.3509747e-38
0.070364773 0.048988134 1.016 2.3509886e-38
0.073036849 0.048988134 1.016 2.3509886e-38
0.022267334 0.052550904 1.016 2.286147e-38
0.020485945 0.056113679 1.016 2.3509827e-38
0.016923174 0.063239224 1.016 2.3509835e-38
0.014547992 0.066208206 1.016 2.2125775e-38
0.016923174 0.065911308 1.016 2.3509785e-38
0.011579013 0.069474079 1.016 1.539229e-38
0.0133604 0.068583384 1.016 2.3320398e-38
0.010510182 0.073571272 1.016 1.6775589e-38
0.0089069335 0.078381017 1.016 1.3638803e-38
0.0089069335 0.081943788 1.016 1.3638056e-38
0.0089069335 0.085506558 1.016 1.2532808e-38
0.0089187687 0.088308826 1.0175 1.2162618e-38
