# .PCD v0.7 - Point Cloud Data file format
VERSION 0.7
FIELDS x y z rgb
SIZE 4 4 4 4
TYPE F F F F
COUNT 1 1 1 1
WIDTH 652
HEIGHT 1
VIEWPOINT 0 0 0 1 0 0 0
POINTS 652
DATA ascii
0.01524085 0.14679345 0.91500002 2.3509675e-38
0.0176473 0.14599131 0.91500002 2.3509684e-38
0.02005375 0.1459913 0.91500002 2.3509689e-38
0.01524085 0.14839776 0.91500002 2.3509673e-38
0.017914683 0.14893252 0.91500008 2.3509675e-38
0.0208559 0.1491999 0.91500002 2.3509684e-38
0.021776401 0.13146493 0.92000002 2.3509886e-38
0.025002534 0.13146493 0.92000002 2.3509886e-38
0.021776401 0.13388452 0.92000002 2.3509886e-38
0.025809066 0.13388452 0.92000002 2.3509886e-38
0.029841734 0.13388452 0.92000002 2.3509886e-38
0.033067867 0.13388452 0.92000002 2.3509872e-38
0.010484933 0.13953027 0.92000002 2.3509779e-38
0.01403368 0.13888505 0.92000002 2.3509795e-38
0.017714364 0.13849711 0.91850001 2.3509818e-38
0.021733928 0.1376503 0.91822231 2.3509848e-38
0.025762603 0.13766675 0.91833341 2.3509846e-38
0.029806081 0.13774945 0.91888893 2.3509841e-38
0.033862419 0.13786666 0.91966671 2.3509823e-38
0.036293998 0.13953027 0.92000002 2.3509751e-38
0.0072587994 0.14275639 0.92000002 2.3509723e-38
0.0099472441 0.14221871 0.92000002 2.350973e-38
0.013681259 0.14164126 0.9180001 2.3509744e-38
0.017705159 0.14164126 0.91799998 2.3509747e-38
0.021729058 0.14164126 0.9180001 2.3509744e-38
0.025752958 0.14164126 0.91799998 2.3509744e-38
0.02977686 0.14164126 0.9180001 2.3509741e-38
0.033819608 0.14171797 0.91850001 2.3509747e-38
0.036293998 0.14194986 0.92000002 2.350974e-38
0.0072587999 0.14598255 0.92000002 2.3509702e-38
0.0096784001 0.14598253 0.92000002 2.3509694e-38
0.013480064 0.14546397 0.9180001 2.3509694e-38
0.017705159 0.1440556 0.91799998 2.3509688e-38
0.022188934 0.14543524 0.9180001 2.3509699e-38
0.025752958 0.14566517 0.9180001 2.3509703e-38
0.029776862 0.14566517 0.9180001 2.3509701e-38
0.033800762 0.14566517 0.9180001 2.3509342e-38
0.037880767 0.14587674 0.91933334 2.3507168e-38
0.041939735 0.14598253 0.92000002 2.3506441e-38
0.0072587994 0.15001521 0.92000002 2.3509682e-38
0.0096670035 0.14985214 0.91900003 2.350967e-38
0.013359347 0.14985004 0.91800004 2.3509667e-38
0.016900379 0.15049386 0.91799998 2.3509675e-38
0.02333862 0.14968908 0.91799998 2.3509684e-38
0.025752958 0.14968908 0.91799998 2.3509684e-38
0.02977686 0.14968908 0.9180001 2.3509322e-38
0.033800758 0.14968908 0.91799998 2.3412473e-38
0.037880763 0.1499065 0.9193334 2.3411376e-38
0.041939732 0.15001521 0.92000002 2.3135883e-38
0.0066135726 0.15372525 0.92000002 2.341315e-38
0.0096670035 0.15388042 0.91900003 2.3413859e-38
0.01368126 0.15371297 0.9180001 2.3507481e-38
0.017705161 0.15371299 0.9180001 2.3507143e-38
0.02172906 0.15371297 0.9180001 2.3507868e-38
0.02575296 0.15371299 0.9180001 2.3507522e-38
0.029776858 0.15371297 0.9180001 2.3413552e-38
0.033800758 0.15371299 0.9180001 2.2675201e-38
0.037880767 0.15393622 0.91933334 2.2120298e-38
0.041536465 0.15364459 0.92000002 2.1198353e-38
0.0072587994 0.15727401 0.92000002 2.2674169e-38
0.0096783992 0.15808053 0.92000002 2.2489767e-38
0.013681259 0.15773688 0.9180001 2.267416e-38
0.017705159 0.15773687 0.91799998 2.2213912e-38
0.021729058 0.15773688 0.9180001 2.2306103e-38
0.025752958 0.15773687 0.91799998 2.221319e-38
0.02977686 0.15773688 0.9180001 2.2029163e-38
0.033819608 0.15782322 0.91850001 2.1661092e-38
0.03758445 0.15791923 0.92000002 2.0923545e-38
0.041133199 0.15727401 0.92000002 1.9909408e-38
0.0096784001 0.16211319 0.92000002 2.1015368e-38
0.01368496 0.16180034 0.91822231 2.1106854e-38
0.017705157 0.16176076 0.9180001 2.0737347e-38
0.021729058 0.16176076 0.9180001 2.064621e-38
0.02575296 0.16176076 0.9180001 2.0371071e-38
0.029799262 0.16187903 0.91866672 2.0094142e-38
0.033862419 0.16205505 0.91966671 1.9541348e-38
0.037100531 0.16211319 0.92000002 1.9080729e-38
0.01403368 0.16598457 0.92000002 1.9907959e-38
0.017705159 0.16578467 0.91799998 1.9447352e-38
0.021746008 0.16590507 0.91866672 1.944878e-38
0.025809066 0.16614588 0.92000002 1.8620471e-38
0.029841734 0.16614589 0.92000002 1.8067305e-38
0.0338744 0.16533934 0.92000002 1.7884348e-38
0.036293998 0.16533934 0.92000002 1.8159159e-38
0.015324133 0.16856545 0.92000002 1.8618316e-38
0.01790504 0.16985592 0.92000002 1.7511263e-38
0.021776399 0.17017852 0.91999996 1.7879665e-38
0.025809066 0.16856545 0.92000002 1.8250622e-38
0.028228667 0.16856545 0.92000002 1.7790377e-38
0.014564939 0.1318936 0.92299998 2.3509886e-38
0.017801594 0.1318936 0.92299998 2.3509886e-38
0.02184741 0.13027529 0.92300004 2.3509886e-38
0.026162948 0.13081473 0.92300004 2.3509886e-38
0.029939041 0.13108446 0.92299998 2.3509886e-38
0.03371514 0.13135418 0.92300004 2.3509869e-38
0.010519123 0.13513026 0.92299998 2.3509846e-38
0.014079441 0.13448294 0.92299998 2.3509876e-38
0.017801594 0.13432109 0.92299998 2.3509886e-38
0.034794021 0.13432109 0.92299998 2.350987e-38
0.036951791 0.13459083 0.92300004 2.350983e-38
0.0064733066 0.13917609 0.92299998 2.3509754e-38
0.0095481267 0.13804327 0.92299998 2.3509795e-38
0.013351194 0.13715318 0.92299998 2.3509837e-38
0.017801594 0.1367486 0.92299998 2.350987e-38
0.037760954 0.13836694 0.92299998 2.3509748e-38
0.00242749 0.1432219 0.92299998 2.3509699e-38
0.0053404779 0.14225091 0.92299998 2.3509719e-38
0.0089007961 0.14160357 0.92299998 2.3509726e-38
0.038839836 0.14241274 0.92299998 2.3509719e-38
0.041267328 0.1432219 0.92299998 2.3509689e-38
0.0016183266 0.1456494 0.92299998 2.3509678e-38
0.0048549799 0.1456494 0.92299998 2.3509677e-38
0.045043424 0.14591913 0.92300004 2.3321705e-38
0.0016183266 0.14969522 0.92299998 2.3508585e-38
0.0048549799 0.14969522 0.92299998 2.3509681e-38
0.045313146 0.14969522 0.92299998 2.2674182e-38
0.0016183266 0.15374103 0.92299998 2.3318433e-38
0.0040458161 0.15374103 0.92299998 2.3504271e-38
0.042885654 0.15455019 0.92299998 1.9631726e-38
0.044503979 0.15374103 0.92299998 1.9909032e-38
0.00242749 0.15778685 0.92300004 2.2213146e-38
0.0052017644 0.15801804 0.92299998 2.2765622e-38
0.039648999 0.15940516 0.92299998 1.9909785e-38
0.042481072 0.15819143 0.92299998 1.981685e-38
0.044503979 0.15697768 0.92299998 1.8525735e-38
0.0056641432 0.16183266 0.92299998 2.0922792e-38
0.039648999 0.16183266 0.92299998 1.8805226e-38
0.042076491 0.16183266 0.92299998 1.8528285e-38
0.0072824699 0.16426013 0.92299998 2.0369651e-38
0.0097099598 0.16668764 0.92299998 1.9262575e-38
0.012137448 0.1674968 0.92299998 1.9355121e-38
0.033984859 0.1674968 0.92299998 1.7052814e-38
0.038354337 0.16620214 0.92299998 1.6684389e-38
0.041806769 0.1647996 0.92300004 1.6591832e-38
0.013432111 0.17008613 0.92299998 1.7880388e-38
0.025893226 0.17073345 0.92299998 1.7604528e-38
0.030262707 0.17008613 0.92299998 1.7236836e-38
0.03371514 0.16965458 0.92300004 1.6591475e-38
0.036412347 0.16911513 0.92299998 1.5946486e-38
0.015374102 0.17235178 0.92299998 1.7049565e-38
0.016992429 0.17235178 0.92299998 1.6682603e-38
0.021847408 0.1739701 0.92300004 1.5299651e-38
0.025893226 0.17316094 0.92299998 1.6129041e-38
0.029939041 0.17316096 0.92299998 1.5853173e-38
0.014643839 0.12284553 0.92799997 2.3509886e-38
0.017898025 0.12203199 0.92799997 2.3509886e-38
0.021965761 0.12203199 0.92799997 2.3509886e-38
0.026033493 0.12203199 0.92799997 2.3509886e-38
0.029694451 0.12243876 0.92799997 2.3509886e-38
0.0062371902 0.12664209 0.92799997 2.3509886e-38
0.00976256 0.12609974 0.92799997 2.3509886e-38
0.013809253 0.12591739 0.92666668 2.3509886e-38
0.017859453 0.12582621 0.92600006 2.3509886e-38
0.02191842 0.12582619 0.92600006 2.3509886e-38
0.025977386 0.12582621 0.926 2.3509886e-38
0.030058559 0.12591679 0.92666668 2.3509886e-38
0.033984687 0.12634256 0.92740005 2.3509886e-38
0.037151963 0.12718447 0.92799997 2.3509886e-38
0.0024406398 0.13016745 0.92799997 2.3509886e-38
0.0056838682 0.12995663 0.92650002 2.3509886e-38
0.0097310003 0.12974666 0.92500001 2.3509886e-38
0.013785584 0.12974668 0.92500007 2.3509886e-38
0.017840166 0.12974666 0.92500001 2.3509886e-38
0.021894749 0.12893574 0.92500007 2.3509886e-38
0.025949333 0.12893574 0.92500001 2.3509886e-38
0.030003916 0.12893574 0.92500007 2.3509886e-38
0.034328807 0.12947635 0.92500007 2.3509884e-38
0.038155161 0.12988606 0.92600006 2.350986e-38
0.042304426 0.130981 0.92799997 2.3509811e-38
0.0020338665 0.13464198 0.92799997 2.3509839e-38
0.0056778775 0.13384888 0.92533344 2.3509856e-38
0.009568817 0.13347688 0.92500001 2.3509873e-38
0.01216375 0.13299033 0.92500001 2.3509884e-38
0.038653694 0.13326065 0.92500007 2.3509796e-38
0.042236485 0.13401647 0.92650002 2.3509738e-38
0.045287427 0.13531993 0.92799997 2.3509712e-38
-0.004067733 0.13911647 0.92799997 2.3509691e-38
-0.001355911 0.13857411 0.92799997 2.3509733e-38
0.0016224908 0.13796695 0.92575002 2.3509762e-38
0.0052709579 0.13745037 0.92500001 2.3509793e-38
0.039734915 0.13785583 0.92500001 2.3509724e-38
0.042167664 0.13785583 0.92500001 2.3509717e-38
0.046046738 0.13846563 0.92799997 2.3509357e-38
0.049626343 0.13911647 0.92799997 2.3507896e-38
-0.004067733 0.14237064 0.92799997 2.3509699e-38
-0.0016266549 0.14229307 0.92750001 2.3509673e-38
0.00145965 0.14158605 0.92500001 2.3509708e-38
0.0040545831 0.14028859 0.92500001 2.3509741e-38
0.042329848 0.14158605 0.92500001 2.3508978e-38
0.046290629 0.14211437 0.92633331 2.3508602e-38
0.049626343 0.14237064 0.92799997 2.350645e-38
-0.0046100975 0.14670959 0.92799997 2.3506032e-38
-0.0016218333 0.145965 0.92500001 2.3509287e-38
0.047303475 0.1456947 0.92500007 2.3320635e-38
0.049626343 0.14643839 0.92799997 2.2859316e-38
-0.0048812795 0.14969258 0.92799997 2.3504639e-38
-0.0016218334 0.15001959 0.92500007 2.350643e-38
0.047844082 0.15001959 0.92500007 2.2673462e-38
0.049626343 0.14969257 0.92799997 2.2212876e-38
-0.0048812795 0.15376031 0.92799997 2.3133287e-38
-0.0016218333 0.15407416 0.92500001 2.3319134e-38
0.047033168 0.15407416 0.92500001 2.0094131e-38
0.049993008 0.1540415 0.92724997 2.0277439e-38
-0.004067733 0.15782803 0.92799997 2.1842551e-38
-0.0016218333 0.15812874 0.92500007 2.1106818e-38
0.00081091671 0.15812874 0.92500007 2.1475583e-38
0.046685632 0.15836044 0.92500007 1.8894866e-38
0.050399784 0.15770115 0.92724997 1.788003e-38
-0.004067733 0.16189578 0.92799997 2.0367482e-38
-0.0016257782 0.16244632 0.92649996 2.0275668e-38
0.0016218333 0.16218333 0.92500001 2.0460038e-38
0.046222251 0.16218334 0.92500007 1.8342104e-38
0.05043989 0.16189578 0.92799997 1.5759913e-38
0.052880529 0.16270933 0.92799997 1.2904364e-38
-0.0016270932 0.1659635 0.92799997 1.9077448e-38
0.0017840167 0.16591355 0.92500001 1.9537719e-38
0.0054736873 0.16644064 0.92500007 1.9354779e-38
0.039734915 0.16785975 0.92500001 1.5485527e-38
0.042437971 0.16731915 0.92500007 1.5484798e-38
0.046034895 0.16592783 0.92585725 1.5300042e-38
0.050439887 0.1659635 0.92799997 1.2348709e-38
-0.0014643839 0.16970584 0.92799997 1.6678934e-38
0.0014628059 0.17024674 0.92740005 1.6771144e-38
0.0056764162 0.1702925 0.92500007 1.7232818e-38
0.0097310003 0.1702925 0.92500001 1.7879299e-38
0.034869418 0.17110342 0.92500001 1.5760994e-38
0.038437452 0.17045468 0.92500001 1.4840506e-38
0.04220251 0.17043123 0.92574996 1.3917478e-38
0.046575546 0.17023462 0.92799997 1.1888808e-38
0.050439887 0.16840415 0.92799997 8.4757888e-39
0.0016270932 0.17328544 0.92799997 1.5113793e-38
0.0056948261 0.17409897 0.92799997 1.5114527e-38
0.0097467797 0.17381887 0.92649996 1.5945e-38
0.013785584 0.17407678 0.92500007 1.5668431e-38
0.017840166 0.17515799 0.92500001 1.4838704e-38
0.021894749 0.17596893 0.92500007 1.4562446e-38
0.026760248 0.17596892 0.92500001 1.4194377e-38
0.030003916 0.17596893 0.92500007 1.4563183e-38
0.034058504 0.17434707 0.92500007 1.4563209e-38
0.03791821 0.17404452 0.92585719 1.3734164e-38
0.042304426 0.17409898 0.92799997 1.1796998e-38
0.045558609 0.17409898 0.92799997 6.912091e-39
0.0073219188 0.17653961 0.92799997 1.3824516e-38
0.0097625591 0.17653961 0.92799997 1.4285135e-38
0.013504875 0.17751586 0.92799997 1.363941e-38
0.017898025 0.1781667 0.92799997 1.3362468e-38
0.021965761 0.17816672 0.92799997 1.3363163e-38
0.026033491 0.1781667 0.92799997 1.345575e-38
0.029694449 0.17857347 0.92799997 1.2902592e-38
0.034168959 0.1781667 0.92799997 1.1335294e-38
0.038562112 0.17751586 0.92799997 9.1230051e-39
0.042467136 0.17784129 0.92799997 4.5168362e-39
0.045151833 0.17775993 0.92799997 1.3821974e-39
0.0154907 0.1198491 0.93000001 2.3509886e-38
0.017936599 0.11903381 0.93000001 2.3509886e-38
0.022013098 0.1190338 0.93000001 2.3509886e-38
0.026089597 0.11903381 0.93000001 2.3509886e-38
0.030166101 0.11984911 0.93000001 2.3509886e-38
0.0065223998 0.1231103 0.93000001 2.3509886e-38
0.0097835995 0.122295 0.93000001 2.3509886e-38
0.013452449 0.12188735 0.93000001 2.3509886e-38
0.030981399 0.1214797 0.93000001 2.3509886e-38
0.033970833 0.12256677 0.93000001 2.3509886e-38
0.036688495 0.1231103 0.93000001 2.3509886e-38
0.0024458999 0.12637149 0.93000001 2.3509886e-38
0.0046200333 0.12528443 0.93000001 2.3509886e-38
0.035057899 0.1247409 0.93000001 2.3509886e-38
0.038319096 0.12582797 0.93000001 2.3509884e-38
-0.00081529998 0.13044798 0.93000001 2.3509872e-38
0.0012229499 0.12922505 0.93000001 2.3509886e-38
0.039949697 0.12800209 0.93000001 2.3509873e-38
0.042123832 0.12908916 0.93000001 2.3509858e-38
0.0456568 0.13126329 0.93000001 2.3509757e-38
-0.00081529998 0.13370919 0.93000001 2.3509844e-38
0.00081529998 0.13370919 0.93000001 2.3509852e-38
0.045928568 0.13343742 0.93000001 2.3509713e-38
0.048102695 0.13452449 0.93000001 2.3509694e-38
-0.0048917998 0.13860099 0.93000001 2.3509713e-38
-0.0019023668 0.13669863 0.93000001 2.3509781e-38
0.049733296 0.13751392 0.93000001 2.3509326e-38
-0.0065223998 0.1418622 0.93000001 2.3509677e-38
0.051363897 0.1418622 0.93000001 2.3507523e-38
-0.0089683002 0.14593869 0.93000001 2.3504938e-38
-0.0066854595 0.14561258 0.93000001 2.3508191e-38
0.051363897 0.14593869 0.93000001 2.2306134e-38
-0.0089683002 0.1491999 0.93000001 2.3225541e-38
-0.0073376996 0.15001521 0.93000001 2.313479e-38
0.051363897 0.15001521 0.93000001 2.0461159e-38
-0.0073376996 0.1540917 0.93000001 2.2579779e-38
0.051363897 0.1532764 0.93000001 1.9448047e-38
0.052994497 0.15572229 0.93000001 1.8063721e-38
-0.0057071 0.1581682 0.93000001 2.082804e-38
0.053538036 0.15843996 0.93000001 1.5483318e-38
-0.0057071 0.16224471 0.93000001 1.9722113e-38
0.05421745 0.16183704 0.93000001 1.179767e-38
-0.0046200333 0.16604942 0.93000001 1.8339506e-38
0.053809799 0.16632119 0.93000001 9.6761775e-39
0.056255694 0.16632119 0.93000001 9.3088705e-39
-0.0048917998 0.1695824 0.93000001 1.6217601e-38
0.050548598 0.17039768 0.93000001 7.0950264e-39
0.053809799 0.16876709 0.93000001 7.2816415e-39
-0.0016306 0.17365889 0.93000001 1.483363e-38
0.0016306 0.1752895 0.93000001 1.4096786e-38
0.049733296 0.17365891 0.93000001 3.3183014e-39
0.0057071 0.17773539 0.93000001 1.3270264e-38
0.0097835995 0.17855069 0.93000001 1.2716726e-38
0.046472099 0.17855069 0.93000001 2.1172821e-39
0.048646227 0.17746362 0.93000001 3.6831421e-39
0.0097835995 0.18018129 0.93000001 1.1886283e-38
0.013860099 0.18018131 0.93000001 1.2162868e-38
0.017936599 0.18018129 0.93000001 1.2532705e-38
0.022013102 0.18018131 0.93000001 1.2624923e-38
0.026089599 0.1809966 0.93000001 1.0873951e-38
0.03049222 0.18115966 0.93000001 9.0300794e-39
0.0342426 0.18181191 0.93000001 5.0674834e-39
0.037666854 0.18115966 0.93000001 3.5034059e-39
0.042123836 0.18126838 0.93000001 1.2893025e-39
0.044841498 0.1818119 0.93000001 2.9480895e-39
0.0342426 0.18588839 0.93000001 1.6534117e-39
0.036688495 0.18507309 0.93000001 1.6566445e-39
0.014754299 0.11557535 0.935 2.3509886e-38
0.018033031 0.11557535 0.935 2.3509886e-38
0.021803578 0.1149196 0.93500006 2.3509886e-38
0.026229866 0.11557535 0.935 2.3509886e-38
0.030328281 0.11557536 0.93500006 2.3509886e-38
0.0065574665 0.11885408 0.935 2.3509886e-38
0.0098361988 0.11885408 0.935 2.3509886e-38
0.014249866 0.11809664 0.93419999 2.3509886e-38
0.01799446 0.11696399 0.93300003 2.3509886e-38
0.022084113 0.116964 0.93300003 2.3509886e-38
0.026173759 0.11696399 0.93300003 2.3509886e-38
0.030295845 0.11790728 0.93400002 2.3509886e-38
0.034153473 0.11830762 0.93500006 2.3509886e-38
0.03688575 0.11885408 0.935 2.3509886e-38
0.0018022513 0.12240773 0.9346 2.3509886e-38
0.0054970761 0.12151464 0.9338572 2.3509886e-38
0.0098151602 0.1202357 0.93300003 2.3509886e-38
0.01308688 0.1202357 0.93300003 2.3509886e-38
0.034625702 0.12078099 0.93300003 2.3509886e-38
0.037804849 0.12159594 0.93340009 2.3509886e-38
0.041243076 0.12263515 0.93466675 2.3509884e-38
0.045902267 0.12377217 0.935 2.3509865e-38
-0.00136497 0.12632446 0.93366671 2.3509886e-38
0.0013632167 0.12568858 0.93300003 2.3509886e-38
0.038442709 0.12514329 0.93300003 2.3509886e-38
0.042078074 0.12590495 0.93380004 2.3509869e-38
0.045902267 0.12623122 0.935 2.3509837e-38
0.048361316 0.12705091 0.935 2.3509813e-38
-0.0051898668 0.13082904 0.93466675 2.3509806e-38
-0.0020461399 0.12971072 0.93349999 2.3509879e-38
0.043350291 0.128415 0.93300003 2.3509838e-38
0.04580408 0.12923294 0.93300003 2.3509795e-38
0.049769461 0.13046397 0.93450004 2.3509729e-38
-0.0090165157 0.13442805 0.935 2.3509689e-38
-0.0057328157 0.13428399 0.93400002 2.3509755e-38
-0.0024537898 0.13414052 0.93300003 2.3509844e-38
0.050242998 0.13403408 0.93339998 2.3509703e-38
0.053279415 0.13442805 0.935 2.3509699e-38
-0.0090100877 0.13842654 0.93433332 2.3509671e-38
-0.0062734261 0.13773368 0.9333334 2.3509724e-38
0.05152959 0.13659431 0.93300003 2.3509677e-38
0.054099098 0.13770679 0.935 2.3507883e-38
0.056558147 0.13852647 0.935 2.2951842e-38
-0.012295249 0.14344458 0.935 2.2765324e-38
-0.0099924216 0.14201106 0.93419999 2.350858e-38
0.054061107 0.14170353 0.93433332 2.2952522e-38
0.057992585 0.1416003 0.935 2.0277443e-38
0.061476246 0.14180522 0.935 1.0415098e-38
-0.012295249 0.14590362 0.935 2.2581629e-38
-0.010633091 0.14559153 0.93300003 2.3228438e-38
0.053983379 0.14559153 0.93300003 2.1568521e-38
0.057845443 0.14600478 0.9346 1.9170761e-38
-0.012295249 0.15000205 0.93500006 2.1107179e-38
-0.010224126 0.15009016 0.93300003 2.2582316e-38
0.054002952 0.14973527 0.93333334 1.981614e-38
0.058184076 0.14996678 0.9347778 1.668221e-38
0.061476246 0.15082172 0.935 9.3991674e-39
-0.012295249 0.15410046 0.935 1.9907921e-38
-0.009820858 0.15385368 0.93350005 2.175112e-38
0.054012746 0.15385281 0.93350005 1.7788199e-38
0.058197521 0.15410048 0.93500006 1.4098618e-38
0.061476246 0.15410046 0.935 9.3966801e-39
-0.012295249 0.1573792 0.935 1.9261872e-38
-0.0098265568 0.15802969 0.93400002 2.0275626e-38
-0.0073613701 0.15867841 0.93300003 2.0644731e-38
0.054801308 0.15704256 0.93300003 1.5390052e-38
0.058197513 0.15819888 0.935 1.1519681e-38
0.062295936 0.15819889 0.93500006 9.6762125e-39
-0.0095629711 0.16202407 0.93500006 1.916859e-38
-0.0073613701 0.16195014 0.93300003 1.96292e-38
0.057821251 0.1619945 0.93419999 1.0228282e-38
0.061476246 0.16147761 0.935 9.5851029e-39
-0.0090165157 0.16475634 0.935 1.769382e-38
-0.0068160836 0.16603979 0.93300003 1.7878188e-38
0.057317343 0.16458014 0.93400002 9.7698445e-39
-0.0073771495 0.16967444 0.93500006 1.5939256e-38
0.053165447 0.17094737 0.93300003 6.6326735e-39
-0.0098361988 0.17459254 0.935 2.2994747e-39
-0.0054039485 0.17371413 0.93380004 1.3724426e-38
-0.0024537898 0.17585494 0.93300003 1.3356723e-38
0.05152959 0.17585494 0.93300003 4.6994758e-39
0.053165447 0.17340115 0.93300003 5.6181853e-39
-0.0098361988 0.17623191 0.935 1.5633614e-39
-0.0052693929 0.17763707 0.93500006 4.4170833e-39
-0.0016389282 0.17859584 0.93449998 8.1934692e-39
0.0016376132 0.17850073 0.93400002 1.1793724e-38
0.0040896498 0.17912666 0.93300003 1.2807464e-38
-0.00081968331 0.18115 0.935 0
0.0016393666 0.18115 0.935 6.8980837e-39
0.0057331077 0.18184054 0.93433332 8.1019924e-39
0.0098151602 0.18239839 0.93300003 9.0246466e-39
0.01390481 0.18239841 0.93300003 1.059445e-38
0.01799446 0.18239839 0.93300003 1.0779917e-38
0.022084113 0.18239841 0.93300003 1.0503731e-38
0.025355829 0.18239839 0.93300003 9.7668934e-39
0.038442709 0.18239839 0.93300003 1.0127016e-39
0.040078569 0.18239839 0.93300003 1.7481423e-39
0.010109427 0.18497519 0.93500006 4.0479379e-39
0.013929064 0.18518268 0.93466663 4.4206707e-39
0.018020175 0.18593661 0.93433332 3.4068943e-39
0.022093849 0.18575893 0.93344444 3.2235862e-39
0.026173761 0.18567012 0.93300003 2.6718572e-39
0.030263407 0.18567009 0.93300003 1.4747559e-39
0.038442709 0.18485218 0.93300003 1.9321468e-39
0.040896498 0.18403424 0.93300003 2.2101784e-39
0.018033031 0.18934684 0.935 1.4012985e-45
0.0221145 0.18921185 0.93433332 9.1836897e-41
0.026173759 0.18894184 0.93300003 9.1836897e-41
0.031147964 0.18934684 0.935 1.1034805e-39
0.0074165999 0.11454526 0.94 2.3509886e-38
0.010045198 0.11477601 0.93920004 2.3509886e-38
0.013748136 0.11386599 0.93828583 2.3509886e-38
0.018100973 0.11353929 0.93849999 2.3509886e-38
0.022649121 0.11324824 0.93950003 2.3509886e-38
0.026058039 0.11383341 0.9386667 2.3509886e-38
0.034537159 0.11594618 0.93800002 2.3509886e-38
0.037004102 0.11594618 0.93800002 2.3509886e-38
0.0020588515 0.11819001 0.93950003 2.3509886e-38
0.0055265068 0.11722687 0.9388572 2.3509886e-38
0.0098677594 0.11759081 0.93800002 2.3509886e-38
0.0123347 0.11759081 0.93800002 2.3509886e-38
0.035359472 0.11759081 0.93800002 2.3509886e-38
0.038100522 0.11813902 0.93800008 2.3509886e-38
0.041953471 0.11845492 0.93833339 2.3509884e-38
0.046147734 0.11866559 0.94 2.3509865e-38
0.04861993 0.11948966 0.94 2.3509855e-38
-0.00137286 0.12214947 0.93933338 2.3509886e-38
0.0008223133 0.12088005 0.93800002 2.3509886e-38
0.043034401 0.12142827 0.93800008 2.350988e-38
0.046049543 0.12170237 0.93800002 2.3509869e-38
0.049418136 0.12189655 0.93950003 2.3509825e-38
-0.0090647331 0.12773032 0.94 2.3509809e-38
-0.0052141207 0.12649629 0.93900001 2.3509841e-38
-0.0019187311 0.12471752 0.93800008 2.3509886e-38
0.050394308 0.12567498 0.93850005 2.3509778e-38
0.053564329 0.12773032 0.94 2.3509726e-38
-0.012360999 0.1310266 0.94 2.3509886e-38
-0.0098839775 0.13013284 0.93949997 2.3509842e-38
-0.006852611 0.12965141 0.93800008 2.3509811e-38
0.051805738 0.1291032 0.93800002 2.3509741e-38
0.054302048 0.12999433 0.93850005 2.3509712e-38
0.0568606 0.1310266 0.94 2.3505762e-38
-0.013020252 0.1346525 0.94 2.3509828e-38
-0.010278917 0.13362592 0.93800002 2.3509783e-38
0.054683834 0.13362591 0.93800002 2.3508612e-38
0.057644337 0.13422702 0.93933338 2.1661836e-38
0.060156867 0.13597099 0.94 1.7330143e-38
-0.013171916 0.13829592 0.93900001 2.3509373e-38
-0.010690073 0.13814864 0.93800002 2.3509696e-38
0.057836037 0.13787454 0.93800008 2.1568904e-38
0.06002887 0.13814864 0.93800002 1.7605639e-38
-0.013333398 0.14205192 0.93880004 2.3042974e-38
0.060851183 0.14390483 0.93800002 1.4193318e-38
-0.01498609 0.14606458 0.93920004 2.2121035e-38
0.06112529 0.14609767 0.93800008 1.2074257e-38
-0.014818296 0.14982058 0.93900001 2.0646251e-38
0.06276992 0.14938693 0.93800008 8.8475014e-39
-0.017305398 0.15492453 0.94 1.8618066e-38
-0.014801639 0.15377259 0.93800008 1.9447726e-38
0.063318126 0.15377259 0.93800008 8.6635179e-39
0.064962752 0.1545949 0.93800002 8.9401062e-39
-0.014818296 0.15805247 0.93900001 1.8523991e-38
-0.013993742 0.16214962 0.93888897 1.6955554e-38
-0.010690073 0.16364035 0.93800002 1.8615729e-38
0.06002887 0.16364035 0.93800002 9.3088677e-39
-0.013171916 0.16628437 0.93900001 1.5111311e-38
-0.010141864 0.1663814 0.93800008 1.677081e-38
-0.012910376 0.17003243 0.94 8.9338943e-39
-0.0098677604 0.17021886 0.93800008 1.4095357e-38
-0.012759883 0.17328018 0.93900001 2.5789315e-39
-0.0098677594 0.17350811 0.93800002 7.3683636e-39
-0.00740082 0.17350811 0.93800002 1.3265228e-38
-0.0041115666 0.18173124 0.93800002 0
-0.0019204844 0.18295799 0.9386667 2.7622395e-40
0.0016446267 0.18337588 0.93800002 5.5101298e-40
-0.00082406664 0.18541498 0.94 6.4320721e-40
0.0019204844 0.18570137 0.9386667 1.8367099e-40
0.0057597002 0.18597548 0.93866676 3.6734198e-40
0.0090454463 0.18666513 0.93800002 0
0.0074165999 0.18871126 0.94 0
0.0098677594 0.18913206 0.93800002 1.4012985e-45
0.014214274 0.18948451 0.93800008 0
0.018090893 0.191599 0.93800002 0
0.023147505 0.11160404 0.94300002 2.3509886e-38
0.035547953 0.11077735 0.94300002 2.3509886e-38
0.038028046 0.11077735 0.94300002 2.3509886e-38
0.040508136 0.11077735 0.94300002 2.3509886e-38
0.0024800899 0.11491083 0.94300002 2.3509886e-38
0.0057868767 0.1143597 0.94300002 2.3509886e-38
0.0090936627 0.11325745 0.94300002 2.3509886e-38
0.02728099 0.11325745 0.94300002 2.3509886e-38
0.029761078 0.11408413 0.94300002 2.3509886e-38
0.033894565 0.11408415 0.94300002 2.3509886e-38
0.038028043 0.11408413 0.94300002 2.3509886e-38
0.040508136 0.11408414 0.94300002 2.3509886e-38
-0.00082669663 0.11987101 0.94300002 2.3509886e-38
0.00082669663 0.11821762 0.94300002 2.3509886e-38
0.038854741 0.11656422 0.94300002 2.3509886e-38
0.042161532 0.11656423 0.94300002 2.3509886e-38
0.04629501 0.11656422 0.94300002 2.350987e-38
0.049601801 0.11904432 0.94300002 2.3509839e-38
0.052081887 0.11987101 0.94300002 2.3509837e-38
-0.0049601803 0.1231778 0.94300002 2.3509862e-38
-0.0024800899 0.12152441 0.94300002 2.3509886e-38
0.052081887 0.12235111 0.94300002 2.3509795e-38
-0.0090936627 0.12648459 0.94300002 2.3509809e-38
-0.0068891393 0.12538233 0.94300002 2.3509821e-38
0.053735282 0.12565789 0.94300002 2.3509731e-38
-0.01240045 0.12979138 0.94300002 2.3509886e-38
-0.010747056 0.12813799 0.94300002 2.3509886e-38
0.055388674 0.12813799 0.94300002 2.350972e-38
0.057868764 0.13061807 0.94300002 2.1292719e-38
-0.014053843 0.13309816 0.94300002 2.3509886e-38
0.060348857 0.13392484 0.94300002 1.6499307e-38
-0.015707236 0.13888504 0.94300002 2.3138104e-38
-0.015707236 0.14219183 0.94300002 2.313559e-38
-0.01736063 0.14715201 0.94300002 2.1107371e-38
-0.01736063 0.15045878 0.94300002 1.9724778e-38
-0.018187325 0.15376557 0.94300002 1.8434764e-38
-0.01791176 0.15789907 0.94300002 1.7418066e-38
-0.01736063 0.16203254 0.94300002 1.4743655e-38
-0.01736063 0.16451263 0.94300002 1.068672e-38
-0.015707236 0.16699272 0.94300002 9.7646961e-39
-0.015156105 0.17002395 0.94300002 5.9801071e-39
-0.015707236 0.1727796 0.94300002 2.8580701e-39
0.029918879 0.10720932 0.94800001 2.3509886e-38
0.01411258 0.11124636 0.94700003 2.3509886e-38
0.018264472 0.11124636 0.94699997 2.3509886e-38
0.021585286 0.11041616 0.94699997 2.3509886e-38
0.025944073 0.11020838 0.94700003 2.3509886e-38
0.029876798 0.11037701 0.94666672 2.3509886e-38
0.033539262 0.11009631 0.94628578 2.3509886e-38
0.037398599 0.10887147 0.94800001 2.3509886e-38
-0.0124662 0.11552012 0.94800001 2.0557731e-38
-0.0099729598 0.11385795 0.94800007 2.2772217e-38
-0.0049864799 0.11552012 0.94800001 2.3509886e-38
-0.0016621599 0.11552012 0.94800001 2.3509886e-38
0.0013827955 0.1142507 0.94666666 2.3509886e-38
0.00548092 0.11276457 0.9472 2.3509886e-38
0.0099729598 0.1121958 0.94800001 2.3509886e-38
0.0124662 0.1121958 0.94800001 2.3509886e-38
0.043124985 0.11444707 0.94599998 2.3509886e-38
0.046442293 0.1152764 0.94599998 2.3509867e-38
-0.013020254 0.11829038 0.94800007 2.3233929e-38
-0.0099729598 0.11801335 0.94800001 2.3509804e-38
-0.0058175605 0.11801335 0.94800007 2.3509867e-38
-0.0016599683 0.11782619 0.94650006 2.3509886e-38
0.00082932663 0.11693506 0.94599998 2.3509886e-38
0.050036039 0.11748795 0.94599998 2.3509846e-38
0.052247576 0.11859371 0.94599998 2.304916e-38
-0.01745268 0.12299983 0.94800001 2.0283694e-38
-0.013920589 0.12237652 0.94800001 2.2956245e-38
-0.0099659469 0.12208167 0.94733334 2.3509774e-38
-0.0060444912 0.12147344 0.94628578 2.3509848e-38
-0.0024879798 0.12025236 0.94599998 2.3509886e-38
-0.013290705 0.12625708 0.94749999 2.3509818e-38
-0.010228362 0.12578121 0.94599998 2.350979e-38
0.055564884 0.12605764 0.94599998 2.3509359e-38
-0.014111176 0.12998195 0.94680005 2.3509886e-38
0.05722354 0.12854561 0.94599998 2.2493095e-38
0.060540844 0.13186294 0.94599998 1.3732788e-38
-0.021441866 0.1341363 0.94800007 1.7881244e-38
-0.018283762 0.13380387 0.94800007 2.3323276e-38
-0.01576831 0.13361451 0.94666672 2.3509886e-38
-0.021608081 0.13795927 0.94800001 1.7328053e-38
-0.018274555 0.13788606 0.94749999 2.2215454e-38
-0.015757205 0.1368389 0.94599998 2.350986e-38
-0.024101319 0.14377683 0.94800001 1.2900183e-38
-0.021441866 0.14211467 0.94800007 1.9354576e-38
-0.018258629 0.14191422 0.94666672 2.0925859e-38
-0.024101319 0.14627008 0.94800001 1.1519049e-38
-0.021608081 0.14627008 0.94800001 1.6407158e-38
-0.018521629 0.14568506 0.94599998 2.0185779e-38
-0.024050472 0.15010813 0.94599998 9.4925471e-39
-0.021562492 0.15010813 0.94600004 1.5391956e-38
-0.019074513 0.15010813 0.94599998 1.9632231e-38
-0.024101319 0.15458088 0.94800001 8.3865751e-39
-0.021597121 0.1544989 0.94749999 1.4099418e-38
-0.019074513 0.15342543 0.94599998 1.788304e-38
-0.024101319 0.15707411 0.94800001 8.8471847e-39
-0.021586161 0.15773863 0.94700003 1.2437747e-38
-0.019074513 0.15840137 0.94599998 1.5573422e-38
-0.024050472 0.16254802 0.94599998 9.6772957e-39
-0.0215923 0.16194604 0.94733334 9.3077873e-39
-0.019074513 0.1617187 0.94599998 1.1516814e-38
-0.021608081 0.166216 0.94800001 8.4790832e-39
-0.018521629 0.16614178 0.94599998 8.0119632e-39
-0.020777 0.16954032 0.94800001 6.8185011e-39
-0.018079322 0.16968022 0.94600004 3.6853015e-39
0.021676458 0.10754858 0.95099998 2.3509886e-38
0.025511524 0.10688162 0.95100003 2.3509886e-38
0.032514688 0.10754858 0.95099998 2.3509886e-38
0.010004519 0.11088342 0.95099998 2.3509886e-38
0.015840489 0.11088342 0.95099998 2.3509886e-38
0.01834162 0.109216 0.95099998 2.3509886e-38
0.02084275 0.109216 0.95099998 2.3509886e-38
-0.0060741734 0.11374187 0.95100009 2.3509824e-38
-0.0016674199 0.11421826 0.95099998 2.3509886e-38
0.0016674199 0.11255084 0.95099998 2.3509886e-38
-0.017507909 0.1258902 0.95099998 2.2219525e-38
-0.015840489 0.12672392 0.95099998 2.3509845e-38
-0.02084275 0.13089246 0.95099998 1.9822035e-38
-0.018063717 0.13033666 0.95099998 2.2404235e-38
-0.015840489 0.12922505 0.95099998 2.3509886e-38
-0.024177589 0.1425644 0.95099998 1.3731028e-38
-0.022510169 0.1425644 0.95099998 1.6589803e-38
0.018418767 0.10716285 0.95499992 2.3509886e-38
0.021767631 0.10548842 0.95499998 2.3509884e-38
0.027599219 0.10621517 0.954 2.3509886e-38
-0.0050180396 0.11123321 0.954 2.35098e-38
-0.0025142799 0.11146641 0.95599997 2.3509886e-38
0.0025142799 0.11146641 0.95599997 2.3509886e-38
0.0058666533 0.11146641 0.95600003 2.3509886e-38
0.01005712 0.10979021 0.95599997 2.3509886e-38
0.014232683 0.10883729 0.95499992 2.3509886e-38
-0.0016726799 0.11290589 0.954 2.3509886e-38
-0.018678261 0.12740247 0.954 1.7240922e-38
-0.020908499 0.1296327 0.954 1.6136386e-38
-0.01923582 0.1296327 0.954 1.7884507e-38
0.010929403 0.10677186 0.95899999 2.3509886e-38
0.014292296 0.10677186 0.95899999 2.3509886e-38
0.018495914 0.10509041 0.95899999 2.3509876e-38
-0.00084072328 0.1118162 0.95899999 2.3509886e-38
0.0014012055 0.11069524 0.95899999 2.3509886e-38
0.0042036166 0.11013475 0.95899999 2.3509886e-38
0.010088679 0.1084533 0.95899999 2.3509886e-38
0.0076059592 0.10732854 0.96399999 2.3509886e-38
0.0092768865 0.10710587 0.96200001 2.3509886e-38
0.016023712 0.10541916 0.96200001 2.3509872e-38
-0.00084335334 0.11047929 0.96200001 2.3509832e-38
0.00253006 0.10879257 0.96200001 2.3509846e-38
0.0062408145 0.10946726 0.96200001 2.3509886e-38
