# .PCD v0.7 - Point Cloud Data file format
VERSION 0.7
FIELDS x y z rgb
SIZE 4 4 4 4
TYPE F F F F
COUNT 1 1 1 1
WIDTH 282
HEIGHT 1
VIEWPOINT 0 0 0 1 0 0 0
POINTS 282
DATA ascii
-0.024995517 0.15075423 0.89099997 2.0341337e-38
-0.024995517 0.15309756 0.89099997 1.914857e-38
-0.024818433 0.14917186 0.89399999 1.9051324e-38
-0.022101467 0.14969432 0.89399999 1.9886196e-38
-0.01880976 0.15126181 0.89399999 1.5846132e-38
-0.026490411 0.15502377 0.89399999 1.7590217e-38
-0.02194472 0.15439677 0.89399999 1.8503611e-38
-0.018249948 0.15484463 0.89400005 1.7038199e-38
-0.02586342 0.15831548 0.89399999 1.9716114e-38
-0.02194472 0.15831548 0.89399999 1.4830131e-38
-0.01802602 0.15831548 0.89399999 1.5108912e-38
-0.029520873 0.16327915 0.89399999 1.7505589e-38
-0.025863418 0.16223417 0.89399993 2.091318e-38
-0.022728462 0.16223417 0.89399999 1.3723394e-38
-0.01802602 0.1606667 0.89399999 1.1705958e-38
-0.032917079 0.16536914 0.89399999 1.1520859e-38
-0.02978212 0.16615286 0.89399999 1.2440984e-38
-0.02586342 0.16615288 0.89399999 1.6123725e-38
-0.02272846 0.16615286 0.89399999 1.2529144e-38
-0.02592128 0.14845824 0.89600003 1.7948209e-38
-0.02120832 0.15002923 0.89600003 1.9066522e-38
-0.019637333 0.15002923 0.89600003 1.8052729e-38
-0.029128127 0.15508759 0.898 1.722929e-38
-0.018066345 0.1531712 0.89600003 1.5018533e-38
-0.037000593 0.15981106 0.898 1.2522068e-38
-0.033595368 0.15853439 0.89714289 2.0635174e-38
-0.029860144 0.15794232 0.8963334 2.3127209e-38
-0.037000593 0.16217279 0.898 1.1793434e-38
-0.033802509 0.16193202 0.89666671 1.4460949e-38
-0.030110579 0.16154979 0.89600009 2.081917e-38
-0.02120832 0.16181162 0.89600003 1.2348807e-38
-0.018851839 0.16259712 0.89600003 1.1520858e-38
-0.040149577 0.1653218 0.898 2.1838497e-38
-0.03778784 0.1653218 0.898 1.8985473e-38
-0.033802513 0.16429025 0.89666671 1.1520836e-38
-0.021208322 0.1657391 0.89600009 1.1336435e-38
-0.018851839 0.16495359 0.89600003 1.1889259e-38
-0.042511322 0.17004526 0.898 2.0173203e-38
-0.044873059 0.17476876 0.898 2.3403678e-38
-0.041920885 0.1741783 0.89799988 1.8703475e-38
-0.03778784 0.175556 0.898 1.1703819e-38
-0.044873059 0.17791773 0.898 1.9896279e-38
-0.041493293 0.17835805 0.89724994 1.5016373e-38
-0.037910927 0.1782302 0.89720005 1.1243528e-38
-0.045502853 0.18216887 0.89799994 1.4361635e-38
-0.04188313 0.18201305 0.89657146 1.4094421e-38
-0.045660302 0.18579021 0.898 1.3262138e-38
-0.042710613 0.18525311 0.89666671 9.5793352e-39
-0.032456826 0.14645153 0.903 2.3491796e-38
-0.030081939 0.14645153 0.903 2.2563768e-38
-0.026104502 0.14634223 0.90233326 1.8227388e-38
-0.03773436 0.15067357 0.90300006 1.9337112e-38
-0.03384218 0.14981598 0.90299994 2.2015859e-38
-0.030081939 0.14961806 0.903 2.2568774e-38
-0.027645683 0.15007657 0.90100002 2.2557188e-38
-0.040768944 0.15476367 0.903 2.3409916e-38
-0.037998237 0.15436786 0.903 2.2666951e-38
-0.034023721 0.15429109 0.90255558 2.1282236e-38
-0.030213615 0.15391374 0.90219992 1.8424209e-38
-0.027645683 0.1524462 0.90100002 1.9606581e-38
-0.049872693 0.15911762 0.90300006 2.1006851e-38
-0.045914538 0.15911762 0.903 2.3502251e-38
-0.041941486 0.15826726 0.90266669 2.2861487e-38
-0.037914079 0.15797533 0.90100002 2.1193668e-38
-0.034754574 0.15718547 0.90100002 2.3217268e-38
-0.056205727 0.16386741 0.903 2.1646892e-38
-0.05383084 0.16386741 0.903 2.2937259e-38
-0.049860805 0.16224381 0.90277779 2.3496884e-38
-0.045897301 0.16222367 0.90266669 2.23011e-38
-0.041916259 0.16212402 0.90211117 1.4370201e-38
-0.038703956 0.16192472 0.90100002 1.1238512e-38
-0.056997359 0.16624229 0.903 2.2859118e-38
-0.05383084 0.16624229 0.903 2.3501254e-38
-0.049837038 0.16611958 0.90233338 2.1649361e-38
-0.045812845 0.16587411 0.90100002 2.1463041e-38
-0.042653337 0.16587409 0.90100002 2.210784e-38
-0.035623346 0.16703393 0.903 1.1977866e-38
-0.056997355 0.17020045 0.903 2.3505561e-38
-0.053830843 0.17020045 0.903 2.3507728e-38
-0.049872689 0.17020045 0.903 2.0819209e-38
-0.045812845 0.1698235 0.90100002 2.3035599e-38
-0.041231561 0.16919158 0.90100002 2.1185553e-38
-0.03795528 0.17001197 0.90199995 1.7134705e-38
-0.035623349 0.17020045 0.90300006 1.2619996e-38
-0.060955506 0.17495023 0.903 1.4270868e-38
-0.057472337 0.17431693 0.903 2.0535176e-38
-0.05383084 0.17415859 0.903 2.293729e-38
-0.049818631 0.17396544 0.90200007 2.312636e-38
-0.046076141 0.17350957 0.90100002 2.3500553e-38
-0.04028371 0.17298298 0.90100002 1.5474458e-38
-0.03793468 0.17386886 0.90149999 1.1701637e-38
-0.035623346 0.17336696 0.903 1.1705961e-38
-0.057336628 0.17789058 0.903 1.6112327e-38
-0.053830843 0.17811674 0.903 1.7217236e-38
-0.049774893 0.17776568 0.90122223 2.0722082e-38
-0.046602722 0.17772226 0.90100002 2.0726401e-38
-0.056205727 0.18128327 0.903 1.4455375e-38
-0.05383084 0.18207489 0.903 1.3257158e-38
-0.049800217 0.18180606 0.90166664 1.2981633e-38
-0.046602722 0.18088175 0.90100002 1.454566e-38
-0.053039208 0.18603304 0.90300006 1.1878884e-38
-0.049812492 0.18580455 0.90188885 1.0867227e-38
-0.05383084 0.18999121 0.903 1.473799e-38
-0.050268501 0.18959539 0.903 1.0039983e-38
-0.033880711 0.14299625 0.90720004 1.9320456e-38
-0.030469425 0.14333616 0.9066667 2.2176715e-38
-0.02700484 0.14376105 0.90600002 2.0711322e-38
-0.03803296 0.14592396 0.90760005 2.0075546e-38
-0.034695838 0.14566723 0.90633339 2.099927e-38
-0.030181877 0.14534958 0.90600002 2.1077852e-38
-0.041612737 0.150545 0.90700006 2.164169e-38
-0.038389236 0.14905612 0.90600002 2.1091769e-38
-0.035741698 0.14852661 0.90600002 2.3496757e-38
-0.048556812 0.15522259 0.90799999 1.5192138e-38
-0.045870122 0.15457796 0.90733337 2.1453161e-38
-0.043068182 0.15367685 0.90640002 2.3126118e-38
-0.049667984 0.15774696 0.90649998 1.7138245e-38
-0.046067081 0.15726349 0.90600002 2.2664557e-38
-0.0436843 0.15646923 0.90600002 2.3504345e-38
-0.0595695 0.16758886 0.90600002 2.3502698e-38
-0.0595695 0.16997164 0.90600002 2.3500511e-38
-0.0595695 0.17314868 0.90600002 2.0259303e-38
-0.06115802 0.17791423 0.90600002 1.8422162e-38
-0.0595695 0.17870849 0.90600002 1.7403083e-38
-0.061952285 0.18188554 0.90600008 1.5105353e-38
-0.05851049 0.18241505 0.90600008 1.7043633e-38
-0.064477071 0.18626711 0.90799999 6.8030154e-39
-0.061952278 0.18585683 0.90600002 1.6858138e-38
-0.058067478 0.18613034 0.90733337 1.8427291e-38
-0.054803938 0.18585683 0.90600002 1.2987391e-38
-0.064477071 0.18865515 0.90799999 3.0305714e-39
-0.062020659 0.18924341 0.90700006 1.4820106e-38
-0.058080912 0.19015329 0.90755558 1.6767371e-38
-0.054803938 0.18823962 0.90600002 1.3079923e-38
-0.057186719 0.19300517 0.90600002 1.492346e-38
-0.040686097 0.14280023 0.91000003 1.7009846e-38
-0.038026877 0.14226839 0.91000003 1.8574297e-38
-0.035101734 0.1412047 0.91000003 2.3178322e-38
-0.041084982 0.14639018 0.91000003 1.674793e-38
-0.039090566 0.14439577 0.91000003 1.5635858e-38
-0.0454727 0.15077789 0.91000003 1.369186e-38
-0.043079399 0.14918236 0.91000003 1.9322275e-38
-0.046536393 0.15290527 0.91000003 1.7938946e-38
-0.044822212 0.143271 0.91299999 1.6281964e-38
-0.042421021 0.143271 0.91299999 1.6830105e-38
-0.039219435 0.1416702 0.91299999 1.9309698e-38
-0.048931152 0.14679345 0.91500002 1.4725074e-38
-0.04562261 0.14567217 0.91300005 1.6002866e-38
-0.042421021 0.14567217 0.91299999 1.6920144e-38
-0.048931152 0.15000205 0.91500008 1.5549087e-38
-0.046156205 0.14914057 0.91300005 1.4710331e-38
-0.052139752 0.1540128 0.91500002 1.3634156e-38
-0.049706563 0.15392819 0.9145 1.555157e-38
-0.052139752 0.15641925 0.91500002 1.1059532e-38
-0.050535448 0.15722141 0.91500002 1.3350339e-38
-0.052424666 0.15082173 0.92000002 1.4736185e-38
-0.050701138 0.14968908 0.91799998 1.5826398e-38
-0.052310698 0.15210341 0.91799998 1.4919497e-38
-0.050701138 0.15210341 0.91799998 1.7023128e-38
-0.066854596 0.17447419 0.93000001 2.025351e-38
-0.068033718 0.15983824 0.935 2.3509886e-38
-0.065540031 0.15893309 0.93450004 2.3509886e-38
-0.062980607 0.15949635 0.93300003 2.3509886e-38
-0.068033718 0.16229729 0.935 2.3509886e-38
-0.065540031 0.16221094 0.93450004 2.3509886e-38
-0.062162675 0.16195014 0.93300003 2.3509886e-38
-0.05970889 0.16195014 0.93300003 2.3509886e-38
-0.073771499 0.16639572 0.935 2.3502323e-38
-0.069263242 0.16598588 0.935 2.3509886e-38
-0.066073194 0.1662759 0.93433332 2.3509886e-38
-0.062295936 0.16557604 0.935 2.3509886e-38
-0.059836879 0.16475634 0.935 2.3509886e-38
-0.076230548 0.17049412 0.935 1.8315644e-38
-0.073771507 0.16967444 0.93500006 2.2473766e-38
-0.070443094 0.16955289 0.93433332 2.3311815e-38
-0.066078 0.16993445 0.9338572 2.3501249e-38
-0.06229594 0.16967444 0.93500006 2.3509168e-38
-0.073498271 0.17349963 0.93500006 1.6755152e-38
-0.07026922 0.17411458 0.93419999 1.8412469e-38
-0.065597989 0.17356473 0.93300003 2.293295e-38
-0.062980607 0.17340115 0.93300003 2.3495493e-38
-0.072951816 0.17787127 0.93500006 9.1058e-39
-0.070597097 0.17804627 0.93419999 9.4662602e-39
-0.0662985 0.17843615 0.93366671 1.6845467e-38
-0.063115619 0.17787127 0.93500006 1.9617137e-38
-0.069635823 0.18187283 0.93449998 5.3315427e-39
-0.066037372 0.18172827 0.9346 1.0486543e-38
-0.068033718 0.18442874 0.935 9.1840261e-40
-0.065574661 0.18442874 0.935 5.7071229e-39
-0.076638192 0.1582208 0.94 2.3509886e-38
-0.074166 0.1582208 0.94 2.3509886e-38
-0.070045665 0.15904486 0.94 2.3509886e-38
-0.077435091 0.16228297 0.93966669 2.3509516e-38
-0.074008197 0.16199574 0.93800008 2.3509886e-38
-0.070718944 0.16199574 0.93800008 2.3509886e-38
-0.05756193 0.16364035 0.93800002 2.3509886e-38
-0.055094991 0.16364035 0.93800002 2.258289e-38
-0.07733909 0.16619539 0.93849999 2.3302067e-38
-0.074008197 0.16528498 0.93800002 2.3509167e-38
-0.070718944 0.16528498 0.93800002 2.3509886e-38
-0.06002887 0.1669296 0.93800002 2.0651821e-38
-0.057592176 0.16619627 0.93849999 2.350518e-38
-0.055212464 0.16646145 0.94 2.3508448e-38
-0.077708609 0.1698077 0.93800002 1.9421606e-38
-0.06002887 0.16939655 0.93800002 1.9728789e-38
-0.057684664 0.16893366 0.94 2.3396036e-38
-0.055212464 0.16893366 0.94 2.3503043e-38
-0.07737986 0.17451715 0.93900001 1.2702883e-38
-0.07483051 0.17515273 0.93800002 1.3162768e-38
-0.077462263 0.17799839 0.94 9.4814404e-39
-0.07483051 0.17761967 0.93800002 1.0210348e-38
-0.076638192 0.18047059 0.94 8.4705493e-39
-0.074087098 0.18192586 0.93900001 9.6618632e-39
-0.071541257 0.18337588 0.93800002 1.0866489e-38
-0.070795208 0.18521774 0.93900001 9.118776e-39
-0.080740705 0.15900134 0.94300002 1.3666578e-38
-0.078536183 0.15872577 0.94300002 2.3509886e-38
-0.081016272 0.16203254 0.94300002 2.0830124e-38
-0.081016265 0.16616604 0.94300002 2.0440076e-38
-0.080189571 0.1702995 0.94300002 1.6752979e-38
-0.080189571 0.17360631 0.94300002 1.1234583e-38
-0.080189571 0.17691308 0.94300002 1.1146704e-38
-0.077985056 0.18214881 0.94300002 1.2802665e-38
-0.074402705 0.18518004 0.94300002 1.4458916e-38
-0.08560124 0.15541196 0.94800001 2.0111967e-38
-0.082932666 0.15508407 0.94599998 2.1948682e-38
-0.089567274 0.15757205 0.94599998 8.6754052e-39
-0.086249962 0.15757205 0.94599998 7.0266934e-39
-0.082435071 0.1574062 0.94600004 1.4034294e-38
-0.078786023 0.15674272 0.94599998 2.3509886e-38
-0.089438938 0.16145605 0.94639999 9.8721407e-39
-0.086280644 0.16177627 0.94633335 1.0433979e-38
-0.08376199 0.1617187 0.94599998 7.8575653e-39
-0.086387172 0.16612877 0.94749999 1.3467089e-38
-0.08376199 0.16586533 0.94599998 1.3830489e-38
-0.08560124 0.16870923 0.94800001 1.6505593e-38
-0.082976937 0.17010181 0.94650006 1.3266128e-38
-0.082103334 0.17415859 0.94599998 1.1418975e-38
-0.081550449 0.17830524 0.94599998 1.4003688e-38
-0.081055433 0.18174937 0.94666672 1.6303895e-38
-0.077956699 0.18493983 0.94599998 1.7227629e-38
-0.075628273 0.18699299 0.94800001 1.5657825e-38
-0.072151415 0.18825714 0.94599998 1.5291524e-38
-0.069663435 0.18825714 0.94599998 7.5475042e-39
-0.084204704 0.17424539 0.95099998 8.6757947e-39
-0.084204704 0.17758021 0.95099998 1.0518972e-38
-0.077535026 0.18758473 0.95099998 1.7041468e-38
-0.074200183 0.18925217 0.95099998 1.5842572e-38
-0.062528245 0.20259151 0.95099998 1.6399303e-38
-0.086143017 0.17144969 0.954 1.5313542e-38
-0.086323604 0.17348531 0.95599997 1.5497558e-38
-0.084647425 0.18102816 0.95599997 1.437926e-38
-0.082048103 0.1866993 0.95499998 1.6118047e-38
-0.081797086 0.18899822 0.95533335 1.6397136e-38
-0.077861145 0.19032812 0.95500004 1.7778663e-38
-0.073597923 0.19152185 0.954 1.5658172e-38
-0.070325315 0.1917226 0.95499998 9.6650834e-39
-0.067885555 0.19108528 0.95599997 5.5105081e-40
-0.077104583 0.19443764 0.95599997 1.7039995e-38
-0.07375221 0.19443764 0.95599997 1.519789e-38
-0.070399836 0.19443765 0.95599997 7.911563e-39
-0.067885555 0.19359955 0.95599997 3.6734647e-39
-0.07375221 0.19695191 0.95599997 1.160261e-38
-0.070399836 0.19695191 0.95599997 3.3989896e-39
-0.088275947 0.173189 0.95899999 1.5317864e-38
-0.084913053 0.1841184 0.95899999 1.1146263e-38
-0.083231606 0.1841184 0.95899999 1.4369961e-38
-0.083231606 0.19084418 0.95899999 1.1141997e-38
-0.08197052 0.19378671 0.95899999 1.6299153e-38
-0.079868719 0.19420707 0.95899999 1.7593891e-38
-0.088552095 0.1771042 0.96200001 1.061872e-38
-0.086865388 0.17794757 0.96200007 1.1073233e-38
-0.086865388 0.18216431 0.96200001 1.1059859e-38
-0.083665557 0.18676856 0.96399999 1.4824785e-38
-0.085178688 0.18891114 0.96200001 3.6824176e-39
-0.090707824 0.17548148 0.96700001 1.6975575e-38
-0.090707824 0.17802469 0.96700001 1.0894948e-38
-0.089012347 0.18226337 0.96700001 8.3033772e-39
-0.086469136 0.18650205 0.96700001 4.5074895e-39
-0.092689976 0.17772666 0.97000003 1.3832217e-38
-0.090989232 0.18197846 0.97000003 9.1342169e-39
-0.090138867 0.18537992 0.97000003 6.4551584e-39
