# .PCD v0.7 - Point Cloud Data file format
VERSION 0.7
FIELDS x y z rgb
SIZE 4 4 4 4
TYPE F F F F
COUNT 1 1 1 1
WIDTH 399
HEIGHT 1
VIEWPOINT 0 0 0 1 0 0 0
POINTS 399
DATA ascii
-0.024101319 0.1495944 0.94800001 1.1987584e-38
-0.022439159 0.1495944 0.94800001 9.3244025e-39
-0.024177589 0.14673296 0.95099998 1.2641248e-38
-0.022510169 0.14673296 0.95099998 1.1358859e-38
-0.025845008 0.1509015 0.95099998 1.069432e-38
-0.025011297 0.15256892 0.95099998 1.3276874e-38
-0.022510169 0.15256892 0.95099998 1.5679801e-38
-0.02425386 0.1446868 0.954 1.4117083e-38
-0.022581179 0.1446868 0.954 1.6240891e-38
-0.021018082 0.14376368 0.95899999 1.8823047e-38
-0.018495914 0.14376368 0.95899999 1.4591076e-38
-0.015973743 0.14376368 0.95899999 1.0995864e-38
-0.021018082 0.14628585 0.95899999 1.3291725e-38
-0.018495914 0.14628585 0.95899999 9.7047374e-39
-0.015973743 0.14628585 0.95899999 9.5188901e-39
-0.021018082 0.14964874 0.95899999 5.8281783e-39
-0.018495914 0.14964874 0.95899999 4.7351487e-39
-0.015973743 0.14964874 0.95899999 9.6996913e-39
-0.021438444 0.15427272 0.95899999 1.2088106e-38
-0.018776154 0.1527314 0.95899999 5.2847337e-39
-0.015973743 0.15217091 0.95899999 4.9145401e-39
0.021972772 0.09803237 0.96399999 2.3507901e-38
0.024508093 0.098877475 0.96399999 2.3501802e-38
0.022395324 0.10183536 0.96399999 2.3397699e-38
0.025987031 0.10246918 0.96399987 1.9531964e-38
0.021972772 0.10648343 0.96399999 2.3504116e-38
0.026198309 0.10648343 0.96399993 2.2486714e-38
0.021972772 0.10986386 0.96399999 2.3509886e-38
0.026198305 0.10986386 0.96399993 2.3136426e-38
0.019437451 0.1149345 0.96399999 2.3503419e-38
0.021972774 0.11408939 0.96399993 2.3507006e-38
0.025987025 0.11430066 0.96399987 2.2026114e-38
0.019437451 0.11831493 0.96399999 1.343859e-38
0.021972772 0.11831493 0.96399999 1.5374678e-38
0.025860263 0.11814591 0.96399993 1.638819e-38
0.022817878 0.12169535 0.96399999 1.0865424e-38
0.024508093 0.12169535 0.96399999 1.3997549e-38
-0.013521707 0.14282303 0.96399999 1.2828539e-38
-0.01014128 0.14282303 0.96399999 1.787625e-38
-0.013511771 0.14610176 0.96333331 9.3215523e-39
-0.01014128 0.14451323 0.96399999 1.7413492e-38
-0.013793474 0.15004383 0.96333331 1.1171584e-38
-0.017710419 0.15433365 0.96200001 1.0530532e-38
-0.014366813 0.15296429 0.96399999 8.1410284e-39
-0.0050864201 0.078839503 0.96700001 1.7858646e-38
-0.0059341569 0.082230449 0.96700007 1.9791184e-38
0.022041153 0.095794246 0.96700001 2.3509789e-38
0.014411522 0.098337449 0.96700001 2.2747258e-38
0.017802471 0.098337457 0.96700001 2.3311215e-38
0.014411522 0.10088066 0.96700001 2.0714644e-38
0.018141566 0.10155886 0.96700001 2.2837631e-38
0.021193415 0.10257614 0.96700001 2.3487043e-38
0.019074075 0.10554321 0.96700001 2.3501879e-38
0.021193415 0.10427161 0.96700001 2.3496797e-38
0.018650208 0.11020576 0.96700001 2.2392709e-38
0.018367629 0.11331414 0.96700001 2.1747737e-38
0.027975308 0.11274898 0.96700001 2.2940874e-38
0.017802469 0.1178354 0.96700001 1.7681038e-38
0.027975308 0.11953086 0.96700001 1.5194719e-38
0.030235942 0.11896571 0.96700001 1.4551142e-38
0.018650208 0.12207408 0.96700001 1.2151051e-38
0.021193415 0.12207408 0.96700001 1.1418598e-38
0.027127571 0.12207408 0.96700001 1.9437827e-38
0.030518519 0.12207408 0.96700001 1.7414944e-38
0.033061728 0.12207408 0.96700001 1.1611302e-38
0.018650208 0.12546504 0.96700001 1.9343838e-38
0.022041153 0.12546502 0.96700001 1.9162304e-38
0.026279835 0.12546504 0.96700001 2.0266146e-38
0.030518519 0.12546504 0.96700001 2.1558339e-38
-0.013563786 0.13902882 0.96700001 2.1486988e-38
-0.01017284 0.13818108 0.96700001 2.2865238e-38
-0.0059341565 0.13902882 0.96700001 2.2956353e-38
-0.0025432098 0.13987654 0.96700001 2.1549693e-38
-0.016954733 0.1432675 0.96700001 1.9560959e-38
-0.013563786 0.14157201 0.96700001 1.4120757e-38
-0.01017284 0.14157201 0.96700001 1.5671896e-38
-0.0059341565 0.14241976 0.96700001 2.1090136e-38
-0.0016954732 0.14241976 0.96700001 1.8220232e-38
-0.01017284 0.14665844 0.96700001 1.7131513e-38
-0.0059341565 0.14581069 0.96700001 1.9983779e-38
-0.0016954733 0.14581069 0.96700001 1.5004173e-38
0.0016954733 0.14581069 0.96700001 7.820459e-39
0.0042386833 0.14665844 0.96700001 2.4795584e-39
-0.012716049 0.15174486 0.96700001 1.1354162e-38
-0.010342388 0.1497103 0.96700001 9.4025712e-39
-0.0057222224 0.14983745 0.96700001 1.3166368e-38
-0.0016954734 0.15004939 0.96700001 9.2023508e-39
0.0016954734 0.15004939 0.96700001 5.1524974e-39
0.0042386833 0.14835392 0.96700001 3.6763864e-39
-0.016106997 0.1551358 0.96700001 1.2283312e-38
-0.012716049 0.15344034 0.96700001 1.1815885e-38
-0.0016954732 0.15344034 0.96700001 1.2070465e-38
0.0016954732 0.15344034 0.96700001 2.4011095e-39
-0.0014172777 0.078517191 0.97000003 2.3476874e-38
-0.0017007333 0.081635192 0.97000003 2.3476882e-38
-0.0057096053 0.086372957 0.97000015 2.0527317e-38
-0.0021259168 0.085461855 0.97000003 2.338001e-38
-0.0068029333 0.089288503 0.97000003 1.7947636e-38
0.011054766 0.094390698 0.97000003 2.3483838e-38
0.013605866 0.094390698 0.97000003 2.3509757e-38
0.017007332 0.094390698 0.97000003 2.350974e-38
-0.0093540326 0.097792171 0.97000003 1.7958377e-38
-0.0072281165 0.098217353 0.97000003 1.980158e-38
0.010629583 0.098217353 0.97000003 2.0436664e-38
0.013180682 0.097366981 0.97000003 2.2480769e-38
0.017857701 0.096091434 0.97000003 2.3509743e-38
-0.0093540326 0.102044 0.97000003 1.3723091e-38
-0.0068029333 0.102044 0.97000003 1.5283616e-38
0.010487854 0.10176055 0.97000003 1.9970365e-38
0.013322411 0.10232746 0.97000003 2.0804359e-38
0.016156966 0.10289437 0.97000003 2.3109907e-38
-0.0093540326 0.1045951 0.97000003 1.1054838e-38
-0.0076533002 0.1045951 0.97000003 1.077861e-38
0.013605866 0.10629584 0.97000015 2.3390292e-38
0.01683726 0.10663598 0.97000009 2.3497956e-38
0.014456232 0.11054766 0.97000003 2.1644359e-38
0.016156966 0.11054766 0.97000003 2.099899e-38
0.014456232 0.11309877 0.97000003 1.8328922e-38
0.016156966 0.11394913 0.97000003 2.0636345e-38
0.014456233 0.11820097 0.97000003 2.0728915e-38
0.016156968 0.11820097 0.97000003 1.7225481e-38
0.014456232 0.1224528 0.97000003 2.100515e-38
0.016156966 0.1224528 0.97000003 1.3076686e-38
0.034865033 0.1224528 0.97000003 8.8536643e-39
0.016156966 0.12585427 0.97000003 2.0169955e-38
0.034014665 0.12585427 0.97000003 1.3082082e-38
0.018343624 0.12986314 0.97000015 1.2432376e-38
0.022109535 0.13010611 0.97000015 1.5012361e-38
0.025511 0.13010611 0.97000015 1.8423286e-38
0.029762831 0.13010609 0.97000015 1.685919e-38
0.034014665 0.12925573 0.97000003 1.0595993e-38
-0.012755499 0.13435793 0.97000003 2.3509886e-38
-0.010204399 0.13435793 0.97000003 2.3509886e-38
-0.0063777501 0.13478312 0.97000003 2.3509886e-38
0.019558433 0.13435793 0.97000003 1.0230828e-38
0.021826079 0.13407448 0.97000003 9.9556581e-39
0.025794458 0.13407448 0.97000003 1.2161881e-38
0.02933765 0.13393274 0.97000003 1.1148452e-38
0.0331643 0.13350756 0.97000003 1.1061645e-38
-0.016156966 0.13860977 0.97000003 2.3509886e-38
-0.013605866 0.13690902 0.97000003 2.3509886e-38
-0.0059525669 0.13690904 0.97000003 2.3509886e-38
-0.0017007333 0.13775939 0.97000003 2.2486395e-38
0.00085036666 0.13860977 0.97000003 2.0445519e-38
0.019558433 0.13690902 0.97000003 9.9542371e-39
0.021259166 0.13690902 0.97000003 1.004678e-38
-0.017857699 0.14201124 0.97000009 2.2499695e-38
-0.00085036666 0.1403105 0.97000003 2.1642248e-38
0.00153066 0.14235137 0.97000009 1.528183e-38
0.0048187445 0.14314507 0.97000003 1.0945346e-38
0.0053856554 0.14597961 0.97000003 7.8186036e-39
-0.013605866 0.1556171 0.97000003 1.3939601e-38
-0.0099209435 0.15334946 0.97000003 1.0329915e-38
-0.0059525669 0.15419984 0.97000015 1.6033396e-38
-0.0017007333 0.1556171 0.97000003 1.8244282e-38
0.0017007333 0.1556171 0.97000003 9.1201997e-39
-0.018708067 0.15731783 0.97000003 1.246735e-38
0.01023596 0.0759167 0.97299999 2.3487221e-38
0.0017059932 0.079328686 0.97299999 2.1537892e-38
0.0059709768 0.078475691 0.97299999 2.3391769e-38
0.010241657 0.078516454 0.97350001 2.3509811e-38
0.013675999 0.076927498 0.97500002 2.3497253e-38
0.02307825 0.078636996 0.97500002 1.6222042e-38
0.025357585 0.078921914 0.97500008 1.4747648e-38
0.0017059932 0.081887677 0.97299999 2.0796344e-38
0.0059736068 0.081916019 0.97333336 2.2115053e-38
0.010252178 0.08201436 0.97450006 2.3509764e-38
-0.0093829632 0.08700566 0.97299999 1.9337409e-38
-0.0008529966 0.08700566 0.97299999 2.2912195e-38
0.0017059933 0.086152665 0.97299999 2.1985159e-38
0.0059744837 0.086191632 0.9734444 2.2487453e-38
0.010082193 0.085951738 0.97459996 2.3232063e-38
0.01282125 0.086329751 0.97500002 1.8985558e-38
0.025642499 0.085474998 0.97500002 1.3273909e-38
-0.0093829632 0.090417638 0.97299999 1.9062267e-38
-0.0055444781 0.090844147 0.97299999 1.8683023e-38
-0.0017059932 0.090417646 0.97299999 2.1707866e-38
0.0017059932 0.090417646 0.97299999 2.1523804e-38
0.0059709763 0.090417646 0.97299999 2.2843273e-38
0.010415676 0.089978784 0.9738 2.3500383e-38
0.013671617 0.089717478 0.97466671 2.3502855e-38
0.017949751 0.091458254 0.97500008 2.1756526e-38
-0.01279495 0.094682626 0.97299999 1.2333704e-38
-0.0099580567 0.094177663 0.97366667 1.915551e-38
-0.0059709768 0.093829632 0.97299999 1.7215083e-38
-0.0017059932 0.093829632 0.97299999 1.9218562e-38
0.0017059932 0.093829632 0.97299999 2.0047975e-38
0.0059709763 0.093829632 0.97299999 2.2180255e-38
0.0099516278 0.093545303 0.97299999 2.3487014e-38
0.013647947 0.09297663 0.97299999 2.3509696e-38
0.018339427 0.093403131 0.97299999 2.2772178e-38
0.022212539 0.093973845 0.97450006 1.5121789e-38
-0.01279495 0.09724161 0.97299999 1.141893e-38
-0.011088956 0.098094612 0.97299999 1.4280954e-38
-0.0049473806 0.097753413 0.97299999 1.6293867e-38
-0.0017059933 0.098094605 0.97299999 1.581455e-38
0.0017059933 0.098094605 0.97299999 1.7558714e-38
0.0059709768 0.09809462 0.97299999 1.9775292e-38
0.0093829632 0.09724161 0.97299999 2.0155128e-38
-0.01282125 0.1008605 0.97500002 1.0692524e-38
-0.011088956 0.10235959 0.97299999 1.1153859e-38
-0.0042649829 0.10235959 0.97299999 1.5276817e-38
-0.0017064316 0.10241263 0.97350001 1.5541908e-38
0.0017064316 0.10241263 0.97350001 1.6636393e-38
0.0059709768 0.10235959 0.97299999 1.6909001e-38
0.0093829632 0.10321259 0.97299999 2.198044e-38
-0.010520292 0.10605592 0.97299999 9.8624031e-39
-0.0056297779 0.10594219 0.97299999 1.2612814e-38
-0.00170687 0.10588029 0.97399998 1.6184375e-38
0.0017095 0.10598899 0.97500002 1.7094116e-38
0.0059785745 0.10591712 0.97433341 1.6163532e-38
0.010240781 0.10582637 0.97350001 2.1798557e-38
-0.01023596 0.10833057 0.97299999 1.032339e-38
-0.00548355 0.10979285 0.97300005 1.1514018e-38
-0.0021329299 0.10966574 0.97350001 1.5176306e-38
0.0019944168 0.10912307 0.97500008 1.7820181e-38
0.0059832502 0.10940799 0.97500002 2.0875219e-38
0.010245603 0.11014967 0.97399998 2.3494795e-38
0.01279495 0.11088956 0.97299999 2.1187727e-38
0.010256999 0.11453649 0.97500002 2.3498744e-38
0.013363615 0.11458588 0.97299999 2.1284245e-38
0.0076927501 0.11881025 0.97500002 2.3125634e-38
0.010251301 0.11789456 0.97450006 2.3126357e-38
0.01279495 0.11771353 0.97299999 2.2389511e-38
0.0017095001 0.12222924 0.97500002 2.3040636e-38
0.0076927501 0.12222925 0.97500008 2.1002619e-38
0.010245603 0.12210387 0.97399998 2.1647268e-38
0.012794951 0.12197851 0.97299999 2.2476307e-38
-0.00085474999 0.12650299 0.97500002 2.3509886e-38
0.0017095001 0.12650299 0.97500002 2.3509886e-38
0.0059832502 0.12650302 0.97500002 2.2675447e-38
0.010245603 0.12637325 0.97399998 1.6947788e-38
0.013647947 0.1262435 0.97299999 1.7773585e-38
-0.00085474999 0.129922 0.97500002 2.3509886e-38
0.0014245834 0.12963709 0.97500008 2.3509886e-38
0.0059832502 0.12906727 0.97500008 2.3507733e-38
0.010541916 0.12963709 0.97500008 2.1005859e-38
0.013668548 0.12985581 0.97449994 1.1599345e-38
0.016206935 0.13050848 0.97299999 1.1600051e-38
-0.014081896 0.13356191 0.97350001 2.3509886e-38
-0.01023596 0.13221449 0.97299999 2.3509886e-38
-0.0055466699 0.13313542 0.97350001 2.3509886e-38
-0.0017074546 0.13405696 0.97399998 2.341733e-38
0.0012816867 0.13455343 0.97450006 2.3042433e-38
0.011111749 0.13248624 0.97500002 2.0543023e-38
0.013676 0.13248624 0.97500002 1.3261747e-38
0.016902659 0.13437249 0.9738 1.0779326e-38
0.023030909 0.13562647 0.97299999 9.5868811e-39
0.024736902 0.13562647 0.97299999 1.0687818e-38
0.030770998 0.13590525 0.97500002 1.0873666e-38
0.034119867 0.13221449 0.97299999 1.1427202e-38
0.001992079 0.13799521 0.97366667 2.0543457e-38
0.0042737499 0.1384695 0.97500002 1.7035361e-38
0.017585056 0.13846968 0.9738 9.216326e-39
0.023030909 0.13733245 0.97299999 1.0231532e-38
0.025589898 0.13733245 0.97299999 9.7698431e-39
0.02814889 0.13733245 0.97299999 9.5854532e-39
-0.021368749 0.14274324 0.97500002 2.158134e-38
-0.01791293 0.14074445 0.97299999 2.0295643e-38
0.0025589899 0.14074445 0.97299999 1.3258932e-38
0.0042737499 0.14103374 0.97500002 1.4447389e-38
-0.021368749 0.14445275 0.97500002 1.9928301e-38
-0.022177912 0.15951037 0.97299999 3.1660363e-39
-0.017494759 0.15916584 0.97350001 1.044303e-38
-0.013661973 0.15882131 0.97400004 1.2006381e-38
-0.010249987 0.15802179 0.97433341 1.1163647e-38
-0.0062252106 0.15857135 0.97471434 1.5205093e-38
-0.0017077466 0.15882131 0.97400004 1.9069761e-38
0.0017090617 0.15890241 0.97450006 1.4556869e-38
-0.017095 0.16154775 0.97500002 1.0351207e-38
0.017147599 0.071162537 0.97799999 1.216404e-38
0.01371808 0.073734671 0.97799999 1.8238582e-38
0.01800498 0.073734678 0.97800004 1.3359025e-38
0.01371808 0.079736337 0.97799999 2.3506932e-38
0.018004978 0.078021586 0.97799999 1.5477679e-38
0.021863189 0.077592894 0.97799999 1.3640222e-38
0.024864018 0.07630682 0.97799999 1.3271817e-38
0.01371808 0.082308471 0.97799999 1.9814673e-38
0.017147599 0.082308471 0.97799999 2.0822325e-38
0.02229188 0.082308471 0.97799999 2.3037575e-38
0.024864018 0.082308471 0.97799999 1.944818e-38
-0.0094311787 0.084880613 0.97799999 1.9708346e-38
0.014003873 0.085452199 0.97800004 1.9627733e-38
0.017662028 0.085909478 0.97799999 2.2575479e-38
0.02229188 0.085737996 0.97799999 2.1563191e-38
0.01800498 0.089167506 0.97800004 2.092135e-38
0.02229188 0.090024889 0.97800004 9.4996854e-39
0.024864018 0.088310137 0.97799999 1.0505944e-38
-0.00085737993 0.11060201 0.97799999 1.4162505e-38
0.00085737993 0.11060201 0.97799999 1.689786e-38
-0.0048584864 0.11460312 0.97800004 1.0504188e-38
-0.0015432838 0.11437448 0.97799999 1.5281813e-38
0.0018862359 0.11403155 0.97799999 2.2188949e-38
0.0060016601 0.11403154 0.97799999 2.3495859e-38
-0.00171476 0.11831843 0.97799999 2.1280243e-38
0.0017147599 0.11831843 0.97799999 2.340149e-38
0.0056587076 0.11814696 0.97799999 2.3218549e-38
-0.00085737993 0.12174796 0.97799999 2.3504132e-38
0.0051442795 0.12174796 0.97799999 2.2111823e-38
-0.0020005533 0.12603486 0.97800004 2.3509886e-38
0.0051442795 0.12432009 0.97799999 2.1929271e-38
-0.0094311787 0.13117914 0.97799999 2.3509886e-38
-0.0055729696 0.13075045 0.97799999 2.3509886e-38
-0.00257214 0.13032176 0.97799999 2.3509886e-38
0.00257214 0.13117914 0.97799999 2.3509886e-38
0.0060016601 0.13117914 0.97800004 2.3507016e-38
0.0094311787 0.13117914 0.97799999 2.2299133e-38
-0.0060016597 0.13289389 0.97799999 2.3509886e-38
0.00257214 0.13375127 0.97799999 2.2672222e-38
0.0060016597 0.13375127 0.97800004 2.1923864e-38
0.010002766 0.13403708 0.97800004 1.9620038e-38
0.01371808 0.13460866 0.97799999 1.2711111e-38
0.0064915917 0.13779321 0.97800004 1.6574715e-38
0.010288559 0.13803817 0.97800004 1.5749608e-38
0.01371808 0.13803817 0.97800004 1.20679e-38
-0.021434499 0.14146769 0.97799999 1.6067982e-38
-0.019719739 0.14146769 0.97799999 1.8367098e-38
0.0065732463 0.14203928 0.97800004 1.223685e-38
0.014575459 0.14146769 0.97799999 1.4006218e-38
0.017147599 0.14146769 0.97799999 8.7557262e-39
-0.022291878 0.16290219 0.97799999 7.49201e-39
-0.018433668 0.16333088 0.97799999 1.3939611e-38
-0.01371808 0.16290219 0.97799999 1.2558123e-38
-0.010574352 0.1626164 0.97800004 1.006595e-38
-0.0060016597 0.16204481 0.97800004 8.4787245e-39
-0.00171476 0.16204481 0.97799999 1.8330017e-38
0.00085737993 0.16204481 0.97799999 1.9345986e-38
-0.01800498 0.16547433 0.97800004 1.5412219e-38
0.022073587 0.074247532 0.98100007 1.234953e-38
0.01978023 0.082560956 0.98100001 2.3499973e-38
0.01978023 0.085140988 0.98100001 2.2665518e-38
0.02924034 0.086861007 0.98100001 9.5876196e-39
0.026086969 0.0897277 0.98100007 9.8623834e-39
0.02924034 0.089441031 0.98100001 1.0415224e-38
0.024940288 0.09202107 0.98100001 6.2732629e-39
0.00086000998 0.11438133 0.98100001 1.8589359e-38
-0.0025800299 0.12212142 0.98100001 2.3504854e-38
-0.0043131998 0.12680808 0.98400003 2.3509886e-38
-0.0025800299 0.12470144 0.98100001 2.3509886e-38
-0.0051600598 0.1290015 0.98100001 2.3509886e-38
0.0077400901 0.14362165 0.98100001 1.0578772e-38
0.01003345 0.14247498 0.98100007 1.6390311e-38
0.012900149 0.14190164 0.98100001 1.6486104e-38
0.011214321 0.14406088 0.98400003 1.6671591e-38
0.01380224 0.14406088 0.98400003 1.870277e-38
0.017252799 0.14406088 0.98400003 1.4744817e-38
0.0025800299 0.16254188 0.98100001 1.4551453e-38
-0.024940288 0.16598193 0.98100007 7.3781727e-39
-0.022360258 0.16684194 0.98100001 1.3469935e-38
-0.018060211 0.16770194 0.98100007 1.2462306e-38
-0.013760159 0.16684194 0.98100001 1.0436885e-38
-0.010148118 0.16632593 0.98100007 5.1755824e-39
-0.0060200701 0.16512194 0.98100007 9.3077971e-39
-0.00172002 0.16512191 0.98100001 1.6398198e-38
0.0017246226 0.1655013 0.98325002 1.4645054e-38
-0.024940288 0.16942197 0.98100001 7.0104776e-39
-0.022360258 0.17028198 0.98100001 5.91382e-39
-0.018060211 0.17028198 0.98100007 5.3696986e-39
-0.013760159 0.17028198 0.98100001 3.7044152e-39
-0.010343133 0.17067319 0.98325002 1.3897714e-39
-0.0060384795 0.1682148 0.98400009 6.3539385e-39
-0.00172528 0.1682148 0.98400003 1.363052e-38
0.00086263998 0.1682148 0.98400003 1.2159336e-38
-0.022428639 0.17339064 0.98400003 3.691753e-39
-0.018087825 0.17398898 0.98250002 1.4787398e-39
-0.014074883 0.17378953 0.98300004 1.5694963e-39
-0.011214321 0.17339064 0.98400003 3.6892517e-39
-0.010383239 0.13065577 0.98699999 2.3509886e-38
-0.0069221593 0.1297905 0.98699999 2.3509886e-38
-0.011248509 0.13238631 0.98699999 2.3509886e-38
0.0077874293 0.14623062 0.98699999 1.0398286e-38
0.010383239 0.14623062 0.98699999 1.6577212e-38
0.01384432 0.14623062 0.98699999 1.9346343e-38
0.016440129 0.14623062 0.98699999 1.9716211e-38
-0.02682337 0.16613182 0.98699999 7.1934213e-39
-0.02682337 0.16959292 0.98699999 8.1164636e-39
-0.0060568894 0.17045818 0.98699999 6.3535461e-39
-0.0017305398 0.17045818 0.98699999 9.9466813e-39
0.0017305398 0.16959292 0.98699999 7.0900363e-39
-0.0069221593 0.17218871 0.98699999 4.8842006e-39
-0.0095372573 0.12745243 0.98900002 2.350481e-38
-0.0060691633 0.12658539 0.98900002 2.3504123e-38
-0.01040428 0.12918648 0.98900002 2.3502679e-38
-0.0078032096 0.12918648 0.98900002 2.3509886e-38
0.0078032096 0.149128 0.98900002 1.0950047e-38
0.010412827 0.14924175 0.98975003 1.6298472e-38
0.013596515 0.14899066 0.99000001 2.0081012e-38
0.016473442 0.14826098 0.98900002 2.109733e-38
0.011305492 0.15218931 0.99199998 1.6296245e-38
0.0130448 0.15218931 0.99199998 1.9984069e-38
0.0026010699 0.17080359 0.98900002 4.5103804e-39
0.0095951157 0.15264958 0.995 1.3071609e-38
0.014873526 0.15136001 0.99800003 1.989844e-38
0.014873526 0.15310983 0.99800003 1.9249847e-38
0.016673323 0.151815 1.001 2.0359059e-38
0.0070295515 0.1538002 1.0025001 9.0193679e-39
0.010562079 0.15579067 1.0039999 1.2979751e-38
0.014082773 0.15579067 1.0039999 1.9065421e-38
0.017769506 0.15429035 1.0034 1.741203e-38
