# .PCD v0.7 - Point Cloud Data file format
VERSION 0.7
FIELDS x y z rgb
SIZE 4 4 4 4
TYPE F F F F
COUNT 1 1 1 1
WIDTH 326
HEIGHT 1
VIEWPOINT 0 0 0 1 0 0 0
POINTS 326
DATA ascii
-0.05699034 0.17097104 0.95599997 2.3504472e-38
-0.05699034 0.17432341 0.95599997 1.7111331e-38
-0.041904662 0.1751615 0.95599997 2.2200805e-38
-0.038017176 0.1740092 0.95520002 2.3509886e-38
-0.034312733 0.17491721 0.95466661 2.3509886e-38
-0.041861705 0.17748992 0.95499992 1.4727483e-38
-0.038471639 0.1781404 0.954 1.4535585e-38
-0.034516118 0.17802426 0.95449996 1.8958464e-38
-0.031009451 0.17767578 0.95599997 1.3068367e-38
-0.041485615 0.18144719 0.95599997 2.1006599e-38
-0.038512841 0.18251322 0.95499992 2.0270484e-38
-0.034100827 0.18223594 0.9554286 1.4461022e-38
-0.031009451 0.18019006 0.95599997 7.2621999e-39
-0.036876105 0.18521862 0.95599997 2.294053e-38
-0.062213525 0.17066683 0.95899999 2.3495391e-38
-0.058430269 0.16940574 0.95899999 2.3508794e-38
-0.062213521 0.17402974 0.95900005 1.6276876e-38
-0.059691351 0.17402974 0.95899999 1.7658349e-38
-0.044558335 0.17571117 0.95899999 1.3165244e-38
-0.042036165 0.17402972 0.95899999 2.0731816e-38
-0.037832551 0.17234829 0.95899999 2.3509886e-38
-0.033628933 0.17402972 0.95899999 2.3509886e-38
-0.031106761 0.17571117 0.95899999 1.2811246e-38
-0.061933286 0.17795311 0.95899999 1.8789214e-38
-0.058009904 0.17823336 0.95900005 7.7311808e-39
-0.054647014 0.17907406 0.95899999 2.4795584e-39
-0.044558335 0.17739262 0.95899999 1.0039597e-38
-0.058850627 0.18075551 0.95899999 8.4751638e-39
-0.041195441 0.18579985 0.95899999 2.1920959e-38
-0.039513994 0.18579985 0.95899999 2.2294406e-38
-0.033628933 0.18579985 0.95899999 1.2801862e-38
-0.060002569 0.16648601 0.96399999 2.3509886e-38
-0.058221623 0.16749199 0.96249998 2.3509886e-38
-0.06588456 0.17062256 0.96349996 2.0087168e-38
-0.062473014 0.16884512 0.963 2.3509886e-38
-0.054255843 0.17020448 0.96399993 1.7970194e-38
-0.041410226 0.17155665 0.96399999 2.3509886e-38
-0.038029801 0.17155665 0.96399999 2.3509886e-38
-0.06845364 0.17409196 0.96399999 1.2256629e-38
-0.065781556 0.17373079 0.96200001 1.5925006e-38
-0.054058332 0.17400123 0.96349996 1.4458848e-38
-0.051551506 0.17493707 0.96399999 2.3877229e-39
-0.044790652 0.17493707 0.96399999 8.8482567e-39
-0.042167664 0.17288743 0.96200001 1.8431949e-38
-0.033768322 0.17306715 0.963 2.3509886e-38
-0.06845364 0.17747238 0.96399999 1.981666e-38
-0.06561289 0.17761022 0.96200001 1.9252023e-38
-0.063251495 0.17963426 0.96200001 1.8797204e-38
-0.054058332 0.17738077 0.96349996 5.8865059e-39
-0.051551506 0.17662728 0.96399999 1.3789674e-39
-0.02957873 0.17831749 0.96399999 6.154863e-39
-0.065918311 0.18169792 0.96399999 2.3034876e-38
-0.062473014 0.18235454 0.963 2.2939843e-38
-0.057828434 0.18277533 0.963 4.4214358e-39
-0.043011017 0.18300766 0.96200001 2.3222884e-38
-0.02957873 0.18000771 0.96399999 5.9776001e-39
-0.060847677 0.18507835 0.96399999 1.8138341e-38
-0.058312356 0.18507835 0.96399999 2.3877229e-39
-0.043055728 0.18573147 0.963 2.2294064e-38
-0.041832779 0.19057155 0.96399999 1.6022974e-38
-0.038003497 0.19001865 0.96333325 1.7128243e-38
-0.034649372 0.18845879 0.96399999 1.326287e-38
-0.061884776 0.16615638 0.96700001 2.3417333e-38
-0.057646088 0.16615638 0.96700001 2.3509886e-38
-0.068666667 0.17039506 0.96700001 2.1120358e-38
-0.066123456 0.16869959 0.96700001 2.1850384e-38
-0.041539095 0.16954732 0.96700001 2.3507351e-38
-0.03814815 0.16954735 0.96700001 2.3509886e-38
-0.033909462 0.17039506 0.96700001 2.3506654e-38
-0.07205762 0.17378601 0.96700001 8.7755181e-39
-0.06993828 0.17336214 0.96700001 9.9629406e-39
-0.051711936 0.17378601 0.96700001 0
-0.044930041 0.17378601 0.96700001 0
-0.043234568 0.17209053 0.96700001 1.2244752e-38
-0.033909462 0.17209053 0.96700001 2.3509886e-38
-0.031366255 0.17548148 0.96700001 1.2997429e-38
-0.072057612 0.17802469 0.96700001 1.5390544e-38
-0.070362143 0.17802469 0.96700001 1.8615236e-38
-0.068666667 0.18141565 0.96700001 2.1652271e-38
-0.06697119 0.18395886 0.96700001 1.8409968e-38
-0.066123456 0.18565431 0.96700001 1.3144017e-38
-0.062308647 0.18692592 0.96700001 1.4355147e-38
-0.056798354 0.18565431 0.96700001 2.1150919e-39
-0.043234568 0.18989301 0.96700001 1.5834237e-38
-0.033626884 0.19017558 0.96700001 8.839259e-39
-0.0663286 0.16752224 0.97000003 1.9365788e-38
-0.063777499 0.16582151 0.97000003 2.2495385e-38
-0.056974567 0.16582151 0.97000003 2.3509886e-38
-0.055273835 0.16752224 0.97000003 2.0928408e-38
-0.073131531 0.17092369 0.97000003 1.9285453e-38
-0.069730058 0.17007333 0.97000003 2.2591531e-38
-0.053573098 0.16922295 0.97000003 1.9247651e-38
-0.043368701 0.17007333 0.97000003 1.4441928e-38
-0.034014665 0.16922295 0.97000003 2.3228627e-38
-0.074832261 0.17347479 0.97000003 1.0067002e-38
-0.051872365 0.17262442 0.97000003 2.2958874e-39
-0.04506943 0.17262442 0.97000003 2.1122164e-39
-0.031463563 0.17432517 0.97000003 1.1338986e-38
-0.077383369 0.17687628 0.97000003 7.8409403e-39
-0.074662194 0.17738649 0.97000009 4.6277321e-40
-0.072281167 0.1811281 0.97000003 2.3481099e-38
-0.07058043 0.18197846 0.97000003 2.2206884e-38
-0.069730058 0.18452956 0.97000003 1.5560178e-38
-0.045069434 0.1862303 0.97000003 2.2849071e-38
-0.061541997 0.16325724 0.97500002 2.3509886e-38
-0.058123 0.16325724 0.97500002 2.3509886e-38
-0.076927498 0.16667624 0.97500002 2.0846656e-38
-0.073508501 0.16582149 0.97500002 2.0754821e-38
-0.070053995 0.16573602 0.97450006 1.8089075e-38
-0.066102944 0.16551378 0.97420007 2.0290614e-38
-0.061541997 0.16496675 0.97500002 2.3509886e-38
-0.058123 0.16496675 0.97500002 2.3509886e-38
-0.055558749 0.16582149 0.97500002 1.7885952e-38
-0.04154085 0.16599244 0.97500002 2.2666099e-38
-0.037570424 0.16565055 0.97400004 2.3509886e-38
-0.034154933 0.16565055 0.97399998 2.3226089e-38
-0.030258149 0.16599244 0.97500002 1.8325322e-38
-0.078434132 0.17036667 0.97460002 2.0662982e-38
-0.074454419 0.16925889 0.97300005 2.0387479e-38
-0.070230059 0.16860901 0.97299999 1.9282577e-38
-0.052139752 0.17180474 0.97500002 2.1122164e-39
-0.046125524 0.16997837 0.97433329 1.3240541e-38
-0.041826643 0.16815548 0.97366667 2.1560392e-38
-0.037531853 0.16804034 0.97299999 2.3509886e-38
-0.034119867 0.16804034 0.97299999 2.276728e-38
-0.02987417 0.16986261 0.97366673 1.5472328e-38
-0.078557216 0.17419016 0.97400004 1.2181301e-38
-0.047011249 0.17436899 0.97500002 9.1835496e-40
-0.029536827 0.1739838 0.9738 3.9568815e-39
-0.078557223 0.17845777 0.97399998 9.035515e-39
-0.0759167 0.17998229 0.97299999 0
-0.047011249 0.17693326 0.97500002 0
-0.029030815 0.17760564 0.97399998 5.0552851e-39
-0.029854883 0.18339427 0.97299999 6.3539973e-39
-0.021434499 0.14318246 0.97799999 2.3509886e-38
-0.019719739 0.14318246 0.97799999 2.3509886e-38
-0.022006087 0.14604038 0.97800004 2.3508074e-38
-0.019719739 0.14575458 0.97799999 2.350736e-38
-0.025721397 0.15089887 0.97799999 2.0728544e-38
-0.02229188 0.15004151 0.97800004 1.989591e-38
-0.018219324 0.15025584 0.97800004 1.8880304e-38
-0.02229188 0.15432838 0.97799999 2.0727484e-38
-0.018347932 0.15449986 0.97799999 1.8330025e-38
-0.021434499 0.15775791 0.97799999 2.1096618e-38
-0.018347932 0.15758644 0.97799999 1.2705388e-38
-0.077164203 0.16375957 0.97799999 2.1765011e-38
-0.065160871 0.16375957 0.97799999 2.0012941e-38
-0.060873974 0.16204481 0.97799999 2.3509886e-38
-0.058301836 0.16204481 0.97799999 2.3509886e-38
-0.053769976 0.16253476 0.97800004 1.7766379e-38
-0.049899515 0.16238777 0.97799999 2.2840034e-38
-0.046298519 0.16290219 0.97799999 2.3504807e-38
-0.042011619 0.16290221 0.97800004 2.3508088e-38
-0.037553243 0.16238777 0.97799999 2.3509886e-38
-0.034466673 0.16238777 0.97799999 2.3415889e-38
-0.030008299 0.16290221 0.97800004 2.174304e-38
-0.078021578 0.16604592 0.97800004 2.0387479e-38
-0.053157557 0.16633171 0.97799999 1.5546239e-38
-0.049728036 0.16633171 0.97799999 1.997359e-38
-0.046298519 0.16633171 0.97799999 2.1914121e-38
-0.043726377 0.16547433 0.97799999 2.3491131e-38
-0.028293537 0.16547433 0.97799999 2.2468368e-38
-0.026578778 0.16718909 0.97799999 2.0353985e-38
-0.081451096 0.17061861 0.97799999 1.6054284e-38
-0.079736337 0.16890386 0.97799999 2.0111972e-38
-0.052871764 0.16947544 0.97800004 1.3161687e-38
-0.049728036 0.16976123 0.97799999 1.2781301e-38
-0.025721397 0.16976124 0.97799999 1.2338727e-38
-0.081451103 0.17404813 0.97800004 1.0516333e-38
-0.04887066 0.17404813 0.97800004 1.5612034e-39
-0.02657878 0.17404813 0.97800004 2.6704209e-39
-0.048870657 0.17747766 0.97799999 9.1841101e-41
-0.026578778 0.17833504 0.97799999 2.8548163e-39
-0.024940288 0.14362165 0.98100001 2.3509886e-38
-0.022790264 0.14190164 0.98100001 2.3509886e-38
-0.017737245 0.14276324 0.98220009 2.3415889e-38
-0.02551363 0.14648837 0.98100007 2.3496877e-38
-0.023220269 0.14534168 0.98100001 2.3509886e-38
-0.017200198 0.1462017 0.98100001 2.045554e-38
-0.013774186 0.1454881 0.98200005 1.934453e-38
-0.010511584 0.14595132 0.98280001 1.3718823e-38
-0.028380331 0.15050174 0.98100001 2.0283729e-38
-0.025800299 0.14878172 0.98100001 2.2841461e-38
-0.016340189 0.14878172 0.98100001 1.8788454e-38
-0.013760159 0.14964172 0.98100001 2.0266474e-38
-0.010327352 0.14975679 0.98175001 7.9151615e-39
-0.05348368 0.15441255 0.98400003 2.3498406e-38
-0.035368241 0.15441255 0.98400003 2.3509886e-38
-0.028833348 0.15405947 0.98175001 2.3509886e-38
-0.025800299 0.15480179 0.98100001 2.3409794e-38
-0.016340189 0.15394178 0.98100001 1.9805497e-38
-0.01376016 0.1539418 0.98100007 1.6951006e-38
-0.010510533 0.1538792 0.98280001 4.8748343e-39
-0.0077637597 0.15354991 0.98400003 7.4509001e-39
-0.061247434 0.1595884 0.98400003 2.3509886e-38
-0.057965197 0.1575405 0.98200005 2.3506656e-38
-0.05400639 0.15771583 0.98175007 2.2944502e-38
-0.049931429 0.1575405 0.98200005 2.3505924e-38
-0.046535224 0.15770094 0.98300004 2.3509886e-38
-0.042254452 0.15780906 0.98366672 2.3509886e-38
-0.037937313 0.15778203 0.98350012 2.3509886e-38
-0.034656566 0.15811087 0.98340005 2.3509886e-38
-0.030152952 0.15814754 0.98271441 2.3509524e-38
-0.025800299 0.15824184 0.98100001 2.341014e-38
-0.023220269 0.15824184 0.98100001 2.3309675e-38
-0.016340189 0.15910184 0.98100001 7.1631687e-39
-0.013760159 0.15824184 0.98100001 2.3877481e-39
-0.010327352 0.15750083 0.98175001 2.9416226e-39
-0.06987384 0.16303895 0.98400009 2.057115e-38
-0.065462008 0.16279042 0.98250002 1.9737063e-38
-0.062333625 0.16172309 0.98300004 2.3509886e-38
-0.05848068 0.16082187 0.98100001 2.3509886e-38
-0.055040639 0.16082187 0.98100001 2.008103e-38
-0.049020566 0.16082187 0.98100001 2.3501635e-38
-0.046440542 0.16082187 0.98100001 2.3509886e-38
-0.042140484 0.16082188 0.98100007 2.3509886e-38
-0.03870045 0.16082187 0.98100001 2.3509886e-38
-0.033540387 0.16082187 0.98100001 2.3509886e-38
-0.030100351 0.16082188 0.98100007 2.322503e-38
-0.025800299 0.16168188 0.98100001 2.2572815e-38
-0.022378011 0.16180615 0.98175001 2.0447976e-38
-0.018077744 0.16184758 0.98200005 6.7212566e-39
-0.01380224 0.16131368 0.98400003 1.1967439e-39
-0.011214321 0.16131368 0.98400003 3.7775027e-39
-0.073960856 0.16426191 0.98100001 2.1213998e-38
-0.070520818 0.16426191 0.98100001 2.0387479e-38
-0.067940786 0.16426191 0.98100001 2.2683366e-38
-0.025628297 0.16563794 0.98100007 1.9890489e-38
-0.022572765 0.16594039 0.98280001 1.4270491e-38
-0.019840719 0.16562688 0.98400003 9.016739e-39
-0.022227708 0.17007683 0.98280001 4.4142135e-39
-0.050740588 0.17372203 0.98100001 1.2856969e-39
-0.024940288 0.17372203 0.98100001 2.1154534e-39
-0.02329128 0.17425328 0.98400003 2.2108846e-39
-0.021631747 0.141039 0.98699999 2.3509886e-38
-0.019035939 0.141039 0.98699999 2.3509886e-38
-0.0077874293 0.14796115 0.98699999 8.9236158e-39
-0.053646736 0.15055697 0.98699999 2.3501276e-38
-0.0072105825 0.15084539 0.98699999 7.1811936e-39
-0.056819394 0.15430649 0.98699999 2.3501635e-38
-0.05364674 0.15315279 0.98699999 2.3508092e-38
-0.050474085 0.15430649 0.98699999 2.3507374e-38
-0.045859307 0.15488333 0.98699999 2.3509886e-38
-0.041532956 0.15488333 0.98699999 2.3509886e-38
-0.032880258 0.15488333 0.98699999 2.3509886e-38
-0.062299438 0.1583444 0.98699999 2.3326215e-38
-0.059703626 0.15661387 0.98699999 2.3509886e-38
-0.032880258 0.15661387 0.98699999 2.3509886e-38
-0.073547944 0.16353603 0.98699999 1.974463e-38
-0.068356328 0.16180548 0.98699999 2.1489505e-38
-0.065472096 0.16122864 0.98699999 2.0473554e-38
-0.063164711 0.16007495 0.98699999 2.3509886e-38
-0.018170668 0.16526656 0.98699999 3.5815844e-39
-0.019901209 0.16959292 0.98699999 2.3902368e-39
-0.017393064 0.13479626 0.99199998 2.3508451e-38
-0.013914453 0.13479626 0.99199998 2.3508809e-38
-0.021675583 0.13872373 0.98900002 2.3507016e-38
-0.018207489 0.13785671 0.98900002 2.3507374e-38
-0.013914453 0.13740522 0.99199998 2.350271e-38
-0.010435839 0.13827488 0.99199998 2.3495895e-38
-0.0078268796 0.13827488 0.99199998 2.3498047e-38
-0.016473442 0.1413248 0.98900002 2.3509886e-38
-0.013886399 0.14146595 0.99000001 2.2116891e-38
-0.01042532 0.14160883 0.99100006 2.3308607e-38
-0.0072471108 0.14291303 0.99199998 2.0816077e-38
-0.0095372573 0.1447929 0.98900002 1.7494925e-38
-0.0069513088 0.14599064 0.99125004 1.5192532e-38
-0.060875729 0.15045002 0.99199998 2.258722e-38
-0.057267591 0.15097579 0.98975003 2.3129978e-38
-0.050287351 0.15086205 0.98900002 2.3500559e-38
-0.046421908 0.15140931 0.98975003 2.3224689e-38
-0.0060875728 0.14958036 0.99199998 7.8312279e-39
-0.066093653 0.15566793 0.99199998 2.0387479e-38
-0.06171871 0.15386139 0.99157155 2.1018099e-38
-0.058957584 0.15433015 0.98900002 2.3503787e-38
-0.049420331 0.15346313 0.98900002 2.3504863e-38
-0.045952238 0.15346313 0.98900002 2.2764783e-38
-0.041617118 0.15346313 0.98900002 2.3509886e-38
-0.038149025 0.15519717 0.98900002 2.3509886e-38
-0.072181225 0.15914655 0.99199998 1.7448743e-38
-0.069572262 0.15914655 0.99199998 2.1765011e-38
-0.065944396 0.15791726 0.98975003 2.2040518e-38
-0.062425677 0.15693122 0.98900002 1.9547288e-38
-0.073769748 0.16229555 0.99000001 1.9376212e-38
-0.070282146 0.16138798 0.98975003 2.0938492e-38
-0.066760793 0.16039932 0.98900002 2.3234379e-38
-0.017340466 0.16646847 0.98900002 3.673794e-39
-0.014204337 0.16494425 0.99199998 3.2225324e-39
-0.011339683 0.13694848 0.995 2.3504146e-38
-0.0078505492 0.14043762 0.995 2.3492652e-38
-0.0043614162 0.14654359 0.995 7.8197681e-39
-0.065421246 0.150905 0.995 2.240786e-38
-0.063676685 0.150905 0.995 2.1213998e-38
-0.0043614162 0.15003273 0.995 7.0936629e-39
-0.066002771 0.15381263 0.99500006 2.2224189e-38
-0.063676685 0.15264958 0.995 1.9460844e-38
-0.072981037 0.15788329 0.99500006 1.6800513e-38
-0.069782667 0.15701099 0.995 1.9652795e-38
-0.066493407 0.1504851 0.99800003 2.1397669e-38
-0.063868672 0.14961018 0.99800003 2.0754821e-38
-0.073492721 0.15485966 0.99800003 1.9377288e-38
-0.069993064 0.15398476 0.99800003 1.8918111e-38
-0.067368321 0.15310983 0.99800003 2.1489505e-38
-0.074367635 0.15748438 0.99800003 1.2115405e-38
-0.0055682948 0.14273858 1.003 2.3500102e-38
-0.0043877168 0.14479466 1.001 2.3489385e-38
-0.0026365749 0.14588916 1.0025001 1.6295958e-38
-0.069980204 0.15137988 1.0020001 2.0846656e-38
-0.067570835 0.15005991 1.001 2.0387479e-38
-0.061428033 0.15005991 1.001 2.2128759e-38
-0.058795404 0.15005991 1.001 2.276261e-38
-0.0017564016 0.14940591 1.0025001 4.5078314e-39
-0.07349389 0.15313673 1.0020001 1.9928301e-38
-0.0026405198 0.15226997 1.0039999 7.7426028e-39
-0.0050025522 0.14095426 1.007 2.3503762e-38
-0.0026484097 0.14389692 1.007 2.3506981e-38
-0.00088280329 0.14654535 1.007 1.0677775e-38
0.00088543328 0.14786735 1.01 5.1427878e-39
-0.00266419 0.14297819 1.013 2.3509886e-38
0.0017761267 0.14653045 1.013 1.5195553e-38
0.0053283796 0.14653045 1.013 1.7495119e-38
0.0017840166 0.14272001 1.0175 2.3307329e-38
0.0055286111 0.14214273 1.0172001 2.0904828e-38
0.0095894178 0.14205068 1.0175 1.3999276e-38
0.0062716729 0.13887276 1.022 1.8419211e-38
0.0080635799 0.13887276 1.022 1.7042072e-38
