# .PCD v0.7 - Point Cloud Data file format
VERSION 0.7
FIELDS x y z rgb
SIZE 4 4 4 4
TYPE F F F F
COUNT 1 1 1 1
WIDTH 405
HEIGHT 1
VIEWPOINT 0 0 0 1 0 0 0
POINTS 405
DATA ascii
-0.20429577 0.11097547 0.95899999 2.3467918e-38
-0.2017736 0.11097547 0.95899999 2.1423141e-38
-0.20429577 0.11349764 0.95899999 2.3462893e-38
-0.2017736 0.11433837 0.95899999 2.2435842e-38
-0.19925143 0.11517908 0.95899999 2.1050059e-38
-0.2017736 0.11770125 0.95899999 2.2893945e-38
-0.19925143 0.11770125 0.95899999 2.1783667e-38
-0.2017736 0.12022343 0.95899999 2.3448544e-38
-0.19925143 0.12022343 0.95899999 2.1600713e-38
-0.20113538 0.095497049 0.96399999 2.3484952e-38
-0.19754982 0.094552882 0.963 2.0996735e-38
-0.19501711 0.094552875 0.963 2.3440652e-38
-0.20231853 0.097863354 0.96399993 2.3038e-38
-0.19785069 0.097997658 0.96200001 2.1246669e-38
-0.19481461 0.096985631 0.96200001 2.3432042e-38
-0.20874134 0.10394812 0.96399999 2.3497523e-38
-0.20599298 0.10299606 0.96299994 2.3501136e-38
-0.20198137 0.10236223 0.96299994 2.1719877e-38
-0.19829103 0.10083376 0.96249998 2.1966979e-38
-0.20916037 0.10669091 0.96333331 2.3487839e-38
-0.20588559 0.10631731 0.96249998 2.3487824e-38
-0.20169996 0.10633616 0.96266669 2.1604668e-38
-0.20936991 0.1097499 0.96299994 2.3477736e-38
-0.20605932 0.10935482 0.96200007 2.3478841e-38
-0.2024048 0.10879257 0.96200001 2.0594827e-38
-0.2090556 0.11360855 0.96349996 2.3465144e-38
-0.20619988 0.11427437 0.96200001 2.3463343e-38
-0.20599298 0.1181922 0.96299994 2.3455734e-38
-0.20874134 0.12169535 0.96399999 2.2338626e-38
-0.20620601 0.12169535 0.96399999 2.3079052e-38
-0.20212369 0.12284847 0.96200007 2.3451444e-38
-0.19903138 0.12228623 0.96200001 2.2610189e-38
-0.20240304 0.12549834 0.96399999 2.3451805e-38
-0.19860005 0.12423067 0.96399999 2.3442804e-38
-0.20557614 0.095370367 0.96700001 2.3487449e-38
-0.20147875 0.093533605 0.96700001 2.2848937e-38
-0.19837037 0.092403293 0.96700001 2.3487801e-38
-0.19469687 0.092968449 0.96700001 2.0052109e-38
-0.20939095 0.099185184 0.96700001 2.3496442e-38
-0.20684774 0.098337442 0.96700001 2.3497511e-38
-0.21023868 0.10172839 0.96700001 2.3494649e-38
-0.20684774 0.10088066 0.96700001 2.3503651e-38
-0.21278189 0.10596709 0.96700001 2.3480586e-38
-0.21108642 0.10511935 0.96700001 2.3488143e-38
-0.21362963 0.11020576 0.96700001 2.3457897e-38
-0.21278189 0.11359671 0.96700001 2.3446391e-38
-0.21108642 0.11444444 0.96700001 2.3457543e-38
-0.20995611 0.11783539 0.96700001 2.3451784e-38
-0.21108642 0.12207408 0.96700001 2.09593e-38
-0.21023868 0.12546504 0.96700001 2.0960376e-38
-0.20684773 0.12546504 0.96700001 2.1326283e-38
-0.19921811 0.12631276 0.96700001 2.3444239e-38
-0.20600002 0.12800823 0.96700001 2.1789055e-38
-0.20176132 0.12800823 0.96700001 2.3452131e-38
-0.20238726 0.090989232 0.97000003 2.2401307e-38
-0.1989858 0.090989232 0.97000003 2.3491746e-38
-0.20833983 0.094390698 0.97000003 2.3491771e-38
-0.20578873 0.093540333 0.97000003 2.3499369e-38
-0.20323762 0.092689969 0.97000003 2.3509823e-38
-0.21344203 0.0994929 0.97000003 2.3496804e-38
-0.21089095 0.097792163 0.97000003 2.3496436e-38
-0.2168435 0.10289437 0.97000003 2.3493577e-38
-0.21400893 0.10232746 0.97000003 2.3493212e-38
-0.21684352 0.10629584 0.97000003 2.347774e-38
-0.21514277 0.10629584 0.97000003 2.347774e-38
-0.21769387 0.11054766 0.97000003 2.3451446e-38
-0.2168435 0.11394913 0.97000003 2.3076912e-38
-0.21514276 0.11394913 0.97000003 2.2706338e-38
-0.2168435 0.11650023 0.97000003 2.1784743e-38
-0.21386722 0.11777578 0.97000003 2.2429026e-38
-0.2117413 0.11905134 0.97000003 2.3446033e-38
-0.21429239 0.1224528 0.97000003 2.1145482e-38
-0.21429239 0.12585427 0.97000003 2.1330229e-38
-0.21344203 0.12840536 0.97000003 2.1239111e-38
-0.20961538 0.1296809 0.97000003 2.1053646e-38
-0.20578873 0.13095647 0.97000003 2.1144406e-38
-0.20267072 0.13067302 0.97000003 2.298542e-38
-0.19779527 0.12908566 0.97000009 2.344424e-38
-0.20492873 0.090509698 0.97399998 2.3509802e-38
-0.201721 0.089748748 0.97500002 2.3506919e-38
-0.21283275 0.09487725 0.97500002 2.3499327e-38
-0.2102685 0.094022498 0.97500002 2.3498616e-38
-0.20727818 0.09297663 0.97299999 2.3507655e-38
-0.21625175 0.098296247 0.97500002 2.3502183e-38
-0.21424887 0.098161831 0.97366667 2.3500399e-38
-0.22138025 0.10342475 0.97500002 2.3489963e-38
-0.21870422 0.10166308 0.97449994 2.3496084e-38
-0.21580814 0.1015066 0.97299999 2.3495725e-38
-0.22479926 0.10598899 0.97500002 2.3471947e-38
-0.22212148 0.1059342 0.97450006 2.3477354e-38
-0.21922013 0.10577159 0.97299999 2.348096e-38
-0.22479926 0.11026274 0.97500008 2.3452892e-38
-0.22200793 0.11014967 0.97399998 2.3456133e-38
-0.21922013 0.10833057 0.97299999 2.3467278e-38
-0.22138025 0.11453649 0.97500002 2.2798879e-38
-0.21922013 0.11430155 0.97299999 2.2983627e-38
-0.22138025 0.11710075 0.97500002 2.1051494e-38
-0.21880166 0.11807911 0.97366667 2.1144764e-38
-0.21580814 0.11856653 0.97299999 2.012991e-38
-0.21805328 0.12161382 0.97350001 2.1238393e-38
-0.21580814 0.12027252 0.97299999 2.0500481e-38
-0.21751413 0.12539051 0.97299999 2.1239111e-38
-0.19874822 0.1270965 0.97299999 2.2980757e-38
-0.21069016 0.13050848 0.97299999 2.1146917e-38
-0.20045421 0.13050848 0.97299999 2.3446759e-38
-0.20513999 0.13419574 0.97500002 2.1143329e-38
-0.20173006 0.13287491 0.97366667 2.3447117e-38
-0.19809861 0.13320512 0.97399998 2.3448551e-38
-0.19291049 0.083165854 0.97799999 2.3491407e-38
-0.19033834 0.083165854 0.97799999 2.04468e-38
-0.18690883 0.083165854 0.97799999 2.3243708e-38
-0.19719739 0.086595379 0.97799999 2.3495725e-38
-0.19348209 0.086023793 0.97800004 2.2380404e-38
-0.19033834 0.085737996 0.97799999 2.1061897e-38
-0.18690883 0.084880613 0.97799999 2.3421639e-38
-0.20662858 0.090024889 0.97799999 2.3509042e-38
-0.19756483 0.090024896 0.97800004 2.2661639e-38
-0.19376788 0.088310137 0.97799999 1.9888518e-38
-0.21348761 0.093454413 0.97799999 2.3502588e-38
-0.21177284 0.093454413 0.97799999 2.3502222e-38
-0.22034664 0.098598696 0.97799999 2.3501479e-38
-0.2180603 0.097455524 0.97800004 2.3503634e-38
-0.21520236 0.096883938 0.97799999 2.350401e-38
-0.22892046 0.10374297 0.97799999 2.3482755e-38
-0.22634831 0.10202821 0.97800004 2.3489235e-38
-0.22263299 0.10145663 0.97800004 2.3493569e-38
-0.2349221 0.10631511 0.97799999 2.2542495e-38
-0.22892046 0.10631511 0.97799999 2.346768e-38
-0.22720568 0.10631511 0.97799999 2.3468402e-38
-0.2349221 0.10888726 0.97799999 2.0329038e-38
-0.22949205 0.11003044 0.97800004 2.3450381e-38
-0.22720568 0.10974464 0.97799999 2.3454694e-38
-0.22977784 0.11317416 0.97799999 2.0964348e-38
-0.22663411 0.11345994 0.97800004 2.2524455e-38
-0.22377616 0.11488892 0.97799999 2.2430102e-38
-0.22206141 0.11917581 0.97799999 2.1054364e-38
-0.22148983 0.12203376 0.97800004 2.1146558e-38
-0.22034664 0.12432009 0.97799999 2.0779575e-38
-0.20148429 0.13460866 0.97799999 2.3448544e-38
-0.19634001 0.13460866 0.97799999 2.3450011e-38
-0.20491379 0.13632341 0.97799999 2.1603583e-38
-0.20234168 0.13632341 0.97799999 2.2985779e-38
-0.19719739 0.13632341 0.97799999 2.3448231e-38
-0.19694228 0.074820869 0.98100001 2.3507999e-38
-0.19436225 0.073960856 0.98100001 2.3509825e-38
-0.19075391 0.074269094 0.98280001 2.3414743e-38
-0.19724342 0.077520564 0.98250002 2.350943e-38
-0.19419025 0.077916913 0.98100007 2.2955582e-38
-0.19063857 0.077904731 0.98271435 2.3406047e-38
-0.18719287 0.077637598 0.98400003 2.1275493e-38
-0.20099512 0.083676085 0.98400003 2.3509795e-38
-0.19787227 0.082143836 0.98220009 2.304886e-38
-0.19494152 0.081762098 0.98175001 2.3498988e-38
-0.19020751 0.081332088 0.98175001 2.2928492e-38
-0.18719287 0.081950799 0.98400003 1.9115774e-38
-0.20444568 0.086263999 0.98400003 2.3509426e-38
-0.20124234 0.086000994 0.98100001 2.3508707e-38
-0.19780231 0.085140988 0.98100001 2.2951548e-38
-0.19522226 0.085140988 0.98100001 2.3490353e-38
-0.18834218 0.086861007 0.98100001 2.3424509e-38
-0.20554239 0.088581026 0.98100001 2.3509797e-38
-0.20210235 0.088581026 0.98100007 2.2770767e-38
-0.19436225 0.090301044 0.98100001 2.0422679e-38
-0.19006221 0.088581026 0.98100007 2.3420921e-38
-0.22611426 0.094887763 0.98220009 2.3501891e-38
-0.22198199 0.094198704 0.98220009 2.3502209e-38
-0.21837768 0.094122432 0.98200005 2.3502569e-38
-0.2158625 0.095461108 0.98100001 2.3501126e-38
-0.2096215 0.092302479 0.98400003 2.3507232e-38
-0.23205017 0.099203601 0.98400003 2.3492879e-38
-0.22962266 0.098041132 0.98100001 2.3499327e-38
-0.22618262 0.09804114 0.98100007 2.3499327e-38
-0.22216925 0.097754464 0.98100007 2.3502204e-38
-0.23306271 0.10148117 0.98100001 2.3487448e-38
-0.23048267 0.10148117 0.98100001 2.3488862e-38
-0.23650274 0.10406121 0.98100001 2.1803879e-38
-0.2334927 0.10535122 0.98100001 2.3472003e-38
-0.2313427 0.10578123 0.98100007 2.3471627e-38
-0.23363607 0.11036795 0.98100007 2.2349809e-38
-0.23134269 0.10922126 0.98100001 2.3450012e-38
-0.23306271 0.11266131 0.98100001 2.0503379e-38
-0.23205017 0.11645639 0.98400003 1.6834338e-38
-0.23032486 0.11645639 0.98400003 2.0872489e-38
-0.22628143 0.11787359 0.98142862 2.0684871e-38
-0.22480583 0.12230946 0.98250002 2.0596621e-38
-0.22256112 0.12594545 0.98400003 2.105544e-38
-0.21479736 0.13198392 0.98400003 2.1055081e-38
-0.20898242 0.13502157 0.98100001 2.1238398e-38
-0.2096215 0.13715976 0.98400003 2.1790851e-38
-0.20690034 0.13802943 0.98200005 2.1237689e-38
-0.20167235 0.1380316 0.98100001 2.2895737e-38
-0.19780231 0.1384616 0.98100001 2.344858e-38
-0.20613085 0.14157881 0.98175001 1.8569426e-38
-0.20234807 0.14141022 0.98100007 2.1514623e-38
-0.19780231 0.14104164 0.98100001 2.3448555e-38
-0.20185775 0.14406088 0.98400003 2.1513561e-38
-0.1984072 0.14492352 0.98400003 2.3447842e-38
-0.19987735 0.075278483 0.98699999 2.350692e-38
-0.19987735 0.077874303 0.98699999 2.3505822e-38
-0.20506898 0.083931185 0.98699999 2.3504367e-38
-0.20247316 0.083065912 0.98699999 2.3507264e-38
-0.19987735 0.080470107 0.98699999 2.3509825e-38
-0.18949412 0.080470107 0.98699999 2.3483516e-38
-0.18776359 0.080470107 0.98699999 1.5916272e-38
-0.20679951 0.08652699 0.98699999 2.3504023e-38
-0.22497019 0.092583887 0.98699999 2.3502941e-38
-0.21718276 0.092583887 0.98699999 2.3504045e-38
-0.21545222 0.092583887 0.98699999 2.3504045e-38
-0.23102707 0.11854198 0.98699999 2.0414053e-38
-0.22929654 0.12113778 0.98699999 1.9040483e-38
-0.22756599 0.12286833 0.98699999 2.078101e-38
-0.22583544 0.12632942 0.98699999 2.0598429e-38
-0.21718276 0.13238631 0.98699999 2.1147275e-38
-0.21372168 0.13411684 0.98699999 2.1237317e-38
-0.21199115 0.13584739 0.98699999 2.1789406e-38
-0.21112588 0.1384432 0.98699999 2.1793025e-38
-0.20506898 0.14623062 0.98699999 8.1758773e-39
-0.20218474 0.14680748 0.98699999 2.0962556e-38
-0.1974546 0.14692284 0.98699999 2.3359578e-38
-0.18914957 0.073920533 0.99199998 2.350513e-38
-0.18697546 0.073920533 0.99199998 2.3502214e-38
-0.20436852 0.079138443 0.99199998 2.3504387e-38
-0.20262922 0.078268796 0.99199998 2.3504377e-38
-0.18697546 0.078268796 0.99199998 2.3456136e-38
-0.20532028 0.081374243 0.99100006 2.3503657e-38
-0.20288345 0.081500188 0.98900002 2.3505458e-38
-0.18697546 0.081747405 0.99199998 2.3418052e-38
-0.22089192 0.087834984 0.99199998 2.3499349e-38
-0.21712343 0.087255225 0.99199998 2.3502211e-38
-0.21393472 0.086965337 0.99199998 2.3500781e-38
-0.21003181 0.085920349 0.99000001 2.3501499e-38
-0.20721857 0.08410126 0.98900002 2.3503647e-38
-0.22166896 0.090459436 0.98900002 2.3501502e-38
-0.21810062 0.090051197 0.9896 2.3502225e-38
-0.21419667 0.09050741 0.99080002 2.3502219e-38
-0.21010867 0.08988142 0.98900002 2.3502917e-38
-0.21935691 0.0927715 0.98900002 2.3502218e-38
-0.21328774 0.0927715 0.98900002 2.350151e-38
-0.23062819 0.12225029 0.98900002 1.8490544e-38
-0.22976117 0.12571837 0.98900002 1.5920645e-38
-0.22109094 0.12918648 0.98900002 2.1329153e-38
-0.21828297 0.13479626 0.99199998 2.1329153e-38
-0.2158888 0.13438861 0.98900002 2.1329153e-38
-0.21654366 0.13653557 0.99199998 2.1514617e-38
-0.21379328 0.13799611 0.99000001 2.1516421e-38
-0.21393472 0.14088383 0.99199998 1.9487442e-38
-0.21032169 0.14262548 0.99000001 1.801555e-38
-0.2104561 0.1452321 0.99199998 8.9080431e-39
-0.20721857 0.14652695 0.98900002 5.7856363e-39
-0.19567199 0.1469714 0.99199998 2.3453566e-38
-0.20492652 0.1493555 0.99049997 9.4590561e-39
-0.20201644 0.14941701 0.98900002 1.8934645e-38
-0.19797981 0.15022253 0.99049997 2.3453974e-38
-0.19567199 0.14871071 0.99199998 2.3456436e-38
-0.19828095 0.15218931 0.99199998 1.8653728e-38
-0.18492405 0.073271796 0.995 2.3219511e-38
-0.19626375 0.150905 0.995 2.346296e-38
-0.20123008 0.074367635 0.99800003 2.3509824e-38
-0.18285687 0.073492721 0.99800003 1.9794201e-38
-0.18591908 0.077429831 0.99800003 2.0044173e-38
-0.20910428 0.082241856 0.99800003 2.3504376e-38
-0.22135307 0.086616419 0.99800003 2.3499351e-38
-0.21785343 0.085741505 0.99800003 2.350149e-38
-0.21435377 0.084866591 0.99800003 2.3500772e-38
-0.22193635 0.13269518 0.99800003 2.1146918e-38
-0.21872833 0.13823631 0.99800003 2.1425293e-38
-0.21435377 0.1452356 0.99800003 7.4386752e-39
-0.21085411 0.14786035 0.99800003 1.1938615e-39
-0.1968555 0.14611052 0.99800003 2.3450696e-38
-0.19510567 0.14786035 0.99800003 2.3459355e-38
-0.21300192 0.073934555 1.0039999 2.350767e-38
-0.20977461 0.073641166 1.0039999 2.3508002e-38
-0.20599528 0.073932812 1.0016001 2.3508005e-38
-0.20183498 0.072836094 1.001 2.3316393e-38
-0.18219586 0.074814729 1.0039999 2.344388e-38
-0.17901884 0.07459119 1.001 2.3460088e-38
-0.21828297 0.077455245 1.0039999 2.3500469e-38
-0.21388212 0.077455245 1.0039999 2.3505479e-38
-0.2101519 0.078255646 1.003 2.3506161e-38
-0.20680772 0.077516332 1.001 2.3506527e-38
-0.18516165 0.078978896 1.001 2.3423074e-38
-0.18293862 0.077398047 1.0032499 2.3237968e-38
-0.17792192 0.07788197 1.001 2.3443538e-38
-0.17463112 0.078978896 1.001 2.2548231e-38
-0.22180367 0.083616458 1.0039999 2.3501158e-38
-0.21798959 0.08302968 1.0039999 2.3502578e-38
-0.21411042 0.08149831 1.0027143 2.3502579e-38
-0.21148795 0.082489073 1.001 2.3503301e-38
-0.18633172 0.082196563 1.0010002 2.3425944e-38
-0.18278265 0.080682546 1.0039999 2.3432042e-38
-0.17732541 0.08236137 1.003 2.3446398e-38
-0.17375357 0.082489073 1.001 2.3459356e-38
-0.22201847 0.085706733 1.0010002 2.3501153e-38
-0.21850829 0.085121706 1.001 2.3502575e-38
-0.1742743 0.085376807 1.0039999 2.3453939e-38
-0.17163378 0.085376807 1.0039999 2.070724e-38
-0.22640619 0.13075395 1.001 2.123947e-38
-0.22552864 0.13338658 1.001 2.0507671e-38
-0.22377354 0.13426413 1.001 2.1148003e-38
-0.22561775 0.1381872 1.0039999 1.8210029e-38
-0.22242187 0.137844 1.0015 2.0689215e-38
-0.22180367 0.1417079 1.0039999 1.6637678e-38
-0.21835808 0.14274034 1.003 1.5713584e-38
-0.21761101 0.074596882 1.007 2.3494646e-38
-0.22217217 0.081512168 1.007 2.350151e-38
-0.21922949 0.080923632 1.007 2.3502222e-38
-0.18450588 0.083866306 1.007 2.3433118e-38
-0.18203403 0.082453825 1.007 2.3434553e-38
-0.17920905 0.083866306 1.007 2.344101e-38
-0.22511484 0.085631922 1.007 2.3500812e-38
-0.17744346 0.085631922 1.007 2.3436706e-38
-0.17391226 0.087397531 1.007 2.3178809e-38
-0.22864604 0.13418609 1.007 2.0692421e-38
-0.22864604 0.13771731 1.007 1.8213258e-38
-0.18682642 0.084116161 1.01 2.3431325e-38
-0.1791527 0.087067604 1.01 2.3435988e-38
-0.17620122 0.089428768 1.01 2.3436706e-38
-0.17443036 0.089428768 1.01 2.3448568e-38
-0.18619728 0.086734176 1.013 2.3432401e-38
-0.18294105 0.087030202 1.013 2.3436347e-38
-0.17761266 0.09058246 1.013 2.3435629e-38
-0.17376439 0.090878487 1.013 2.3452878e-38
-0.17139623 0.09058246 1.013 2.2814339e-38
-0.19060837 0.086397253 1.016 2.3426302e-38
-0.19295785 0.090225659 1.0190001 2.3428455e-38
-0.19060837 0.088178635 1.016 2.3426661e-38
-0.18660025 0.089514673 1.016 2.3429531e-38
-0.18081073 0.090850718 1.016 2.3435988e-38
-0.17902936 0.091741413 1.016 2.3435629e-38
-0.17813867 0.093522795 1.016 2.3434194e-38
-0.17434917 0.094760478 1.0178001 2.3444962e-38
-0.17105111 0.094302461 1.0180001 2.1534762e-38
-0.17419806 0.097372256 1.0190001 2.3440303e-38
-0.17062476 0.097372249 1.0190001 2.2912357e-38
-0.18367042 0.090491273 1.022 2.3437064e-38
-0.18187851 0.094075099 1.0220001 2.3435629e-38
-0.1782947 0.095867001 1.022 2.3433118e-38
-0.1782947 0.097658902 1.022 2.3435988e-38
-0.17381492 0.099450812 1.022 2.3438141e-38
-0.19139823 0.090756908 1.025 2.3426302e-38
-0.19436167 0.093425781 1.0280001 2.3428455e-38
-0.19029348 0.093798064 1.0268 2.3430607e-38
-0.18614283 0.093521699 1.02575 2.3434912e-38
-0.1889544 0.09703064 1.0280001 2.343276e-38
-0.18564993 0.09733104 1.028 2.3434553e-38
-0.1816473 0.098017246 1.02575 2.3434194e-38
-0.17791948 0.09974274 1.025 2.3435988e-38
-0.17073081 0.09974274 1.025 2.3456519e-38
-0.18174469 0.1018371 1.0280001 2.3435271e-38
-0.17831069 0.10266402 1.0272499 2.3437423e-38
-0.17458026 0.10258973 1.0265 2.3437064e-38
-0.17019168 0.10225878 1.025 2.2445234e-38
-0.17213173 0.10544196 1.028 2.3439217e-38
-0.1703293 0.10544196 1.028 2.345396e-38
-0.196134 0.094903551 1.031 2.3429172e-38
-0.19342247 0.096711233 1.031 2.3432042e-38
-0.19071093 0.098518923 1.031 2.3432401e-38
-0.18890326 0.10032661 1.031 2.3434912e-38
-0.18619172 0.10032661 1.031 2.3433477e-38
-0.18348019 0.10213429 1.031 2.3435988e-38
-0.1690187 0.10394198 1.031 1.988066e-38
-0.16721101 0.10394198 1.031 1.6838206e-38
-0.17805713 0.10574967 1.031 2.3438141e-38
-0.17353791 0.10665351 1.031 2.3439934e-38
-0.16962127 0.1069548 1.031 2.2082164e-38
-0.16721101 0.10665351 1.031 1.7568928e-38
-0.19670472 0.097899117 1.034 2.3429531e-38
-0.19398528 0.098805591 1.034 2.3431325e-38
-0.19307882 0.10061853 1.034 2.3428455e-38
-0.1903594 0.10152501 1.034 2.3434553e-38
-0.18673351 0.10243148 1.034 2.3434194e-38
-0.18945292 0.10424443 1.034 2.3430248e-38
-0.18582703 0.10424443 1.034 2.3434912e-38
-0.18129468 0.10696385 1.034 2.3439934e-38
-0.17766878 0.10787033 1.034 2.3441728e-38
-0.17494936 0.10787033 1.034 2.3438499e-38
-0.17766878 0.10968328 1.034 2.3444956e-38
-0.1731364 0.10968328 1.034 2.3447468e-38
-0.17041698 0.10968328 1.034 2.3367871e-38
-0.20110556 0.095547892 1.038 2.3420926e-38
-0.1992856 0.095547892 1.038 2.3429172e-38
-0.20110556 0.09736786 1.038 2.3425585e-38
-0.1992856 0.098277837 1.038 2.3428455e-38
-0.19746566 0.10100777 1.038 2.3429531e-38
-0.19428071 0.10237274 1.038 2.3430607e-38
-0.19261241 0.10525434 1.038 2.3430248e-38
-0.18927583 0.10646766 1.038 2.3435271e-38
-0.18593924 0.105861 1.038 2.3434912e-38
-0.19200577 0.10919759 1.038 2.3437423e-38
-0.18927583 0.10919759 1.038 2.3436706e-38
-0.18545392 0.10974359 1.038 2.3441369e-38
-0.18217799 0.11047157 1.038 2.3444956e-38
-0.20351203 0.095824048 1.041 2.3418052e-38
-0.20624986 0.097649269 1.041 2.3429531e-38
-0.20259941 0.098561883 1.041 2.3425226e-38
-0.2016868 0.10129971 1.041 2.342702e-38
-0.19925319 0.10251653 1.0410001 2.3428813e-38
-0.20990029 0.10677537 1.041 2.3437782e-38
-0.19681954 0.10555857 1.0410001 2.3430248e-38
-0.19438592 0.10677537 1.041 2.3431683e-38
-0.20592901 0.099761158 1.044 2.342415e-38
-0.24323556 0.10004783 1.0470001 2.3500808e-38
-0.20958996 0.10342211 1.044 2.3428096e-38
-0.20592901 0.10250688 1.0440001 2.3425226e-38
-0.20226803 0.10342211 1.044 2.3429172e-38
