# .PCD v0.7 - Point Cloud Data file format
VERSION 0.7
FIELDS x y z rgb
SIZE 4 4 4 4
TYPE F F F F
COUNT 1 1 1 1
WIDTH 167
HEIGHT 1
VIEWPOINT 0 0 0 1 0 0 0
POINTS 167
DATA ascii
-0.1368126 0.1390928 0.86699998 2.3509886e-38
-0.13453238 0.13833272 0.86699998 2.3509886e-38
-0.1292119 0.1390928 0.86699998 2.347416e-38
-0.1368126 0.14061294 0.86699998 2.3509879e-38
-0.13453238 0.14061294 0.86699998 2.3509886e-38
-0.1290599 0.14182906 0.86700004 2.3465808e-38
-0.12632363 0.14243712 0.86700004 2.0066871e-38
-0.12966795 0.14608546 0.86700004 2.3459377e-38
-0.12617162 0.14593343 0.86699998 1.8500237e-38
-0.12389141 0.14593343 0.86699998 1.1147392e-38
-0.13301224 0.14973378 0.86699998 2.3095977e-38
-0.12997197 0.14973378 0.86700004 2.2633219e-38
-0.12617162 0.14973378 0.86700004 1.8126772e-38
-0.12389141 0.1489737 0.86699998 1.1882823e-38
-0.13757268 0.15581435 0.86699998 1.6094263e-38
-0.13377231 0.15429421 0.86700004 1.9306303e-38
-0.12997197 0.15429421 0.86700004 1.9770141e-38
-0.12617162 0.15429421 0.86700004 1.9514836e-38
-0.13757268 0.15733448 0.86699998 1.5922161e-38
-0.13377231 0.15733448 0.86699998 1.4244223e-38
-0.12997197 0.15809456 0.86700004 1.8957671e-38
-0.12693168 0.15809456 0.86699998 2.2117958e-38
-0.13941367 0.13941367 0.86900002 2.3509884e-38
-0.13331908 0.13865185 0.86900002 2.3509886e-38
-0.13179544 0.13865185 0.86900002 2.3509886e-38
-0.13795419 0.14252654 0.86940002 2.349102e-38
-0.13392854 0.14276569 0.86900008 2.348101e-38
-0.13141453 0.14284188 0.86900002 2.2179812e-38
-0.14177072 0.1463522 0.87099999 2.1620209e-38
-0.13802704 0.14608711 0.86985713 2.2979686e-38
-0.1340809 0.14627008 0.86900002 2.3354556e-38
-0.13179544 0.14550826 0.86900002 2.3444598e-38
-0.14115356 0.1503083 0.87033337 2.043676e-38
-0.13796133 0.15015556 0.86944443 2.2448468e-38
-0.13484272 0.15007919 0.86900008 2.3091307e-38
-0.1375853 0.15404068 0.86900008 1.7840203e-38
-0.13789003 0.15922108 0.86900008 1.7409504e-38
-0.1340809 0.15922107 0.86900002 1.4074598e-38
-0.12519297 0.15871319 0.86900008 1.8986545e-38
-0.13668022 0.16111468 0.87099999 2.0824381e-38
-0.13423607 0.16092971 0.87 2.1746677e-38
-0.13027179 0.16074473 0.86900008 2.1749171e-38
-0.1275173 0.16111468 0.87099999 1.9632982e-38
-0.14158605 0.14311671 0.87300003 2.0882253e-38
-0.14082071 0.14464737 0.87300003 2.1888481e-38
-0.13791633 0.16243669 0.87400001 1.9446798e-38
-0.13393275 0.16301529 0.87300003 2.0280532e-38
-0.13117124 0.16338874 0.875 1.9544399e-38
-0.12656875 0.16185458 0.875 1.6406135e-38
-0.14117838 0.16277945 0.88 1.5204688e-38
-0.13931811 0.16394894 0.87800002 1.8247853e-38
-0.13008155 0.16394894 0.87800002 1.8806834e-38
-0.14194986 0.16509385 0.88 1.1337511e-38
-0.13798909 0.16573966 0.87933338 1.4376746e-38
-0.13393012 0.16548836 0.87800002 1.5483474e-38
-0.13037786 0.16535102 0.88 1.5765457e-38
-0.13840638 0.16778874 0.88200009 1.2811942e-38
-0.13376707 0.16778874 0.88200009 1.4288889e-38
-0.12990096 0.16701552 0.88200003 1.5578548e-38
-0.1275813 0.16469586 0.88200003 1.5214447e-38
-0.12568769 0.16370435 0.88499999 1.2352397e-38
-0.12336014 0.16370435 0.88499999 1.0233709e-38
-0.14508393 0.1660319 0.88499999 1.0970904e-38
-0.12801524 0.16680774 0.88499999 1.6777087e-38
-0.12568769 0.1660319 0.88499999 1.3550245e-38
-0.12349954 0.16622038 0.88600004 1.0601772e-38
-0.14233449 0.17029841 0.88600004 1.05067e-38
-0.13794684 0.17122826 0.88700002 1.0769214e-38
-0.1340923 0.17076361 0.88620007 1.0213913e-38
-0.12981096 0.16997252 0.88666666 1.3355406e-38
-0.12597173 0.17029512 0.88700002 1.5392368e-38
-0.12363893 0.16951752 0.88700002 1.1245707e-38
-0.14307901 0.17340554 0.88700002 1.1797798e-38
-0.14179586 0.17509866 0.89033335 1.188748e-38
-0.13805017 0.17470738 0.88966668 1.3080604e-38
-0.13364099 0.17481065 0.88940001 1.2892617e-38
-0.12987354 0.17402096 0.8901428 1.4362625e-38
-0.12584393 0.17481066 0.88940001 1.5944811e-38
-0.12391771 0.17301717 0.889 1.2627576e-38
-0.13747534 0.17731196 0.89099997 1.2249411e-38
-0.1343509 0.17731196 0.89099997 1.4183722e-38
-0.12575871 0.17731196 0.89099997 1.6313208e-38
-0.14081195 0.17843148 0.89399999 1.151509e-38
-0.13793823 0.17947645 0.89399999 1.2802228e-38
-0.13362765 0.17908458 0.89399999 1.2153981e-38
-0.13010083 0.17869271 0.89399999 1.445016e-38
-0.12618214 0.17947647 0.89399999 1.5761846e-38
-0.14028946 0.18182766 0.89399999 1.0869708e-38
-0.13819948 0.18156642 0.89399999 1.1605488e-38
-0.13401954 0.18104392 0.89399999 1.1047228e-38
-0.13746133 0.18301994 0.89600003 1.2245824e-38
-0.13431937 0.18301994 0.89600009 1.280042e-38
-0.12965403 0.18230253 0.89633334 1.3718712e-38
-0.12603486 0.1821088 0.89666671 1.7140798e-38
-0.13776818 0.18500297 0.898 1.2432739e-38
-0.13383192 0.18500295 0.898 1.4369921e-38
-0.13068295 0.18500295 0.898 1.1963499e-38
-0.13822842 0.18720077 0.90100002 1.2064661e-38
-0.13427903 0.18720077 0.90100002 1.2989141e-38
-0.13000616 0.18690971 0.90149999 1.2335856e-38
-0.12560111 0.18612838 0.90249997 1.5298363e-38
-0.14011849 0.18999121 0.903 1.0317633e-38
-0.13800749 0.18972734 0.90300006 1.1691179e-38
-0.13378547 0.18919957 0.90300006 1.3073413e-38
-0.13061894 0.18919957 0.903 8.827788e-39
-0.13740698 0.19141667 0.90600002 1.1780489e-38
-0.13422994 0.19141667 0.90600002 1.334709e-38
-0.1299939 0.19088715 0.90600002 1.0584838e-38
-0.12637968 0.19076326 0.9066667 1.6034482e-38
-0.1231103 0.18903388 0.90600002 1.124463e-38
-0.13790667 0.19421604 0.90720004 1.03014e-38
-0.13403006 0.19381242 0.90680009 1.2507986e-38
-0.12970194 0.19415626 0.90766668 1.334673e-38
-0.12603544 0.1939619 0.90799999 1.5852975e-38
-0.13691428 0.19661528 0.90799999 9.5584474e-39
-0.13373023 0.19661528 0.90799999 1.4167475e-38
-0.13134219 0.19661528 0.90799999 1.4269386e-38
-0.12524937 0.19545284 0.91000003 1.5485276e-38
-0.12365383 0.1938573 0.91000003 1.2996686e-38
-0.13960916 0.19704837 0.91000003 1.2058177e-38
-0.1292382 0.19704837 0.91000003 1.3903137e-38
-0.1268449 0.19704837 0.91000003 1.6679831e-38
-0.13766822 0.19929875 0.91299999 9.5595278e-39
-0.13366625 0.19929877 0.91299999 1.3526804e-38
-0.12966426 0.19929875 0.91299999 1.3167726e-38
-0.12550728 0.1989204 0.91420001 1.5758247e-38
-0.12272895 0.19973534 0.91500002 1.133793e-38
-0.13796979 0.20133965 0.91500002 9.7457281e-39
-0.13395905 0.20133965 0.91500008 1.2973623e-38
-0.12433324 0.20133965 0.91500002 1.5856201e-38
-0.12272895 0.20133965 0.91500002 1.2721908e-38
-0.14083649 0.20280455 0.91799998 1.2340152e-38
-0.13761738 0.20360933 0.91799998 1.038713e-38
-0.13037436 0.20199977 0.91799998 1.3074099e-38
-0.12715523 0.20199977 0.91799998 1.6215921e-38
-0.13791721 0.20566599 0.92000002 9.0110624e-39
-0.13388452 0.20485947 0.92000002 1.2883227e-38
-0.12985186 0.20405295 0.92000002 1.2618533e-38
-0.1367486 0.20795497 0.92299998 1.021247e-38
-0.13513026 0.20795497 0.92299998 1.0302485e-38
-0.13059896 0.20698397 0.92299998 1.1139113e-38
-0.12622947 0.20471831 0.92299998 1.6683438e-38
-0.12569208 0.20624313 0.92500007 1.5576745e-38
-0.14051607 0.20955709 0.92649996 1.1150994e-38
-0.13812613 0.20948681 0.92500007 1.2434164e-38
-0.13380125 0.20962195 0.92500001 1.1881324e-38
-0.12995836 0.20955709 0.92649996 1.3819598e-38
-0.12731391 0.20840558 0.92500001 1.7780453e-38
-0.13830292 0.21233566 0.92799997 1.2537532e-38
-0.1342352 0.21233568 0.92799997 1.2261646e-38
-0.1247409 0.20790149 0.93000001 1.3275095e-38
-0.12881739 0.21116269 0.93000001 1.5393093e-38
-0.12637149 0.20953208 0.93000001 1.6225356e-38
-0.1410469 0.21279329 0.93000001 1.2258792e-38
-0.1369704 0.21442389 0.93000001 1.3366919e-38
-0.13370919 0.21442389 0.93000001 1.364422e-38
-0.13126329 0.21360859 0.93000001 1.2630784e-38
-0.12609535 0.21125123 0.93400002 1.3276158e-38
-0.12377217 0.20983893 0.935 1.0145464e-38
-0.13986602 0.21511559 0.93300003 1.1891792e-38
-0.12923293 0.21429765 0.93300003 1.3184332e-38
-0.12623122 0.21393734 0.935 1.0328787e-38
-0.1375604 0.21698377 0.93400002 1.2999933e-38
-0.13428429 0.21780345 0.93400002 1.1986141e-38
-0.13060105 0.21777891 0.9346 1.1338999e-38
-0.12705091 0.21721607 0.935 1.1617347e-38
-0.1241693 0.21380146 0.93800002 1.0972673e-38
