# .PCD v0.7 - Point Cloud Data file format
VERSION 0.7
FIELDS x y z rgb
SIZE 4 4 4 4
TYPE F F F F
COUNT 1 1 1 1
WIDTH 191
HEIGHT 1
VIEWPOINT 0 0 0 1 0 0 0
POINTS 191
DATA ascii
0.071034551 0.1466032 0.86199999 2.3198957e-38
0.073805392 0.1468551 0.86199999 2.0989562e-38
0.076324344 0.14735889 0.86199999 1.0781128e-38
0.071034551 0.15038162 0.86199999 2.3461162e-38
0.074057281 0.14962594 0.86199999 1.8961607e-38
0.076324344 0.14962596 0.86199999 1.077862e-38
0.065139838 0.14315616 0.86400002 2.3509886e-38
0.066339642 0.14558049 0.86580002 2.3509886e-38
0.069305755 0.14580719 0.86400002 2.3221746e-38
0.066886157 0.14973378 0.86700004 2.34601e-38
0.068927035 0.14997312 0.86400002 2.3169122e-38
0.066048644 0.15411508 0.866 2.3092045e-38
0.070225507 0.15419315 0.86400002 2.2084748e-38
0.074181773 0.15397386 0.86519998 1.5557252e-38
0.066337548 0.15772478 0.86580002 2.2253254e-38
0.070138946 0.15739603 0.86400002 2.060814e-38
0.073663011 0.15795845 0.86624998 1.3259963e-38
0.067646228 0.16113482 0.86699998 1.8571598e-38
0.069926433 0.16113482 0.86699998 2.0521785e-38
0.058660395 0.14627008 0.86900002 2.3283688e-38
0.061986722 0.14608712 0.86985713 2.3297667e-38
0.064754978 0.1470319 0.86900002 2.3509886e-38
0.058795404 0.1504246 0.87099999 2.3468029e-38
0.061769646 0.1502323 0.86988884 2.2990479e-38
0.064754978 0.15007919 0.86900008 2.3359247e-38
0.058795404 0.15424249 0.87099999 2.1616518e-38
0.061753862 0.15400636 0.8696667 2.3091654e-38
0.075420506 0.15465012 0.86900002 1.2976457e-38
0.077705979 0.1538883 0.86900002 9.1277345e-39
0.058795404 0.1565332 0.87099999 1.9591119e-38
0.061769638 0.15785912 0.8698889 2.0785708e-38
0.064754978 0.15922107 0.86900002 2.1424576e-38
0.076944157 0.15617378 0.86900002 1.0327352e-38
0.062195115 0.16140398 0.87050003 1.6180655e-38
0.066024691 0.16226837 0.86900008 1.8942184e-38
0.070087746 0.16379201 0.86900002 2.275825e-38
0.072754122 0.16188747 0.86900002 1.4275205e-38
0.063376859 0.16416897 0.87099999 1.4818709e-38
0.066049375 0.16531433 0.87099999 1.8416086e-38
0.070249051 0.16569613 0.87099999 2.1748842e-38
0.058230828 0.15860389 0.87400001 1.6751879e-38
0.05826458 0.16176209 0.87450004 1.7965552e-38
0.061226401 0.16301529 0.87300003 1.4998004e-38
0.062383067 0.16599876 0.87420005 1.9347441e-38
0.065818377 0.16760728 0.87300003 2.3225037e-38
0.069645032 0.16760728 0.87300003 2.0000366e-38
0.073216572 0.16709706 0.87300003 1.0231193e-38
0.065969162 0.16952541 0.875 1.9909962e-38
0.07018812 0.16990897 0.875 1.6316473e-38
0.073384307 0.17003679 0.875 9.7719983e-39
0.056317061 0.1596936 0.88 1.3537649e-38
0.056787543 0.16265498 0.87933338 1.4282771e-38
0.058114585 0.1666396 0.87919998 1.7606497e-38
0.060807351 0.16702779 0.87800002 1.8529895e-38
0.057837497 0.16965866 0.87966669 1.400975e-38
0.062393531 0.16997924 0.87866676 1.8709223e-38
0.066195346 0.17164607 0.87800002 1.7786198e-38
0.069274202 0.17164607 0.87800002 1.557458e-38
0.074662194 0.17164607 0.87800002 1.0234807e-38
0.054774132 0.17435145 0.88 1.2259141e-38
0.057242822 0.17296283 0.88000005 1.2158614e-38
0.061717331 0.17280853 0.88 1.6485663e-38
0.065523818 0.17344849 0.87933338 1.621884e-38
0.070416324 0.17396045 0.87880003 1.2989099e-38
0.073976636 0.17415419 0.87900001 1.1153138e-38
0.076375201 0.17435145 0.88 1.0511742e-38
0.056445058 0.16546908 0.88200003 1.1522299e-38
0.05489862 0.17010841 0.88200003 1.0880532e-38
0.05489862 0.17242806 0.88200003 1.1708495e-38
0.058764718 0.17474772 0.88200003 9.6567373e-39
0.061857596 0.17552094 0.88200003 1.1584904e-38
0.065723702 0.17552094 0.88200009 1.159495e-38
0.06881658 0.17552094 0.88200003 1.1689654e-38
0.067270137 0.17706738 0.88200003 1.4264732e-38
0.070363015 0.17706738 0.88200009 1.3900631e-38
0.074229121 0.17706738 0.88200003 1.1703795e-38
0.076548778 0.17706738 0.88200003 1.0419907e-38
0.055168338 0.16239578 0.88633341 1.0048599e-38
0.054369986 0.1662195 0.88600004 1.0510299e-38
0.055085346 0.16835944 0.88499999 9.8663785e-39
0.058254495 0.17864799 0.88600004 1.2330415e-38
0.062138129 0.17864799 0.88599998 1.3797615e-38
0.065695822 0.17876266 0.8858 1.6203e-38
0.069826499 0.17922135 0.88499999 1.6393893e-38
0.073705748 0.17922136 0.88499999 1.1887836e-38
0.062208265 0.18118158 0.88700002 1.4360528e-38
0.067133091 0.18169999 0.88700002 1.5564495e-38
0.069725096 0.18169999 0.88700002 1.5012024e-38
0.073094711 0.18118158 0.88700002 1.160981e-38
0.054554965 0.1597681 0.889 1.1154239e-38
0.053775609 0.16210619 0.889 1.0878361e-38
0.050658181 0.16600296 0.88900006 1.0879086e-38
0.052606575 0.16561328 0.889 1.1154952e-38
0.050658181 0.16912039 0.889 1.106311e-38
0.053025618 0.16999573 0.88950002 1.0971639e-38
0.057737261 0.18257546 0.88999999 1.2333666e-38
0.061179496 0.18275912 0.889 1.435763e-38
0.06520617 0.18262923 0.88900006 1.5009885e-38
0.070921458 0.1831488 0.889 1.3349617e-38
0.073259525 0.1831488 0.889 1.1792762e-38
0.058583245 0.18512306 0.89099997 1.1960555e-38
0.061707687 0.18512306 0.89099997 1.4446577e-38
0.066646479 0.18558173 0.89019996 1.6488617e-38
0.070260882 0.18580027 0.89050001 1.3074515e-38
0.073424339 0.18512306 0.89099997 1.1884251e-38
0.055645537 0.18261142 0.89399999 1.0965525e-38
0.055645537 0.18496263 0.89399999 1.0870089e-38
0.057996757 0.18653011 0.89399999 1.2604135e-38
0.061915457 0.18731385 0.89399999 1.4261467e-38
0.065050416 0.18731385 0.89399999 1.7681761e-38
0.073671557 0.18731385 0.89399999 1.1793147e-38
0.065834157 0.18888132 0.89399999 1.6210258e-38
0.069752857 0.18888132 0.89399999 1.4276289e-38
0.072887816 0.18888132 0.89399999 1.1887848e-38
0.055770025 0.18773291 0.89600003 1.0408754e-38
0.057341017 0.18773291 0.89600003 1.2510151e-38
0.055894509 0.18972644 0.898 1.1237082e-38
0.058256254 0.18972644 0.898 1.2326463e-38
0.06242428 0.19010271 0.89680004 1.4076379e-38
0.066054195 0.1910879 0.89700001 1.7867267e-38
0.069908909 0.1908749 0.89600009 1.3997897e-38
0.073050879 0.19087489 0.89600003 1.2442426e-38
0.063766979 0.19287542 0.898 1.4084346e-38
0.066128716 0.19287542 0.898 1.6853817e-38
0.069986925 0.19344789 0.89700001 1.3722368e-38
0.060820501 0.19194002 0.90100002 1.2317806e-38
0.05778899 0.19236609 0.90300006 1.2145687e-38
0.062400255 0.19351979 0.90100002 1.6188561e-38
0.065607101 0.1952439 0.90166664 1.4820814e-38
0.058904983 0.19502325 0.90799999 1.2318903e-38
0.06115802 0.1945937 0.90600002 1.2408554e-38
0.062452417 0.19770104 0.90750003 1.5172622e-38
0.065996341 0.19878505 0.90700001 1.44466e-38
0.06989488 0.19856499 0.90600002 1.4548541e-38
0.070049167 0.20139137 0.90799999 1.5102802e-38
0.05664143 0.19545284 0.91000003 1.0778257e-38
0.055045899 0.19784614 0.91000003 1.3357204e-38
0.057917859 0.1976866 0.91000003 1.1405954e-38
0.061428029 0.19864391 0.91000003 1.2499313e-38
0.062225796 0.2010372 0.91000003 1.3049967e-38
0.066214629 0.20183496 0.91000003 1.4345752e-38
0.070203468 0.20343049 0.91000003 1.4735463e-38
0.053626571 0.19929875 0.91299999 1.133863e-38
0.060029745 0.19929875 0.91299999 1.2684796e-38
0.054426968 0.20169994 0.91299999 1.2161909e-38
0.057691678 0.20192176 0.91400003 1.1129006e-38
0.06060718 0.20211463 0.91366673 1.332871e-38
0.055348348 0.20454825 0.91500002 1.3168838e-38
0.0577548 0.20454825 0.91500002 1.0759852e-38
0.061948769 0.20589611 0.91475004 1.3421981e-38
0.065728381 0.20600353 0.91433334 1.4621238e-38
0.069492489 0.20641832 0.91414291 1.4271967e-38
0.072995648 0.20615256 0.91500008 1.1423989e-38
0.066578448 0.20936114 0.91500002 1.683428e-38
0.069787055 0.20936114 0.91500008 1.4180859e-38
0.072995648 0.20936114 0.91500002 1.1792409e-38
0.055529818 0.20682845 0.91799998 1.2244755e-38
0.057944156 0.20682845 0.91799998 1.0666597e-38
0.055529818 0.20843801 0.91799998 1.289481e-38
0.058255084 0.20912707 0.91866672 1.0203834e-38
0.061968055 0.21004756 0.91800004 1.2591889e-38
0.065723702 0.21112061 0.91799998 1.3419842e-38
0.070015863 0.21165714 0.91799998 1.4552877e-38
0.073234975 0.21165712 0.91799998 1.1426105e-38
0.070974931 0.21373133 0.92000002 1.4464647e-38
0.06311474 0.21361911 0.92299998 1.1765009e-38
0.066351391 0.21442828 0.92299998 1.3703281e-38
0.06877888 0.21442828 0.92299998 1.464295e-38
0.058575355 0.21314922 0.92799997 1.1510453e-38
0.061425105 0.21458463 0.926 1.0397241e-38
0.062643088 0.21721694 0.92799997 1.6495102e-38
0.065790765 0.21767938 0.92650002 1.6315388e-38
0.06985192 0.2176794 0.92649996 1.4194915e-38
0.072405644 0.21721694 0.92799997 1.0784715e-38
0.059516896 0.21605448 0.93000001 1.4280617e-38
0.061962798 0.21850039 0.93000001 1.5303038e-38
0.066039301 0.22094628 0.93000001 1.6042035e-38
0.069300503 0.22094628 0.93000001 1.6041314e-38
0.058073033 0.21511559 0.93300003 1.3823609e-38
0.058953203 0.21780169 0.93400002 1.4747356e-38
0.074591182 0.21885544 0.935 9.9553147e-39
0.059836879 0.22049481 0.935 1.4752395e-38
0.062229306 0.22189747 0.93400002 1.5396311e-38
0.066252336 0.2232949 0.93300003 1.5582149e-38
0.070716321 0.22306755 0.93433332 1.0970923e-38
0.073361658 0.22172433 0.935 9.1273547e-39
0.0568606 0.21508139 0.94 1.3912205e-38
0.057622422 0.21814358 0.93900001 1.4931763e-38
0.015890459 0.2366842 0.954 9.219563e-40
0.01756314 0.2366842 0.954 1.7448744e-39
0.030171357 0.23885658 0.95599997 1.1337193e-38
