# .PCD v0.7 - Point Cloud Data file format
VERSION 0.7
FIELDS x y z rgb
SIZE 4 4 4 4
TYPE F F F F
COUNT 1 1 1 1
WIDTH 168
HEIGHT 1
VIEWPOINT 0 0 0 1 0 0 0
POINTS 168
DATA ascii
-0.12443406 0.20684072 0.94 2.3489903e-38
-0.12196186 0.20601666 0.94 2.3504765e-38
-0.11948966 0.20684072 0.94 2.3497556e-38
-0.12577111 0.21047966 0.93942863 2.348066e-38
-0.12178887 0.20983776 0.93866676 2.2089399e-38
-0.11795265 0.20976244 0.93925005 2.3388769e-38
-0.11400424 0.21024372 0.93942863 2.0979847e-38
-0.12170237 0.21380146 0.93800002 1.5252943e-38
-0.11841312 0.21380147 0.93800002 2.1709886e-38
-0.12565789 0.20667416 0.94300002 2.3490672e-38
-0.11774522 0.20584749 0.94300002 2.3498287e-38
-0.11408413 0.20667417 0.94300002 2.3479556e-38
-0.11160404 0.20667416 0.94300002 2.3374405e-38
-0.12648459 0.20915426 0.94300002 2.3473705e-38
-0.11160404 0.20998096 0.94300002 1.8030301e-38
-0.10970256 0.19197948 0.94800001 2.3509886e-38
-0.10637824 0.19197948 0.94800001 2.3509886e-38
-0.10942553 0.19419569 0.94800007 2.3509886e-38
-0.10637824 0.19447273 0.94800001 2.3509886e-38
-0.11302688 0.19862811 0.94800001 2.3509874e-38
-0.10942553 0.19807407 0.94800007 2.3321834e-38
-0.10637824 0.19779705 0.94800001 2.3509132e-38
-0.10388499 0.19862811 0.94800001 2.3509886e-38
-0.1205066 0.20361459 0.94800001 2.3509872e-38
-0.1176981 0.20202783 0.94680005 2.350987e-38
-0.1141946 0.20147054 0.94685715 2.3323297e-38
-0.11015097 0.20183936 0.9465 2.3212355e-38
-0.10637824 0.20195244 0.94800007 2.1546383e-38
-0.10388499 0.20195244 0.94800007 1.8967097e-38
-0.12688696 0.20650233 0.94599998 2.3501873e-38
-0.12191101 0.20484369 0.94599998 2.3509863e-38
-0.11444707 0.20484369 0.94599998 2.3492126e-38
-0.10996871 0.20550714 0.94600004 2.273013e-38
-0.10504746 0.19091958 0.95099998 2.3509886e-38
-0.10254633 0.19091958 0.95099998 2.3509886e-38
-0.11255084 0.19592184 0.95099998 2.3509872e-38
-0.11088342 0.19592184 0.95099998 2.3509877e-38
-0.10421374 0.19425443 0.95099998 2.3509886e-38
-0.10171261 0.19425443 0.95100009 2.3509886e-38
-0.099211484 0.19592184 0.95099998 2.3509886e-38
-0.11421826 0.19842297 0.95099998 2.3509881e-38
-0.11088342 0.19758925 0.95099998 2.350988e-38
-0.10421374 0.19758925 0.95099998 2.3509886e-38
-0.10171261 0.19842297 0.95099998 2.2311344e-38
-0.099211484 0.19842297 0.95099998 1.9545467e-38
-0.11922053 0.2009241 0.95099998 2.3509853e-38
-0.10171261 0.20175782 0.95099998 1.1985112e-38
-0.099211484 0.2017578 0.95099998 4.1545599e-39
-0.10454249 0.18984917 0.954 2.3509886e-38
-0.10182541 0.1905394 0.95466661 2.3509886e-38
-0.098022133 0.19101837 0.95566666 2.2943751e-38
-0.093866453 0.19192336 0.95599997 2.3493684e-38
-0.091352165 0.19192336 0.95599997 2.0262879e-38
-0.11290589 0.19486721 0.954 2.3509886e-38
-0.097885385 0.19409838 0.95433331 2.2857328e-38
-0.093866445 0.19443765 0.95599997 1.5278588e-38
-0.090793446 0.19471702 0.95600003 5.1446151e-39
-0.11469868 0.19758224 0.95499998 2.3509853e-38
-0.09701544 0.19821256 0.954 1.0414129e-38
-0.093866453 0.19779001 0.95599997 1.4693679e-39
-0.090793446 0.19751064 0.95600003 2.1151157e-39
-0.10004608 0.18748128 0.95899999 2.3476699e-38
-0.098364621 0.18748128 0.95899999 2.3477059e-38
-0.10172752 0.18916273 0.95899999 2.3498349e-38
-0.097523898 0.18916273 0.95899999 2.3287645e-38
-0.094161004 0.19000345 0.95899999 2.3491872e-38
-0.091638841 0.19000345 0.95899999 2.2847947e-38
-0.08911667 0.19336635 0.95899999 6.8084174e-39
-0.09803237 0.18676856 0.96399999 2.3217782e-38
-0.093468793 0.18609248 0.96399993 2.3296622e-38
-0.089581303 0.18592346 0.96399999 2.3494361e-38
-0.086200878 0.18592346 0.96399999 2.2299832e-38
-0.083665557 0.18592346 0.96399999 2.0625537e-38
-0.1022579 0.18845879 0.96399999 2.0184317e-38
-0.096985631 0.18806778 0.96200001 2.3475663e-38
-0.09445557 0.18806778 0.96200001 2.3482845e-38
-0.089756891 0.18951353 0.96200001 2.0635612e-38
-0.086200878 0.19014899 0.96399993 1.1684e-38
-0.083665565 0.19014899 0.96399999 4.8672939e-39
-0.081382722 0.17887244 0.96700001 2.3496517e-38
-0.078839503 0.17887244 0.96700001 2.3500559e-38
-0.093251027 0.18311113 0.96700001 2.2127304e-38
-0.089860089 0.18311113 0.96700001 2.3116589e-38
-0.086469136 0.18226337 0.96700001 2.3489635e-38
-0.082230456 0.18226339 0.96700001 2.2663563e-38
-0.078839503 0.18056791 0.96700001 2.3315786e-38
-0.098337449 0.18565431 0.96700001 2.3038057e-38
-0.095794246 0.18565431 0.96700001 2.3500071e-38
-0.081382722 0.18650204 0.96700001 1.2145323e-38
-0.084186301 0.17432517 0.97000003 2.3500135e-38
-0.082485564 0.17432517 0.97000003 2.3500496e-38
-0.089968793 0.17806679 0.97000009 2.2770478e-38
-0.085887037 0.17772663 0.97000015 2.3308111e-38
-0.081635192 0.17687628 0.97000003 2.3206572e-38
-0.078517191 0.17772666 0.97000003 2.3489298e-38
-0.092689969 0.1811281 0.97000003 2.3509886e-38
-0.090138867 0.1811281 0.97000003 2.3505528e-38
-0.077950284 0.18226193 0.97000003 1.7396163e-38
-0.081201248 0.17180474 0.97500002 2.3498342e-38
-0.077782243 0.17180476 0.97500008 2.3488935e-38
-0.073508501 0.17180474 0.97500002 2.3480999e-38
-0.07094425 0.17180474 0.97500002 2.3501263e-38
-0.088039249 0.17522374 0.97500002 2.3506248e-38
-0.085299663 0.17401132 0.97299999 2.3509509e-38
-0.081603348 0.17372701 0.97299999 2.3506629e-38
-0.078475684 0.17401132 0.97299999 2.2566634e-38
-0.074260384 0.17413054 0.97366667 2.3497588e-38
-0.07094425 0.17436899 0.97500002 2.3507016e-38
-0.093072191 0.17931253 0.97399998 2.3509886e-38
-0.077622689 0.1774233 0.97299999 2.3500878e-38
-0.074461214 0.17815423 0.97350001 2.0628059e-38
-0.07094425 0.177788 0.97500002 1.4724687e-38
-0.078021578 0.17061862 0.97800004 2.3491817e-38
-0.073448882 0.17004703 0.97800004 2.3296951e-38
-0.070590951 0.17004703 0.97800004 2.3493247e-38
-0.066875637 0.17061861 0.97799999 2.3509886e-38
-0.086595379 0.17404813 0.97799999 2.3509886e-38
-0.069447778 0.17404813 0.97800004 2.2673303e-38
-0.066875637 0.17404813 0.97800004 1.5664255e-38
-0.06773302 0.17747766 0.97799999 2.4796341e-39
-0.07310085 0.16770194 0.98100001 2.349e-38
-0.069801077 0.16689365 0.98300004 2.3206936e-38
-0.065560639 0.16648951 0.98400003 2.3484305e-38
-0.062015396 0.16709574 0.98250002 2.3507722e-38
-0.058659516 0.16648951 0.98400003 1.9440305e-38
-0.076774962 0.16994008 0.98400003 2.3493268e-38
-0.074935272 0.16881838 0.98250002 2.3493591e-38
-0.06922774 0.16861719 0.98300004 2.348282e-38
-0.065714061 0.16930625 0.98200005 2.3227908e-38
-0.061920714 0.17028198 0.98100001 1.5016747e-38
-0.057923116 0.16989535 0.98250008 6.3449463e-39
-0.064500742 0.17372203 0.98100001 1.1966702e-38
-0.061920717 0.17372203 0.98100001 3.7663343e-39
-0.06489525 0.16353603 0.98699999 2.347017e-38
-0.062299438 0.16353603 0.98699999 2.3475274e-38
-0.058319192 0.16284382 0.98699999 2.350374e-38
-0.05364674 0.16353603 0.98699999 2.1849647e-38
-0.073547944 0.1669971 0.98699999 2.3500096e-38
-0.070086867 0.16613182 0.98699999 2.3491435e-38
-0.065760523 0.16526656 0.98699999 2.2737645e-38
-0.062299438 0.16526656 0.98699999 2.3505869e-38
-0.057540454 0.16569918 0.98699999 2.1279914e-38
-0.05364674 0.16613184 0.98699999 7.2816709e-39
-0.056242548 0.16872764 0.98699999 4.0408305e-39
-0.053918503 0.15566793 0.99199998 2.3509886e-38
-0.065026753 0.15866527 0.98900002 2.3496066e-38
-0.061697386 0.15815657 0.99125004 2.3505512e-38
-0.057813186 0.15816207 0.99020004 2.3509876e-38
-0.053755447 0.15779825 0.98900002 2.3509886e-38
-0.050678052 0.15840636 0.99100006 2.3509886e-38
-0.047830928 0.15914655 0.99199998 2.3323661e-38
-0.069882087 0.16317379 0.98900002 2.3501895e-38
-0.065893769 0.16213337 0.98900002 2.293324e-38
-0.062425677 0.16126634 0.98900002 2.3199703e-38
-0.057657048 0.16083282 0.98900002 2.3508409e-38
-0.053755447 0.16126634 0.98900002 2.3141103e-38
-0.050520718 0.16198222 0.99019998 1.6688492e-38
-0.047830928 0.16175552 0.99199998 1.1894266e-38
-0.071095914 0.16560145 0.98900002 2.3499024e-38
-0.063676685 0.15788327 0.995 2.3509886e-38
-0.056698415 0.1561387 0.995 2.3509886e-38
-0.050592434 0.15701099 0.995 2.3509886e-38
-0.047975581 0.15788327 0.995 2.3509886e-38
-0.056869365 0.15485966 0.99800003 2.3509886e-38
-0.054244623 0.15485966 0.99800003 2.3509886e-38
-0.058619194 0.15660948 0.99800003 2.3509886e-38
-0.049870059 0.15660948 0.99800003 2.3509886e-38
-0.054407686 0.15357009 1.001 2.3509886e-38
