# .PCD v0.7 - Point Cloud Data file format
VERSION 0.7
FIELDS x y z rgb
SIZE 4 4 4 4
TYPE F F F F
COUNT 1 1 1 1
WIDTH 1003
HEIGHT 1
VIEWPOINT 0 0 0 1 0 0 0
POINTS 1003
DATA ascii
-0.058073029 0.20857215 0.93300003 2.349871e-38
-0.053983375 0.20857215 0.93300003 2.3502323e-38
-0.037215814 0.20979904 0.93300003 1.7036046e-38
-0.034353059 0.210208 0.93300003 1.638852e-38
-0.030483235 0.21011573 0.93350005 1.6295959e-38
-0.026229866 0.20983893 0.935 1.6021169e-38
-0.12213281 0.21393731 0.935 1.6298884e-38
-0.11790845 0.21370737 0.93400002 1.4269836e-38
-0.11396129 0.214012 0.93328583 1.4177273e-38
-0.11042055 0.21429765 0.93300003 1.463861e-38
-0.036806848 0.21429765 0.93300003 1.592717e-38
-0.034353059 0.21429765 0.93300003 1.565095e-38
-0.030056015 0.21414325 0.9338572 1.5281813e-38
-0.026229864 0.21393733 0.93500006 1.5466916e-38
-0.11778192 0.21756938 0.93300003 1.4546778e-38
-0.11369227 0.2175694 0.93300003 1.4270553e-38
-0.11042055 0.21675146 0.93300003 1.3809541e-38
-0.034353059 0.21756938 0.93300003 1.5004513e-38
-0.030283865 0.21772484 0.93366671 1.4819401e-38
-0.026229866 0.21803576 0.935 1.4911602e-38
-0.022951134 0.21885544 0.935 1.6018307e-38
-0.10548053 0.1953038 0.94 2.3505117e-38
-0.10218427 0.1953038 0.94 1.9437421e-38
-0.08949364 0.19464456 0.94 1.7953683e-38
-0.085611753 0.19427195 0.93900001 1.8599774e-38
-0.082622319 0.1946159 0.93933338 1.8506851e-38
-0.11619339 0.19860005 0.94 2.0354377e-38
-0.11350834 0.19818522 0.93959999 1.8792808e-38
-0.11034662 0.19845805 0.93933338 1.889187e-38
-0.10637899 0.19782785 0.93857151 1.8696969e-38
-0.10202076 0.19745995 0.93849999 2.3130623e-38
-0.097739063 0.19841798 0.93914294 2.0267523e-38
-0.093876973 0.19845805 0.93933338 2.1925671e-38
-0.090583041 0.19845805 0.93933338 1.897291e-38
-0.086342901 0.19817752 0.93800002 1.7955849e-38
-0.082260266 0.19824736 0.93833345 1.8323187e-38
-0.078193404 0.19836414 0.93888897 1.8968195e-38
-0.074538141 0.19849354 0.93949997 1.8597984e-38
-0.069357298 0.19851485 0.93959999 1.8695243e-38
-0.066034041 0.19875926 0.93920004 1.7864047e-38
-0.061761167 0.19845805 0.93933338 1.823136e-38
-0.057602845 0.1983172 0.93866676 1.8322115e-38
-0.054349825 0.19845805 0.93933338 1.7954036e-38
-0.050196763 0.19831719 0.93866676 1.8414301e-38
-0.046292558 0.19818522 0.93959999 2.0166389e-38
-0.042027399 0.19860005 0.94 2.257284e-38
-0.037082996 0.19860005 0.94 2.3502698e-38
-0.033786736 0.19860005 0.94 2.1104871e-38
-0.029666398 0.19860005 0.94 1.4636774e-38
-0.11701747 0.20189634 0.94 1.8877793e-38
-0.11374118 0.20196684 0.93879998 2.1377143e-38
-0.11018999 0.20228909 0.93800002 2.1189546e-38
-0.10772305 0.20146677 0.93800002 2.1095205e-38
-0.092921406 0.20146677 0.93800002 2.3490827e-38
-0.09018036 0.20201498 0.93800008 2.1833088e-38
-0.087987527 0.20146677 0.93800002 2.1185228e-38
-0.081409015 0.20146677 0.93800002 1.7771493e-38
-0.079764389 0.20146677 0.93800002 1.8970036e-38
-0.073263906 0.20085749 0.93900001 2.3507733e-38
-0.070285872 0.20097935 0.93880004 2.3509527e-38
-0.065785065 0.20146677 0.93800002 1.8054174e-38
-0.063318126 0.20146677 0.93800002 1.8690908e-38
-0.053450365 0.20146677 0.93800002 1.7768216e-38
-0.048516486 0.20146677 0.93800002 2.3481822e-38
-0.045662496 0.20157328 0.93849999 2.3218889e-38
-0.042188268 0.20147467 0.93900007 2.1744109e-38
-0.037866741 0.20085748 0.93900001 2.3228973e-38
-0.033750791 0.20085751 0.93900007 1.6116579e-38
-0.029634841 0.20085748 0.93900001 1.6939878e-38
-0.026370134 0.20189634 0.94 1.7033524e-38
-0.023348555 0.20299509 0.94 1.7033523e-38
-0.11812102 0.20576382 0.93959999 1.4176902e-38
-0.11430155 0.20557833 0.93800002 1.4174381e-38
-0.1110123 0.20475602 0.93800002 1.5371515e-38
-0.026039921 0.20530424 0.93800008 1.6756934e-38
-0.023049321 0.20579663 0.93900001 1.6480349e-38
-0.12537 0.21070611 0.93959999 1.648433e-38
-0.12187537 0.20998679 0.93933338 1.3718458e-38
-0.11847667 0.20897849 0.93849999 1.4915548e-38
-0.11539797 0.20859349 0.93800008 1.4823713e-38
-0.022678616 0.20998922 0.93828583 1.5651674e-38
-0.022217071 0.21395344 0.93866676 1.5560556e-38
-0.11408414 0.19096693 0.94300002 1.4544273e-38
-0.11160404 0.19096693 0.94300002 1.5283267e-38
-0.096723504 0.19096693 0.94300002 1.7309067e-38
-0.094243415 0.19096693 0.94300002 1.7769303e-38
-0.090109937 0.19096693 0.94300002 1.8597253e-38
-0.085976452 0.19096693 0.94300002 1.915151e-38
-0.12152441 0.1959271 0.94300002 1.6017217e-38
-0.11766648 0.19482484 0.94300002 1.6942057e-38
-0.11408414 0.19427371 0.94300002 1.6482871e-38
-0.11015733 0.19448037 0.94299996 1.8602597e-38
-0.10581717 0.19427373 0.94300002 2.2950197e-38
-0.10127034 0.19468707 0.94300002 2.0912191e-38
-0.097384863 0.19460438 0.94300002 2.1102043e-38
-0.094243407 0.19427371 0.94300002 1.7034649e-38
-0.090523288 0.19303367 0.94300002 1.8044428e-38
-0.085976452 0.19262032 0.94300002 1.9150782e-38
-0.081512295 0.19394305 0.94300002 1.9243693e-38
-0.077709489 0.19510041 0.94300002 1.9244049e-38
-0.074402705 0.19510041 0.94300002 1.9243328e-38
-0.070269212 0.19510041 0.94300002 1.9058584e-38
-0.066135727 0.19510041 0.94300002 1.9336609e-38
-0.061795574 0.1944804 0.94299996 1.8690885e-38
-0.057868764 0.19427374 0.94300002 1.8321029e-38
-0.053735286 0.19427371 0.94299996 1.8228829e-38
-0.049601804 0.19427374 0.94300002 1.8230269e-38
-0.04629501 0.19510041 0.94300002 1.7676382e-38
-0.042161532 0.19510041 0.94300002 2.0625948e-38
-0.038028046 0.1959271 0.94300002 2.193248e-38
-0.033894565 0.19592711 0.94300002 2.1935737e-38
-0.030587774 0.1959271 0.94300002 1.4560798e-38
-0.1248312 0.19923389 0.94300002 1.5189257e-38
-0.12235111 0.19840719 0.94300002 1.5004496e-38
-0.1185483 0.19824186 0.94300002 1.8878517e-38
-0.0983769 0.19758049 0.94300002 2.1280615e-38
-0.073576003 0.19758049 0.94300002 1.6846255e-38
-0.071095914 0.19758049 0.94300002 1.7305428e-38
-0.065309033 0.19758049 0.94300002 1.8139158e-38
-0.042161532 0.1975805 0.94300002 2.3397946e-38
-0.038303614 0.19813162 0.94300002 2.1186216e-38
-0.033894565 0.1975805 0.94300002 2.35005e-38
-0.02976108 0.19758049 0.94300002 1.371623e-38
-0.026454292 0.19840719 0.94300002 1.7493059e-38
-0.023147507 0.19840717 0.94300002 1.7310103e-38
-0.12538233 0.20198956 0.94300002 1.4821558e-38
-0.12235111 0.20171398 0.94300002 1.4730071e-38
-0.11987101 0.20171398 0.94300002 1.611264e-38
-0.022871939 0.20143841 0.94300002 1.712536e-38
-0.12813799 0.20750086 0.94300002 1.731553e-38
-0.12565789 0.20584749 0.94300002 1.4545708e-38
-0.1223511 0.20584749 0.94300002 1.4545697e-38
-0.11987101 0.20419407 0.94300002 1.4176191e-38
-0.020667417 0.20667416 0.94300002 1.5465838e-38
-0.019014023 0.20667416 0.94300002 1.5923596e-38
-0.020667417 0.20998096 0.94300002 1.5373647e-38
-0.019014023 0.20998096 0.94300002 1.5647371e-38
-0.11765392 0.18630743 0.94733334 1.592827e-38
-0.11381733 0.18609616 0.94766676 2.0816765e-38
-0.10997958 0.18643895 0.94800007 2.1101994e-38
-0.10720932 0.18699299 0.94800001 1.8242876e-38
-0.09806744 0.18699299 0.94800001 1.8779492e-38
-0.093912035 0.18699299 0.94800007 1.9057511e-38
-0.089756638 0.18699299 0.94800001 1.9428806e-38
-0.087263398 0.18699299 0.94800001 1.8231704e-38
-0.049033716 0.18699299 0.94800001 2.0530853e-38
-0.046540476 0.18699299 0.94800001 1.9333388e-38
-0.12088999 0.19115542 0.94666666 1.7126074e-38
-0.11780618 0.18998212 0.94633335 1.7034609e-38
-0.11444707 0.18908648 0.94599998 1.5925024e-38
-0.11012182 0.18975821 0.94625002 2.2763277e-38
-0.10622862 0.19004846 0.94666672 1.7684977e-38
-0.10207907 0.19004846 0.94666672 2.192602e-38
-0.098109171 0.18974327 0.94679993 1.7863293e-38
-0.093746349 0.18915281 0.94633335 1.8781288e-38
-0.089567274 0.18908648 0.94599998 1.9060385e-38
-0.086249962 0.18908648 0.94599998 1.8690525e-38
-0.082161196 0.19004847 0.94666672 1.9242947e-38
-0.078011639 0.19004846 0.94666666 2.193103e-38
-0.074075922 0.19027282 0.94675004 2.1936442e-38
-0.069663435 0.19074512 0.94599998 2.1568392e-38
-0.066416264 0.19094589 0.94700003 2.073791e-38
-0.062287167 0.1901823 0.94733334 2.1475469e-38
-0.05813469 0.19018231 0.94733334 2.1563699e-38
-0.053982209 0.1901823 0.94733334 2.137607e-38
-0.049812488 0.19011539 0.94700003 1.8049112e-38
-0.045880128 0.18995808 0.94725001 1.8874556e-38
-0.042348612 0.19082017 0.9472 1.8688724e-38
-0.038229678 0.19197948 0.94800001 2.173658e-38
-0.03407428 0.1919795 0.94800007 1.9802287e-38
-0.029727414 0.19048774 0.9472 2.3499449e-38
-0.025992667 0.19073436 0.94771433 1.7957973e-38
-0.022439159 0.1911484 0.94800001 1.721719e-38
-0.12625796 0.1943697 0.94749999 1.574242e-38
-0.12191101 0.19406244 0.94600004 1.6479283e-38
-0.11859371 0.1932331 0.94599998 1.7035685e-38
-0.10864178 0.1932331 0.94599998 2.3509853e-38
-0.1061538 0.1932331 0.94599998 2.0087857e-38
-0.10200717 0.1932331 0.94599998 2.1838134e-38
-0.098689869 0.1932331 0.94599998 1.9714497e-38
-0.080444686 0.1932331 0.94599998 1.887563e-38
-0.077956699 0.1932331 0.94599998 1.8319918e-38
-0.073810071 0.1932331 0.94599998 1.8409975e-38
-0.069663435 0.1932331 0.94599998 1.8597625e-38
-0.066346131 0.1932331 0.94599998 1.7768933e-38
-0.063858144 0.1932331 0.94599998 1.7584173e-38
-0.046442293 0.1932331 0.94599998 1.8322459e-38
-0.042295661 0.1932331 0.94599998 1.8413942e-38
-0.038149022 0.19406243 0.94599998 2.2656079e-38
-0.03400239 0.19406244 0.94600004 2.2202928e-38
-0.029855758 0.19406244 0.94599998 2.211363e-38
-0.025709128 0.19406244 0.94600004 1.5650571e-38
-0.021853548 0.19447622 0.94666672 1.7678183e-38
-0.019114841 0.1953038 0.94800001 1.7584889e-38
-0.12916499 0.19852248 0.94749999 1.5191058e-38
-0.1262235 0.19787733 0.94600004 1.5281816e-38
-0.12356966 0.19655041 0.94599998 1.5555882e-38
-0.029026432 0.19655041 0.94599998 1.6656061e-38
-0.025709126 0.19655041 0.94599998 1.6753683e-38
-0.021169746 0.19800305 0.94700003 1.7217552e-38
-0.018689219 0.19852248 0.94749999 1.6478199e-38
-0.12970598 0.20211373 0.9472 1.5281809e-38
-0.12688696 0.20152636 0.94599998 1.5372582e-38
-0.020733165 0.20235568 0.94599998 1.6756573e-38
-0.018086685 0.20194261 0.94639999 1.610942e-38
-0.014121347 0.20185699 0.94755554 1.5924668e-38
-0.020733165 0.20484369 0.94599998 1.5834621e-38
-0.017968744 0.20539658 0.94599998 1.6016152e-38
-0.014102936 0.20574519 0.94633341 1.5648088e-38
-0.010249986 0.20638487 0.94800007 1.6847342e-38
-0.11338455 0.18258248 0.95099998 2.3505571e-38
-0.1213048 0.18633418 0.95099998 1.6943481e-38
-0.11866473 0.18480572 0.95099998 1.6387447e-38
-0.11421826 0.18424991 0.95099998 2.1009088e-38
-0.10977181 0.18480569 0.95099998 1.6854846e-38
-0.10588118 0.18619522 0.95100009 2.1000789e-38
-0.10143471 0.18702893 0.95099998 1.7865486e-38
-0.098377779 0.18591732 0.95099998 1.8688389e-38
-0.093375519 0.18591732 0.95099998 1.9611402e-38
-0.089206964 0.18591732 0.95099998 1.9335534e-38
-0.085395724 0.18591732 0.95100009 2.1743405e-38
-0.081703573 0.18591732 0.95100009 2.3509886e-38
-0.078368738 0.18591732 0.95100009 2.3509886e-38
-0.075033896 0.18675104 0.95099998 2.3509886e-38
-0.070031635 0.18758473 0.95099998 2.3509886e-38
-0.065863088 0.18758473 0.95099998 2.3509886e-38
-0.061694533 0.18758473 0.95099998 2.3509886e-38
-0.058359694 0.18758473 0.95099998 2.3509886e-38
-0.05419115 0.18758473 0.95099998 2.3509886e-38
-0.050022595 0.18675102 0.95099998 1.9531809e-38
-0.045437194 0.18633418 0.95099998 1.9426663e-38
-0.042519208 0.18758473 0.95099998 1.9241196e-38
-0.030013558 0.18758473 0.95099998 2.0177531e-38
-0.025511524 0.18691777 0.95100003 1.9622901e-38
-0.022510169 0.18675102 0.95099998 1.6105077e-38
-0.12422278 0.19091958 0.95099998 1.6940971e-38
-0.12199955 0.18980798 0.95099998 1.7125009e-38
-0.072532766 0.18925217 0.95099998 2.3509886e-38
-0.070031635 0.18925217 0.95099998 2.3509886e-38
-0.066696793 0.18925217 0.95099998 2.3509886e-38
-0.040851787 0.19008587 0.95099998 1.8872047e-38
-0.038350657 0.19008586 0.95099998 2.0717414e-38
-0.034182109 0.19091958 0.95099998 1.943599e-38
-0.030847268 0.18925217 0.95099998 2.2938621e-38
-0.025011297 0.18925217 0.95099998 1.897234e-38
-0.021676458 0.19008587 0.95099998 1.7399794e-38
-0.12922505 0.19592184 0.95099998 1.5374339e-38
-0.12505649 0.192587 0.95099998 1.6571833e-38
-0.02084275 0.19342071 0.95099998 1.7954396e-38
-0.01834162 0.19508812 0.95099998 1.7400139e-38
-0.13381045 0.19883981 0.95099998 1.6481069e-38
-0.13089246 0.19758925 0.95099998 1.5099574e-38
-0.017507909 0.19758925 0.95099998 1.6478195e-38
-0.01417307 0.1992567 0.95099998 1.6292735e-38
-0.010004519 0.20259151 0.95099998 1.6385646e-38
-0.11649497 0.1751615 0.95599997 1.6942766e-38
-0.1139807 0.17432341 0.95599997 2.3504851e-38
-0.11012544 0.17449103 0.95599997 1.6019721e-38
-0.10643785 0.1751615 0.95599997 2.0347543e-38
-0.11755198 0.17829947 0.95485711 1.6020799e-38
-0.11374223 0.1781404 0.954 2.3505923e-38
-0.10988402 0.17811674 0.95499992 1.7495948e-38
-0.10587912 0.17795515 0.95600003 2.0902136e-38
-0.10140929 0.17851387 0.95599997 1.9057523e-38
-0.098056912 0.17767578 0.95599997 1.9243698e-38
-0.093866453 0.17767578 0.95599997 1.9244423e-38
-0.090514079 0.17767578 0.95599997 1.8690532e-38
-0.086742654 0.17809482 0.95599997 1.8506496e-38
-0.082133144 0.17851387 0.95599997 1.767781e-38
-0.07878077 0.17851387 0.95599997 1.9624706e-38
-0.045257039 0.17851387 0.95599997 1.95185e-38
-0.12822826 0.18354243 0.95599997 1.583534e-38
-0.12543464 0.1829837 0.95600003 1.7125718e-38
-0.12209161 0.18204789 0.95520002 1.9705041e-38
-0.11823452 0.18207188 0.95457143 1.7495571e-38
-0.11374223 0.18148577 0.954 2.3508092e-38
-0.10994031 0.1818957 0.9544 1.7221157e-38
-0.10611656 0.18188423 0.95499992 2.1181965e-38
-0.10224738 0.18186626 0.95599997 1.8689818e-38
-0.097988531 0.18173826 0.95533329 1.9150426e-38
-0.093800992 0.18173826 0.95533335 1.9703963e-38
-0.090419695 0.18167484 0.95500004 1.9058597e-38
-0.08620321 0.18161143 0.95466667 1.9893394e-38
-0.082018584 0.18161142 0.95466673 2.1101289e-38
-0.07785169 0.18165369 0.95488888 2.3509883e-38
-0.073700786 0.18173826 0.95533323 2.3509886e-38
-0.070350744 0.18173826 0.95533335 2.3509884e-38
-0.066178195 0.18178089 0.9555555 2.1573067e-38
-0.06199757 0.18180226 0.95566666 1.7777207e-38
-0.058007278 0.18197978 0.95549995 1.9057881e-38
-0.053470351 0.18220149 0.95599997 1.896748e-38
-0.050268352 0.18180226 0.95566666 1.896676e-38
-0.046062987 0.18173826 0.95533329 1.9519932e-38
-0.041904666 0.18186626 0.95599997 1.9889785e-38
-0.037714198 0.18270433 0.95599997 1.9151873e-38
-0.033523731 0.18186626 0.95599997 2.0256785e-38
-0.030140091 0.18167484 0.95499992 1.7584887e-38
-0.025944656 0.18161142 0.95466667 2.1568007e-38
-0.022185802 0.18209419 0.95499992 1.6750819e-38
-0.12822826 0.1860567 0.95599997 1.5835347e-38
-0.12558337 0.18586209 0.95499992 1.7218287e-38
-0.12294198 0.18566747 0.954 1.8050543e-38
-0.10537884 0.18483113 0.954 1.952534e-38
-0.10231226 0.18538868 0.954 1.887277e-38
-0.097433604 0.1852493 0.954 1.9057878e-38
-0.093670078 0.18483113 0.954 1.998127e-38
-0.090603493 0.18538868 0.954 1.9334456e-38
-0.087815695 0.18483113 0.954 2.0254973e-38
-0.076106936 0.18483113 0.954 2.3509886e-38
-0.073319145 0.18538868 0.954 2.3509886e-38
-0.070252553 0.18566747 0.954 2.3509886e-38
-0.066070855 0.18566748 0.954 2.0835495e-38
-0.061889157 0.18566747 0.954 2.0548842e-38
-0.057707459 0.18566748 0.954 2.1008376e-38
-0.053525757 0.18566747 0.954 2.0915831e-38
-0.050459176 0.18538868 0.954 1.9064726e-38
-0.0459987 0.18483113 0.954 1.9427025e-38
-0.041816995 0.18566747 0.954 1.9333751e-38
-0.038017176 0.18573271 0.95520002 1.9333753e-38
-0.033983454 0.18598974 0.95479995 2.2013169e-38
-0.03010824 0.18566747 0.954 1.6575084e-38
-0.026344709 0.1852493 0.954 2.0924096e-38
-0.021495283 0.18564819 0.95533335 1.767276e-38
-0.019276146 0.18689479 0.95599997 1.8321032e-38
-0.12956922 0.19058242 0.95599997 1.5741718e-38
-0.12600857 0.18984918 0.954 1.6756221e-38
-0.07276158 0.18817648 0.954 2.3509886e-38
-0.040980656 0.18817648 0.954 1.9149e-38
-0.038471639 0.18817648 0.954 1.8965344e-38
-0.034289937 0.18901283 0.954 2.155506e-38
-0.020930417 0.18921009 0.95499998 1.8871682e-38
-0.018424612 0.19011393 0.95533335 1.758382e-38
-0.015365044 0.19136465 0.95600003 1.7123203e-38
-0.13372265 0.19458084 0.95533335 1.6297046e-38
-0.13053785 0.19413212 0.95449996 1.5466917e-38
-0.12796003 0.19319452 0.954 1.5743144e-38
-0.018120702 0.1937521 0.954 1.7122836e-38
-0.014242033 0.19436955 0.95566666 1.6661866e-38
-0.13130538 0.19653989 0.954 1.4914462e-38
-0.014217779 0.19737624 0.954 1.6477116e-38
-0.010470468 0.19852334 0.95550001 1.6201963e-38
-0.11770125 0.17402972 0.95899999 1.5191055e-38
-0.11433837 0.17234828 0.95899999 2.3508092e-38
-0.10971439 0.17276864 0.95899999 1.7494124e-38
-0.10621138 0.17402974 0.95899999 1.9424861e-38
-0.10060656 0.17515069 0.95899999 2.2104285e-38
-0.097523898 0.17487045 0.95899999 1.9430256e-38
-0.093880765 0.17515069 0.95899999 1.9244416e-38
-0.089957401 0.17487046 0.95900005 1.9428085e-38
-0.0865945 0.17571117 0.95899999 1.9151868e-38
-0.045399059 0.17571117 0.95899999 1.9334808e-38
-0.12190487 0.17851359 0.95899999 1.9336627e-38
-0.10509041 0.17739262 0.95899999 1.9056015e-38
-0.10284849 0.17795311 0.95899999 1.9427023e-38
-0.085753776 0.17739262 0.95899999 1.8876e-38
-0.082390882 0.17739262 0.95899999 1.8322106e-38
-0.078187272 0.17795311 0.95899999 2.0635992e-38
-0.073983647 0.17907406 0.95899999 2.3509886e-38
-0.069443755 0.17840149 0.95900005 2.3509886e-38
-0.065576419 0.17823334 0.95899999 2.3509886e-38
-0.062213521 0.17823334 0.95899999 2.2495734e-38
-0.058346193 0.17840149 0.95900005 1.8510456e-38
-0.053526051 0.17851359 0.95899999 1.9428822e-38
-0.0504434 0.17823334 0.95899999 1.9243351e-38
-0.04666014 0.17781298 0.95899999 1.9242632e-38
-0.042036165 0.17823334 0.95899999 2.0995003e-38
-0.037832551 0.17907408 0.95899999 2.2377641e-38
-0.033628933 0.17907406 0.95899999 1.8967851e-38
-0.030266037 0.17907406 0.95899999 1.860049e-38
-0.026062422 0.17907408 0.95899999 2.2854809e-38
-0.022699529 0.17907406 0.95899999 1.8326771e-38
-0.12863067 0.18243696 0.95899999 1.6019011e-38
-0.1261085 0.18159623 0.95899999 1.6571827e-38
-0.12358632 0.18075551 0.95899999 1.9057523e-38
-0.056328461 0.18075551 0.95899999 1.9705408e-38
-0.054647014 0.18075551 0.95899999 1.9521377e-38
-0.037832551 0.18075553 0.95899999 1.9979859e-38
-0.021018082 0.18159623 0.95899999 1.7856809e-38
-0.019336635 0.18243696 0.95899999 1.8135924e-38
-0.13031211 0.18579984 0.95899999 1.5835342e-38
-0.018327771 0.18546355 0.95900005 1.7861494e-38
-0.015413261 0.18692081 0.95899999 1.7399784e-38
-0.1342355 0.1902837 0.95899999 1.6111209e-38
-0.13143308 0.18972322 0.95899999 1.5280368e-38
-0.014292296 0.19000345 0.95899999 1.6939166e-38
-0.01261085 0.19252563 0.95899999 1.647999e-38
-0.010509041 0.19462743 0.95899999 1.6478906e-38
-0.11239918 0.16648601 0.96399999 2.2851954e-38
-0.10986386 0.16648601 0.96399999 1.7224315e-38
-0.10732854 0.16648601 0.96399999 1.629488e-38
-0.11819308 0.17137869 0.963 1.5649504e-38
-0.11371318 0.17014648 0.96285713 2.073754e-38
-0.10971191 0.16963032 0.96266663 1.7766723e-38
-0.10656339 0.17006281 0.96320003 1.970503e-38
-0.10268045 0.1711341 0.96399999 2.2656042e-38
-0.09803237 0.17071155 0.96399999 2.275182e-38
-0.093779042 0.1698156 0.96371424 2.1007667e-38
-0.089863092 0.16995536 0.96314287 1.8505776e-38
-0.086200878 0.16986644 0.96399993 1.8413582e-38
-0.081975341 0.17071155 0.96399993 1.9334463e-38
-0.077749804 0.17071153 0.96399999 1.9335179e-38
-0.074651092 0.17099325 0.96399999 1.7399058e-38
-0.070143849 0.17155665 0.96399999 2.3039536e-38
-0.060847677 0.17071153 0.96399999 2.3509886e-38
-0.057044692 0.17028899 0.96399999 2.3509886e-38
-0.054255843 0.17020448 0.96399993 2.2488553e-38
-0.049861293 0.17071155 0.96399993 1.9245862e-38
-0.04563576 0.17071155 0.96399999 2.3501242e-38
-0.042255331 0.17155665 0.96399999 2.0082476e-38
-0.038029801 0.17155665 0.96399999 2.1180158e-38
-0.033804268 0.17155665 0.96399999 1.8877448e-38
-0.030423837 0.17155665 0.96399999 1.5281453e-38
-0.026198309 0.17155665 0.96399999 2.1660567e-38
-0.12141365 0.17437367 0.96399999 1.8140588e-38
-0.11891282 0.17288743 0.96200001 1.3993585e-38
-0.10541916 0.17373079 0.96200001 1.9885476e-38
-0.1023831 0.17356211 0.96200001 2.1921288e-38
-0.097828984 0.17288743 0.96200001 2.3496237e-38
-0.094736688 0.17344968 0.96200007 1.8877435e-38
-0.090238802 0.17288743 0.96200007 1.9153301e-38
-0.086066306 0.17382064 0.96250004 1.9059318e-38
-0.081890307 0.1739105 0.963 1.9242986e-38
-0.077669159 0.1739105 0.963 1.7768208e-38
-0.074292243 0.1739105 0.96299994 1.9804788e-38
-0.070023172 0.17379069 0.96233332 2.3508449e-38
-0.06584993 0.1739105 0.963 2.3509886e-38
-0.061978925 0.17377777 0.96320003 2.3509886e-38
-0.057901729 0.17404322 0.96280003 2.3323692e-38
-0.054059211 0.17400123 0.96349996 1.7687178e-38
-0.049809571 0.1739105 0.963 1.8413231e-38
-0.045541078 0.17373079 0.96200001 2.1450641e-38
-0.042211495 0.1739105 0.963 2.2207641e-38
-0.03799035 0.1739105 0.963 2.2564142e-38
-0.033804268 0.17409196 0.96399999 1.8967151e-38
-0.030423835 0.17409196 0.96399999 1.6203399e-38
-0.026198305 0.17409198 0.96399993 2.2303058e-38
-0.021972772 0.17409196 0.96399999 1.7400869e-38
-0.12930132 0.17831749 0.96399999 1.6664362e-38
-0.12607139 0.17813134 0.963 1.7215763e-38
-0.12228623 0.17710419 0.96200001 1.915151e-38
-0.10373246 0.17626084 0.96200001 1.9243306e-38
-0.085178688 0.17626084 0.96200001 1.9244064e-38
-0.081805274 0.17626086 0.96200007 1.8783084e-38
-0.077307388 0.17682308 0.96200007 1.8792788e-38
-0.074215092 0.1771042 0.96200001 2.3509165e-38
-0.070419997 0.17668253 0.96200001 2.3509886e-38
-0.065781556 0.17626084 0.96200001 2.3509886e-38
-0.062408142 0.17626084 0.96200001 2.3509886e-38
-0.057769701 0.17668252 0.96200001 2.0363004e-38
-0.054255735 0.17682308 0.96200007 1.859906e-38
-0.049757849 0.17626086 0.96200007 1.9060039e-38
-0.042167664 0.17626084 0.96200001 2.3491166e-38
-0.037950903 0.1771042 0.96200001 2.339465e-38
-0.033734135 0.1771042 0.96200001 1.8780963e-38
-0.030360721 0.1771042 0.96200001 1.8506507e-38
-0.026143953 0.1771042 0.96200001 2.2761529e-38
-0.021776048 0.17775749 0.96280003 1.7220072e-38
-0.019437451 0.17747238 0.96399999 1.7954047e-38
-0.13690728 0.18338814 0.96399999 1.7682498e-38
-0.1333892 0.1831979 0.963 1.6108692e-38
-0.13001142 0.18150856 0.96299994 1.6202683e-38
-0.12734635 0.18132097 0.96200001 1.6202687e-38
-0.017726198 0.18148151 0.96285713 1.7861131e-38
-0.014366813 0.18338814 0.96399999 1.7584541e-38
-0.1411328 0.18676856 0.96399999 1.8781997e-38
-0.13809042 0.18575445 0.96399993 1.9429872e-38
-0.13375583 0.18570641 0.96200001 1.5741706e-38
-0.016023712 0.18469438 0.96200001 1.7676734e-38
-0.013506803 0.18573061 0.96299994 1.7031009e-38
-0.010986386 0.18592346 0.96399999 1.6846257e-38
-0.13451487 0.18848947 0.96200001 1.5559106e-38
-0.0126503 0.18891114 0.96200001 1.6662226e-38
-0.010133682 0.19001691 0.96333331 1.6754419e-38
-0.10935803 0.16276544 0.96700001 1.4737551e-38
-0.10766255 0.16276544 0.96700001 1.4816861e-38
-0.086469136 0.16361317 0.96700001 2.3509886e-38
-0.11613992 0.16615638 0.96700001 1.9893008e-38
-0.11387929 0.16587381 0.96700001 2.2114396e-38
-0.11020576 0.16530864 0.96700001 1.8242372e-38
-0.10562798 0.16598684 0.96700001 1.8044452e-38
-0.10201098 0.16643897 0.96700001 2.3494795e-38
-0.098337449 0.16700412 0.96700001 1.6296314e-38
-0.093759671 0.16632593 0.96700001 2.3406896e-38
-0.089860089 0.16615638 0.96700001 2.2956712e-38
-0.086469144 0.16615638 0.96700001 1.7872346e-38
-0.082230456 0.16615638 0.96700001 1.8505424e-38
-0.077991769 0.16615638 0.96700001 1.9703595e-38
-0.073753089 0.16700414 0.96700001 1.9518846e-38
-0.061037038 0.16615638 0.96700001 2.3509877e-38
-0.057646088 0.16615638 0.96700001 1.7879857e-38
-0.054255143 0.16615638 0.96700001 1.5746049e-38
-0.050355554 0.16632593 0.96700001 1.9155024e-38
-0.045777779 0.16700412 0.96700001 2.064213e-38
-0.11783539 0.16954733 0.96700001 1.7865081e-38
-0.11444444 0.16869959 0.96700001 2.3499482e-38
-0.10511935 0.16869959 0.96700001 2.0348977e-38
-0.10172839 0.16954733 0.96700001 2.2843291e-38
-0.098337449 0.16869959 0.96700001 1.8507937e-38
-0.095794246 0.16869959 0.96700001 2.3507016e-38
-0.082230464 0.16869959 0.96700001 1.9059674e-38
-0.077991769 0.16869959 0.96700001 1.9704318e-38
-0.07341399 0.16937779 0.96700001 1.8504327e-38
-0.069514409 0.16954733 0.96700001 1.9342364e-38
-0.066123456 0.16954733 0.96700001 2.3509881e-38
-0.062308647 0.16912347 0.96700001 2.3509886e-38
-0.058493827 0.16954732 0.96700001 2.3509886e-38
-0.053407408 0.16869959 0.96700001 2.0545605e-38
-0.050016463 0.16869959 0.96700001 1.8789931e-38
-0.045777779 0.16869959 0.96700001 2.2206894e-38
-0.042386834 0.16954733 0.96700001 1.8141367e-38
-0.03814815 0.16954732 0.96700001 2.1549661e-38
-0.033909462 0.16954732 0.96700001 1.8415052e-38
-0.030518521 0.16954732 0.96700001 1.5833173e-38
-0.026279835 0.16954732 0.96700001 2.0832608e-38
-0.022041153 0.17039506 0.96700001 1.7399779e-38
-0.12800823 0.17548148 0.96700001 1.6845901e-38
-0.12546502 0.17463374 0.96700001 1.7676373e-38
-0.12235665 0.1726557 0.96700001 1.8139143e-38
-0.066123456 0.17209053 0.96700001 2.3509886e-38
-0.063580252 0.17209053 0.96700001 2.3509886e-38
-0.022041153 0.17209053 0.96700001 1.7309754e-38
-0.018932788 0.17491633 0.96700001 1.8599046e-38
-0.1297037 0.17774212 0.96700001 1.6571459e-38
-0.016954733 0.17802471 0.96700001 1.8046597e-38
-0.14157201 0.18311112 0.96700001 1.9334446e-38
-0.13860494 0.18268725 0.96700001 2.0075261e-38
-0.1339424 0.18141565 0.96700001 1.6201601e-38
-0.13139917 0.18056791 0.96700001 1.6386346e-38
-0.016106997 0.18056791 0.96700001 1.7584538e-38
-0.013563786 0.18226339 0.96700001 1.7124281e-38
-0.011020577 0.18395886 0.96700001 1.6663305e-38
-0.0093251029 0.18650205 0.96700001 1.6477821e-38
-0.0076296297 0.1873498 0.96700001 1.6385627e-38
-0.11394913 0.16242003 0.97000003 2.0820375e-38
-0.11139803 0.16242003 0.97000003 2.3499369e-38
-0.10544547 0.16242003 0.97000003 1.6844822e-38
-0.089288503 0.16242003 0.97000003 2.350986e-38
-0.085887037 0.16242003 0.97000003 2.3509886e-38
-0.081635192 0.16242003 0.97000003 1.7408083e-38
-0.056974567 0.16242003 0.97000003 2.1833448e-38
-0.055273835 0.16242003 0.97000003 2.349405e-38
-0.11820096 0.16638842 0.97000003 1.6758006e-38
-0.11394913 0.16412076 0.97000003 2.0363385e-38
-0.11139803 0.16412076 0.97000003 2.3500826e-38
-0.10544547 0.16412076 0.97000003 1.7400137e-38
-0.102044 0.16497114 0.97000003 2.2661775e-38
-0.097792171 0.16582152 0.97000003 1.8045151e-38
-0.093540333 0.16412076 0.97000003 2.0442234e-38
-0.090138867 0.16412076 0.97000003 2.3508451e-38
-0.084186301 0.16412076 0.97000003 2.3509886e-38
-0.081635192 0.16412076 0.97000003 1.7409142e-38
-0.078233734 0.16412076 0.97000003 1.9793991e-38
-0.073981903 0.16582152 0.97000003 1.9334465e-38
-0.069730058 0.16667187 0.97000003 1.8505769e-38
-0.0663286 0.16667187 0.97000003 1.962112e-38
-0.063777499 0.16667187 0.97000003 2.3509865e-38
-0.057824932 0.16412076 0.97000003 1.7211483e-38
-0.054423466 0.16412076 0.97000003 2.0436116e-38
-0.04974645 0.16454595 0.97000003 2.3402553e-38
-0.045919798 0.16582151 0.97000003 2.0081396e-38
-0.042518333 0.16752224 0.97000003 2.0256767e-38
-0.038266502 0.16752224 0.97000003 2.1461082e-38
-0.034014668 0.16582151 0.97000015 1.7029927e-38
-0.029762832 0.16667187 0.97000015 2.0267853e-38
-0.025511 0.16752224 0.97000003 1.9260999e-38
-0.022959899 0.16752224 0.97000003 1.7124618e-38
-0.12216934 0.1703568 0.97000003 1.8416098e-38
-0.1199017 0.16922295 0.97000003 1.6848776e-38
-0.022109533 0.16922295 0.97000003 1.7677435e-38
-0.12897228 0.17375825 0.97000003 1.68459e-38
-0.12585427 0.17262442 0.97000003 1.7860761e-38
-0.017857701 0.1734748 0.97000003 1.8230261e-38
-0.13690902 0.17942737 0.97000003 1.6388498e-38
-0.13407448 0.17886047 0.97000003 1.6018638e-38
-0.13123992 0.17659283 0.97000003 1.6479271e-38
-0.016156966 0.1760259 0.97000003 1.804623e-38
-0.014031049 0.17815182 0.97000003 1.7216476e-38
-0.13775939 0.1811281 0.97000003 1.8512278e-38
-0.012755499 0.1811281 0.97000003 1.6848055e-38
-0.010487854 0.18226193 0.97000003 1.6663305e-38
-0.0093540326 0.18452956 0.97000003 1.6754409e-38
-0.11425158 0.15926841 0.97500008 1.8783068e-38
-0.11001854 0.15861718 0.97500002 2.2668952e-38
-0.10591653 0.15801945 0.97433329 1.6852701e-38
-0.10171525 0.1589835 0.97500002 1.8318498e-38
-0.097441494 0.1589835 0.97500002 2.2193972e-38
-0.094307415 0.15926842 0.97500008 2.1454286e-38
-0.091458254 0.15983824 0.97500002 1.9422707e-38
-0.081201248 0.15983824 0.97500002 2.2743992e-38
-0.077782243 0.15983824 0.97500008 2.0624525e-38
-0.073508501 0.15983824 0.97500002 2.0072376e-38
-0.052139752 0.15983824 0.97500002 1.8969623e-38
-0.0495755 0.15983824 0.97500002 1.9797238e-38
-0.0461565 0.1589835 0.97500002 2.28465e-38
-0.041882753 0.1589835 0.97500002 1.8603746e-38
-0.037893917 0.15926842 0.97500008 1.8045873e-38
-0.035044752 0.15983824 0.97500002 1.9520278e-38
-0.1213745 0.16325724 0.97500002 1.8507221e-38
-0.11783451 0.16223505 0.97399998 1.7955466e-38
-0.11430155 0.16121636 0.97299999 2.017176e-38
-0.11003657 0.16121636 0.97299999 2.2207978e-38
-0.10577159 0.16121636 0.97299999 1.4358742e-38
-0.10193055 0.16203132 0.9738 2.0532282e-38
-0.097833373 0.16237251 0.9738 2.2012821e-38
-0.093878284 0.1621522 0.97350001 1.896423e-38
-0.090701982 0.16178504 0.97299999 2.0719165e-38
-0.086152665 0.16121636 0.97299999 2.2581095e-38
-0.082056001 0.16154775 0.97500002 2.0449458e-38
-0.078059629 0.1620976 0.97419995 1.9238677e-38
-0.073990144 0.16250646 0.97460002 1.8873125e-38
-0.070089497 0.1624025 0.97500002 1.9239717e-38
-0.065815747 0.1624025 0.97500002 2.0079224e-38
-0.061478876 0.16223505 0.97399998 2.0273316e-38
-0.058328431 0.1618955 0.97366667 2.1846403e-38
-0.053419679 0.16196504 0.97340006 2.303848e-38
-0.049498785 0.1621522 0.97350001 1.9437461e-38
-0.046132389 0.16231877 0.97450006 2.0807767e-38
-0.04188275 0.1624025 0.97500002 2.1926374e-38
-0.037570424 0.16223505 0.97399998 1.8050947e-38
-0.034154933 0.16223505 0.97399998 1.749448e-38
-0.029916249 0.16325724 0.97500008 2.2854432e-38
-0.12564825 0.16667624 0.97500002 1.7398725e-38
-0.12183791 0.16592406 0.97460002 1.8507214e-38
-0.11856653 0.16548136 0.97299999 1.7865064e-38
-0.1015066 0.16462836 0.97299999 2.2936243e-38
-0.098094612 0.16462836 0.97299999 2.0073111e-38
-0.074210711 0.16462836 0.97299999 1.9334458e-38
-0.069945723 0.16462836 0.97299999 1.8780933e-38
-0.066533729 0.16462836 0.97299999 1.66572e-38
-0.062268756 0.16462836 0.97299999 1.7210383e-38
-0.046061821 0.16462836 0.97299999 1.6764569e-38
-0.041811734 0.16553776 0.97333336 2.1920227e-38
-0.037531849 0.16548136 0.97299999 1.8970374e-38
-0.029854884 0.16462836 0.97299999 2.3035561e-38
-0.025616199 0.16565055 0.97400004 1.8701689e-38
-0.022508418 0.1661064 0.97500008 1.8323893e-38
-0.13376836 0.17137736 0.97500002 1.6939877e-38
-0.1296981 0.17036667 0.97459996 1.7306863e-38
-0.12637356 0.16991964 0.97399998 1.7768563e-38
-0.12311584 0.16860901 0.97299999 1.8599768e-38
-0.021324914 0.16804034 0.97299999 1.9152922e-38
-0.018794417 0.17086188 0.97449994 1.8323889e-38
-0.1384695 0.17436898 0.97500002 1.8782757e-38
-0.13401282 0.17412995 0.97366667 1.6662568e-38
-0.13050848 0.17315832 0.97299999 1.6937744e-38
-0.016206935 0.17315832 0.97299999 1.7768584e-38
-0.013661096 0.17504403 0.97399998 1.7307241e-38
-0.13505781 0.17713897 0.97299999 1.6201968e-38
-0.01279495 0.1774233 0.97299999 1.730688e-38
-0.011104152 0.17851946 0.97433329 1.7215044e-38
-0.0093926061 0.18102026 0.97399998 1.6847335e-38
-0.10974464 0.15518576 0.97799999 1.9615363e-38
-0.10631511 0.15518576 0.97799999 2.3504863e-38
-0.10202821 0.15518576 0.97800004 1.5560524e-38
-0.097455524 0.15461418 0.97800004 1.7772136e-38
-0.094597593 0.15461418 0.97800004 1.9155828e-38
-0.091739655 0.15518576 0.97799999 2.2285446e-38
-0.081451096 0.15518576 0.97799999 2.3484668e-38
-0.079736337 0.15518576 0.97799999 2.3487909e-38
-0.048870657 0.15518576 0.97799999 2.1090143e-38
-0.046298519 0.15518576 0.97799999 1.7036824e-38
-0.042011619 0.15518576 0.97800004 1.5372523e-38
-0.038582098 0.15518576 0.97799999 2.3479505e-38
-0.11746105 0.15861529 0.97799999 1.8877079e-38
-0.11403154 0.15747212 0.97800004 1.823133e-38
-0.11060201 0.15690053 0.97799999 2.3487201e-38
-0.10202821 0.15690053 0.97800004 1.5741684e-38
-0.097741321 0.15690053 0.97799999 1.8966767e-38
-0.094025999 0.15747212 0.97800004 2.3303556e-38
-0.090024889 0.15775791 0.97800004 2.117766e-38
-0.085737996 0.15775791 0.97799999 2.1917038e-38
-0.082308471 0.15775791 0.97799999 2.2473449e-38
-0.078364529 0.15792939 0.97799999 2.3495482e-38
-0.073734671 0.15775791 0.97799999 2.3504852e-38
-0.070590951 0.15804371 0.97800004 2.3509886e-38
-0.066018254 0.15861529 0.97800004 2.3231865e-38
-0.061731353 0.15775791 0.97799999 2.0634945e-38
-0.058301836 0.15861529 0.97799999 1.8967515e-38
-0.054014936 0.15775791 0.97800004 1.9701459e-38
-0.049728036 0.15775791 0.97799999 2.2288668e-38
-0.046298519 0.15690053 0.97799999 2.0818583e-38
-0.042011619 0.15690053 0.97800004 1.7124297e-38
-0.037438925 0.15747212 0.97800004 1.7396508e-38
-0.034295198 0.15861529 0.97799999 2.350122e-38
-0.12432009 0.16375957 0.97799999 1.7217914e-38
-0.12174796 0.16204481 0.97799999 1.8230987e-38
-0.11831843 0.16033006 0.97799999 1.8784158e-38
-0.089167513 0.16033006 0.97799999 1.8132682e-38
-0.085737996 0.16033006 0.97799999 2.3501255e-38
-0.083165854 0.16033006 0.97799999 2.3509886e-38
-0.070305154 0.16033006 0.97799999 2.3499695e-38
-0.066018254 0.16033006 0.97800004 2.3509886e-38
-0.061731353 0.16033006 0.97799999 2.3509886e-38
-0.058301836 0.16033006 0.97799999 2.3509886e-38
-0.054872319 0.16033006 0.97799999 2.0732858e-38
-0.033437818 0.16033006 0.97799999 2.3121624e-38
-0.030436987 0.16161613 0.97799999 2.1663437e-38
-0.025721397 0.16375957 0.97799999 1.7862241e-38
-0.02229188 0.16375957 0.97799999 1.8507221e-38
-0.13032176 0.16718909 0.97799999 1.7123558e-38
-0.12603486 0.16604592 0.97800004 1.7490909e-38
-0.021434499 0.16547433 0.97799999 1.8692681e-38
-0.13117914 0.16890386 0.97799999 1.7308659e-38
-0.01800498 0.16947544 0.97800004 1.8047317e-38
-0.13889556 0.17233337 0.97799999 2.0443699e-38
-0.016290218 0.17233337 0.97799999 1.8135568e-38
-0.014575459 0.17319074 0.97799999 1.7306526e-38
-0.010288559 0.17576288 0.97799999 1.7213965e-38
-0.097478315 0.15096201 0.98400003 1.3074538e-38
-0.094027758 0.15096202 0.98400009 1.6573584e-38
-0.089714557 0.15009937 0.98400003 1.7858595e-38
-0.086263999 0.15009937 0.98400003 1.8965295e-38
-0.082245886 0.14983478 0.98340005 2.0995411e-38
-0.078106262 0.15017985 0.98340005 2.1917031e-38
-0.07418704 0.15009937 0.98400003 2.1094068e-38
-0.070736483 0.15009937 0.98400003 1.9987743e-38
-0.062110074 0.15096201 0.98400003 2.2010282e-38
-0.059522159 0.15096201 0.98400003 2.1090496e-38
-0.05348368 0.15009937 0.98400003 1.6110524e-38
-0.050033115 0.15009937 0.98400003 1.6568577e-38
-0.046295013 0.15038691 0.98400009 1.8968516e-38
-0.042614412 0.15027189 0.98400003 2.3041328e-38
-0.11266131 0.15566181 0.98100001 1.8601916e-38
-0.10922126 0.15394178 0.98100001 1.8786284e-38
-0.10594298 0.15331452 0.98250002 2.2112561e-38
-0.10163634 0.15331452 0.98250002 1.8794278e-38
-0.098428629 0.15295027 0.98200005 1.3907823e-38
-0.093397081 0.15290979 0.98100007 1.8784131e-38
-0.089441031 0.1539418 0.98100007 2.173512e-38
-0.086001001 0.1539418 0.98100007 2.2380858e-38
-0.082732961 0.15359779 0.98100007 2.2563463e-38
-0.078045905 0.15372677 0.98100001 2.3031264e-38
-0.073998123 0.15401937 0.98150003 2.1367415e-38
-0.070243545 0.15389557 0.98228574 2.0903595e-38
-0.066080391 0.15433201 0.98212504 2.089999e-38
-0.062046956 0.15425389 0.98300004 2.0441171e-38
-0.057796877 0.15372245 0.98400003 2.11816e-38
-0.053759456 0.15438777 0.9822858 2.1642234e-38
-0.0501136 0.15378399 0.98220009 1.9522459e-38
-0.046440542 0.15308177 0.98100001 1.5466909e-38
-0.042161088 0.15315937 0.98150003 1.9061052e-38
-0.037870027 0.15405816 0.98175001 2.3504083e-38
-0.035368241 0.15441255 0.98400003 2.1654454e-38
-0.12230946 0.15934512 0.98250002 1.8138064e-38
-0.11789238 0.15747704 0.98159999 1.8416094e-38
-0.11473113 0.15613784 0.98400003 1.8507921e-38
-0.076540887 0.15738182 0.98100001 2.3500871e-38
-0.069660805 0.15738182 0.98100001 2.2765859e-38
-0.066220775 0.15738182 0.98100007 2.1373239e-38
-0.058570094 0.15675983 0.98250002 1.8872773e-38
-0.034452997 0.15675983 0.98250002 2.276693e-38
-0.030554682 0.15879217 0.98175001 1.9258126e-38
-0.025879201 0.1595884 0.98400003 1.9337688e-38
-0.12853335 0.16303895 0.98400003 1.7309031e-38
-0.12553078 0.16229817 0.98300004 1.7218636e-38
-0.12212142 0.16082187 0.98100001 1.8138433e-38
-0.02924034 0.16082187 0.98100001 1.9535035e-38
-0.025819367 0.16180483 0.98175001 1.7495213e-38
-0.022670601 0.16213249 0.98200005 1.8507222e-38
-0.13330156 0.16770194 0.98100001 1.6939522e-38
-0.12975578 0.16559638 0.98280001 1.6848769e-38
-0.12642147 0.16426191 0.98100001 1.7401945e-38
-0.018939506 0.16614938 0.98200005 1.8045877e-38
-0.016365174 0.16881838 0.98250002 1.7584908e-38
-0.014061733 0.17074136 0.98200005 1.7308673e-38
-0.012900149 0.17372203 0.98100001 1.7307957e-38
-0.092583887 0.14796115 0.98699999 1.6929928e-38
-0.089988075 0.14796115 0.98699999 1.5362897e-38
-0.086238563 0.14738432 0.98699999 1.6021855e-38
-0.082200646 0.14709589 0.98699999 1.6206626e-38
-0.077874303 0.14709589 0.98699999 1.7494875e-38
-0.074701637 0.14738432 0.98699999 1.8417214e-38
-0.070086867 0.14796117 0.98699999 2.0726035e-38
-0.065760523 0.14796115 0.98699999 2.090901e-38
-0.062299438 0.14796115 0.98699999 1.8142768e-38
-0.057973087 0.14796117 0.98699999 1.6112675e-38
-0.05364674 0.14796115 0.98699999 1.5735283e-38
-0.050185658 0.14796115 0.98699999 2.0624822e-38
-0.045859307 0.14796117 0.98699999 2.3503028e-38
-0.041532956 0.14796115 0.98699999 1.9712923e-38
-0.10556294 0.15142223 0.98699999 2.1462835e-38
-0.10210185 0.15142223 0.98699999 2.3503413e-38
-0.097775504 0.15026855 0.98699999 2.2023247e-38
-0.09344916 0.1496917 0.98699999 1.5562704e-38
-0.068356328 0.15055697 0.98699999 2.0441912e-38
-0.065760523 0.15055697 0.98699999 2.0718128e-38
-0.062299438 0.1496917 0.98699999 2.1366731e-38
-0.057626981 0.15038392 0.98699999 1.8050931e-38
-0.047589846 0.1496917 0.98699999 2.2285406e-38
-0.040667687 0.1496917 0.98699999 1.9717305e-38
-0.038071878 0.15055697 0.98699999 1.962147e-38
-0.11767671 0.15488333 0.98699999 1.8231343e-38
-0.11335036 0.15488333 0.98699999 1.8509356e-38
-0.11075455 0.15401806 0.98699999 1.7679596e-38
-0.057973087 0.15315279 0.98699999 2.1552904e-38
-0.037206605 0.15315279 0.98699999 2.1195309e-38
-0.033745527 0.15401806 0.98699999 1.8791345e-38
-0.030284448 0.15488333 0.98699999 1.952391e-38
-0.12286833 0.1583444 0.98699999 1.7862552e-38
-0.11854198 0.15661387 0.98699999 1.860012e-38
-0.032014988 0.15661387 0.98699999 1.7965979e-38
-0.029707601 0.15776756 0.98699999 2.0261418e-38
-0.025958098 0.1583444 0.98699999 1.9062896e-38
-0.13238631 0.16353603 0.98699999 1.7308662e-38
-0.1297905 0.16267076 0.98699999 1.7123915e-38
-0.12632942 0.16094021 0.98699999 1.7493412e-38
-0.022497017 0.16094021 0.98699999 1.8322832e-38
-0.019035939 0.16353603 0.98699999 1.8046243e-38
-0.016440129 0.1669971 0.98699999 1.7950807e-38
-0.081500188 0.14305884 0.98900002 2.3508804e-38
-0.078032099 0.14305884 0.98900002 2.3507363e-38
-0.073769748 0.14262372 0.99000001 2.3320437e-38
-0.070334092 0.14284098 0.99049997 2.3412273e-38
-0.066093653 0.14349279 0.99199998 2.3506286e-38
-0.061698705 0.14251465 0.99124998 2.3504116e-38
-0.057882614 0.14271028 0.99140006 2.2852967e-38
-0.054788157 0.14262313 0.99199998 2.0545224e-38
-0.10261908 0.1469714 0.99199998 1.9151868e-38
-0.097401172 0.1469714 0.99199998 2.2289035e-38
-0.093781859 0.14674917 0.99049997 2.3496577e-38
-0.089971714 0.14609534 0.99000001 2.3497665e-38
-0.086464092 0.14555581 0.99125004 2.1096638e-38
-0.081500188 0.1447929 0.98900002 1.6113024e-38
-0.078032099 0.1447929 0.98900002 1.3530822e-38
-0.074275002 0.14537093 0.98900002 1.3435037e-38
-0.070228897 0.14565992 0.98900002 1.4540292e-38
-0.065893769 0.14565992 0.98900002 1.4724703e-38
-0.06242568 0.14565992 0.98900002 1.4819751e-38
-0.058090564 0.14565994 0.98900002 1.8694457e-38
-0.053795554 0.14576972 0.98975003 2.3401854e-38
-0.050363623 0.14587952 0.99049997 2.3497631e-38
-0.046067517 0.14602767 0.99150002 2.0267557e-38
-0.041949086 0.14609534 0.99000001 1.8142407e-38
-0.038264744 0.1469714 0.99199998 1.9060734e-38
-0.11288266 0.15108955 0.99049997 1.8598315e-38
-0.1098977 0.15121746 0.99019998 1.8506496e-38
-0.10593727 0.14935288 0.99050003 1.9061096e-38
-0.10246392 0.14935288 0.99049997 2.1367104e-38
-0.098407149 0.14869449 0.98900002 2.3503019e-38
-0.094505541 0.14826098 0.98900002 2.0729283e-38
-0.038149025 0.14826098 0.98900002 1.8970326e-38
-0.034426991 0.15072384 0.99000001 1.8693399e-38
-0.12436043 0.15566793 0.99199998 1.7494478e-38
-0.12156868 0.15543255 0.99049997 1.7678878e-38
-0.11791517 0.15346313 0.98900002 1.8230617e-38
-0.11496804 0.15357819 0.98975003 1.8599404e-38
-0.11184601 0.15346313 0.98900002 1.8415004e-38
-0.032079864 0.15346313 0.98900002 1.8052338e-38
-0.029218715 0.15419632 0.99000001 1.8968567e-38
-0.026089597 0.15566793 0.99199998 1.8231704e-38
-0.13044798 0.15914655 0.99199998 1.96136e-38
-0.12584375 0.15824594 0.99000001 1.7308652e-38
-0.12138326 0.15693122 0.98900002 1.7955105e-38
-0.02861177 0.15693122 0.98900002 1.9619311e-38
-0.0260107 0.15693122 0.98900002 1.841682e-38
-0.022610985 0.15914655 0.99199998 1.8046243e-38
-0.13034251 0.16097733 0.98900002 1.8321034e-38
-0.12745243 0.16039932 0.98900002 1.7123901e-38
-0.020838805 0.16064259 0.99049997 1.7861846e-38
-0.019102126 0.16237926 0.99049997 1.7860772e-38
-0.016498428 0.16498296 0.99049997 1.776964e-38
-0.013882235 0.16659404 0.98975003 1.7766763e-38
-0.088100612 0.14392674 0.995 2.3491534e-38
-0.086356044 0.14392674 0.995 2.3499438e-38
-0.068910383 0.14218217 0.995 2.3507349e-38
-0.06629353 0.14218217 0.995 2.3508434e-38
-0.063676685 0.14218217 0.995 2.3506636e-38
-0.056698415 0.14043762 0.995 1.9151126e-38
-0.054081567 0.14218217 0.995 1.878991e-38
-0.050301671 0.14334522 0.99500006 1.9337679e-38
-0.047975581 0.14305446 0.995 1.9426645e-38
-0.10554628 0.14741588 0.995 1.942666e-38
-0.10031258 0.14741588 0.995 1.8877079e-38
-0.093334317 0.14567131 0.995 2.3496217e-38
-0.091589741 0.14567131 0.995 2.3497296e-38
-0.040997315 0.14567131 0.995 1.9061473e-38
-0.039252751 0.14567131 0.995 1.8876723e-38
-0.035763618 0.14741588 0.995 1.8324256e-38
-0.11426912 0.150905 0.995 1.8321009e-38
-0.10903541 0.14916044 0.995 1.9334828e-38
-0.032856002 0.14974198 0.99500006 1.8780939e-38
-0.030529916 0.150905 0.995 1.8598672e-38
-0.12473652 0.15439415 0.995 1.9063246e-38
-0.12211967 0.15439415 0.995 1.7310813e-38
-0.11863053 0.15264958 0.995 1.795404e-38
-0.030529916 0.15264958 0.995 1.8968174e-38
-0.027040781 0.15439415 0.995 1.8139139e-38
-0.022970129 0.15730175 0.99500006 1.7862572e-38
-0.081366941 0.14261088 0.99800003 2.3503004e-38
-0.077867292 0.14261088 0.99800003 2.3507709e-38
-0.073492721 0.14173597 0.99800003 2.2485642e-38
-0.069993064 0.14086105 0.99800003 1.9617137e-38
-0.066493407 0.14086105 0.99800003 1.87845e-38
-0.060369018 0.14086105 0.99800003 1.9151105e-38
-0.058619194 0.14086105 0.99800003 1.9058571e-38
-0.053369712 0.14173597 0.99800003 1.8784871e-38
-0.050307516 0.1412985 0.99800003 1.8967466e-38
-0.10994744 0.14727709 0.99800003 1.8229914e-38
-0.10630196 0.14654799 0.99800003 1.8874204e-38
-0.10148995 0.14611052 0.99800003 1.9059662e-38
-0.097990289 0.14611052 0.99800003 2.1734368e-38
-0.09449064 0.1452356 0.99800003 2.1556455e-38
-0.09099099 0.14436069 0.99800003 2.1001168e-38
-0.084866591 0.14436069 0.99800003 2.3500519e-38
-0.045495495 0.14436069 0.99800003 1.9150064e-38
-0.041995838 0.14436069 0.99800003 1.8967118e-38
-0.037621275 0.14611052 0.99800003 1.9060009e-38
-0.034121618 0.14786035 0.99800003 1.8504684e-38
-0.12161295 0.15136001 0.99800003 1.9154373e-38
-0.1181133 0.15136001 0.99800003 1.7771441e-38
-0.11373873 0.14961018 0.99800003 1.8047663e-38
-0.11111399 0.14961018 0.99800003 1.8689458e-38
-0.12248787 0.15310983 0.99800003 1.7677801e-38
-0.02887214 0.15310983 0.99800003 1.8507556e-38
-0.026247401 0.15398476 0.99800003 1.8045863e-38
-0.02362266 0.15485966 0.99800003 1.7677791e-38
-0.020997919 0.15748438 0.99800003 1.7859676e-38
-0.076575071 0.13994755 1.0039999 1.9241896e-38
-0.073934555 0.13994755 1.0039999 1.9979838e-38
-0.070413858 0.13994755 1.0039999 1.841396e-38
-0.065879747 0.13966879 1.0020001 1.8782364e-38
-0.061521396 0.13973847 1.0025001 1.9150777e-38
-0.057917859 0.13952939 1.001 1.9335171e-38
-0.054407686 0.13952939 1.001 1.9427011e-38
-0.050019972 0.13952939 1.0010002 1.9242261e-38
-0.11002167 0.14346825 1.0039999 2.0534432e-38
-0.10562079 0.14346825 1.0039999 1.9152219e-38
-0.092912927 0.14273858 1.003 1.9245846e-38
-0.089643538 0.14237374 1.0025001 2.0167047e-38
-0.086128116 0.14237374 1.0025001 2.1275894e-38
-0.082233742 0.14204082 1.00325 2.0076653e-38
-0.077340841 0.14149618 1.0025001 1.9611728e-38
-0.07459119 0.14128448 1.001 2.210101e-38
-0.064060666 0.14128448 1.001 1.8782701e-38
-0.062305581 0.14128448 1.001 1.8874516e-38
-0.045699317 0.14237505 1.0025001 1.9150424e-38
-0.042248316 0.14346825 1.0039999 1.9058597e-38
-0.039607797 0.14346825 1.0039999 1.8966757e-38
-0.11794321 0.14698893 1.0039999 2.0164283e-38
-0.11425158 0.14588916 1.0025001 2.0536232e-38
-0.11086297 0.14537969 1.0010002 1.9704681e-38
-0.10618275 0.14479467 1.0010002 1.8876719e-38
-0.10179503 0.14479466 1.001 1.8413929e-38
-0.098284855 0.14479466 1.001 1.9242595e-38
-0.09565223 0.14479466 1.001 2.0534045e-38
-0.03866845 0.14501162 1.0025001 1.878307e-38
-0.035153016 0.14676933 1.0025001 1.905857e-38
-0.12410443 0.14874928 1.0039999 2.2195068e-38
-0.1220995 0.14991555 1.0020001 2.1368156e-38
-0.11767957 0.14929348 1.00175 1.8692334e-38
-0.11408064 0.14830482 1.001 1.8787032e-38
-0.032469105 0.14830482 1.001 2.0256401e-38
-0.029881183 0.15028346 1.0025001 1.9519908e-38
-0.026645992 0.15137988 1.0020001 1.9334093e-38
-0.025448756 0.15357009 1.001 1.7860031e-38
-0.021975404 0.15383232 1.0027143 2.0530805e-38
-0.076803878 0.13860011 1.007 1.9518483e-38
-0.07415548 0.13860011 1.007 1.9519202e-38
-0.070624262 0.13860011 1.007 1.905931e-38
-0.067975856 0.13860011 1.007 1.9151871e-38
-0.11388163 0.14389692 1.007 2.0078134e-38
-0.10240518 0.14389692 1.007 1.89671e-38
-0.097991168 0.14389692 1.007 1.9152212e-38
-0.093577147 0.14124852 1.007 1.81377e-38
-0.090045929 0.14036572 1.007 1.9149328e-38
-0.086514726 0.14036572 1.007 1.9241536e-38
-0.082100704 0.14036572 1.007 1.8782361e-38
-0.078569494 0.14036572 1.007 1.905752e-38
-0.042374559 0.14213133 1.007 1.9241532e-38
-0.037960541 0.14389692 1.007 1.9702482e-38
-0.11741284 0.14566255 1.007 2.2563826e-38
-0.036194935 0.14566255 1.007 1.9518461e-38
-0.033546522 0.14654535 1.007 2.0808122e-38
-0.030015312 0.14742814 1.007 2.1271272e-38
-0.029132508 0.14919375 1.007 2.0904285e-38
-0.09297049 0.13901302 1.01 2.0167803e-38
-0.090314195 0.13901302 1.01 1.9243323e-38
-0.08588703 0.13812761 1.0100001 1.9519191e-38
-0.081459865 0.1381276 1.01 1.9428088e-38
-0.078213274 0.13783246 1.01 1.9335539e-38
-0.074376397 0.13724217 1.01 1.9518842e-38
-0.070834666 0.13724217 1.01 1.9518842e-38
-0.06552206 0.13901302 1.01 1.9243338e-38
-0.058438599 0.13901302 1.01 1.9057502e-38
-0.054896865 0.13901302 1.01 1.9331568e-38
-0.11245003 0.14255476 1.01 2.2657444e-38
-0.10979372 0.14255476 1.01 2.2473422e-38
-0.106252 0.14255476 1.01 2.0813901e-38
-0.10182483 0.14255476 1.01 1.943132e-38
-0.097102523 0.14196448 1.01 1.8875991e-38
-0.094741359 0.14078389 1.01 1.9058221e-38
-0.046042532 0.14078389 1.01 1.9148982e-38
-0.043386228 0.14078389 1.01 2.0253893e-38
-0.036302764 0.14432563 1.01 2.0532244e-38
-0.033351321 0.14491592 1.01 2.1546051e-38
-0.03010473 0.14609648 1.01 2.2466591e-38
-0.093246646 0.13587368 1.013 2.3212419e-38
-0.09058246 0.13587368 1.013 2.145856e-38
-0.085254073 0.13587368 1.013 2.0997925e-38
-0.081405804 0.13528165 1.013 2.0260012e-38
-0.078149572 0.13498563 1.013 2.0165652e-38
-0.074597321 0.13498563 1.013 2.0348593e-38
-0.070157006 0.13587368 1.013 2.0256043e-38
