# .PCD v0.7 - Point Cloud Data file format
VERSION 0.7
FIELDS x y z rgb
SIZE 4 4 4 4
TYPE F F F F
COUNT 1 1 1 1
WIDTH 172
HEIGHT 1
VIEWPOINT 0 0 0 1 0 0 0
POINTS 172
DATA ascii
0.010435839 0.023480639 0.99199998 2.213379e-38
0.0072471108 0.026379481 0.99199998 1.6715854e-38
0.010435839 0.026089599 0.99199998 1.9101783e-38
0.013914453 0.026959252 0.99199998 1.8642606e-38
0.0069572264 0.029568212 0.99199998 1.5524148e-38
0.01043584 0.029568212 0.99199998 1.8183432e-38
0.013914453 0.029568212 0.99199998 1.799976e-38
0.017393064 0.029568212 0.99199998 1.7173252e-38
0.020581797 0.029858097 0.99199998 1.7374215e-38
0.0065223998 0.034351304 0.99199998 1.3779677e-38
0.01043584 0.033916477 0.99200004 1.6897737e-38
0.013624569 0.03275694 0.99199998 1.9285485e-38
0.017393064 0.032177169 0.99199998 1.7174718e-38
0.021393472 0.034264337 0.99200004 1.2883618e-38
0.0052179196 0.03739509 0.99199998 1.0669491e-38
0.02087168 0.03739509 0.99199998 1.1508606e-38
0.013956534 0.023551648 0.995 2.3430623e-38
0.016573383 0.023551648 0.995 1.9560961e-38
0.013956534 0.025296215 0.995 2.1948699e-38
0.017445665 0.026168497 0.995 1.735691e-38
0.00261685 0.030529916 0.995 9.5818393e-39
0.0043614162 0.029657632 0.995 1.5906959e-38
0.022970125 0.029366871 0.99500006 1.2887579e-38
0.0026168502 0.034019049 0.99500006 8.5709426e-39
0.0057570697 0.033670139 0.995 1.2313892e-38
0.014247295 0.035182096 0.99500006 1.5520199e-38
0.017445665 0.034891333 0.995 1.3775694e-38
0.022243224 0.033582907 0.995 1.270104e-38
0.0065421248 0.038816608 0.995 1.1583209e-38
0.010758161 0.038089707 0.99500006 1.3132476e-38
0.013956534 0.038380466 0.995 1.3224311e-38
0.017445665 0.038380466 0.995 1.4065268e-38
0.017445665 0.040997315 0.995 2.1918106e-38
0.013998613 0.021872833 0.99800003 2.3452676e-38
0.0096240472 0.039371099 0.99800003 1.1663108e-38
0.020123007 0.039371099 0.99800003 1.1318206e-38
0.014873526 0.041120928 0.99800003 1.046931e-38
0.020997919 0.041120928 0.99800003 9.6733244e-39
0.0061471867 0.041285738 1.0020001 1.5008571e-38
0.010553532 0.042217415 1.00325 8.4492846e-39
0.013748179 0.042414598 1.0010002 1.3236222e-38
0.017550867 0.042999625 1.001 2.2751139e-38
0.02106104 0.042999625 1.001 8.8439617e-39
0.011442252 0.04576901 1.0039999 2.3509886e-38
0.014071595 0.045735478 1.0032499 2.3509886e-38
0.017550867 0.045632251 1.001 1.9450034e-38
0.021092599 0.045701947 1.0024999 6.7277572e-39
0.011442252 0.048409529 1.0039999 2.1662023e-38
0.014258808 0.049817804 1.0039999 1.8892896e-38
0.017603464 0.050169878 1.0039999 1.2346975e-38
0.02112416 0.050169878 1.0039999 8.9407859e-39
0.0061796228 0.043257363 1.007 2.0455226e-38
0.0061796228 0.045022972 1.007 2.3046733e-38
0.0097108362 0.045905769 1.007 2.3509886e-38
0.010299372 0.049731251 1.007 2.1294671e-38
0.01059364 0.052085392 1.007 1.9446107e-38
0.013830585 0.053262465 1.007 8.4607767e-39
0.017656066 0.054733802 1.007 1.4537761e-38
0.020304475 0.053851001 1.007 1.1418216e-38
0.0070834663 0.046927962 1.01 2.3509876e-38
0.0070834663 0.049584262 1.01 2.1199191e-38
0.0079688998 0.053126 1.01 2.2029361e-38
0.010625198 0.054896865 1.01 1.888931e-38
0.014166933 0.055782299 1.01 8.9106271e-39
0.020364966 0.055782299 1.01 1.0868968e-38
0.015052366 0.057553165 1.01 1.4258978e-38
0.017708667 0.058438599 1.01 1.4360204e-38
0.020364966 0.057553165 1.01 1.0869724e-38
0.00266419 0.046179295 1.013 1.6311392e-38
0.0044403165 0.047067355 1.013 1.9264182e-38
0.00266419 0.049731545 1.013 1.1333206e-38
0.0044403165 0.049731545 1.013 1.3543313e-38
0.0059204223 0.05417186 1.013 1.8422872e-38
0.0079925703 0.057724115 1.013 2.2951339e-38
0.010656759 0.057724115 1.013 1.8518741e-38
0.014209013 0.058612179 1.013 1.0572633e-38
0.020425456 0.059500244 1.013 1.1884251e-38
0.01864933 0.061276369 1.013 1.1608743e-38
0.020425456 0.061276369 1.013 1.1608743e-38
0.00089069334 0.047206748 1.016 9.0265019e-39
0.00089069334 0.048988134 1.016 9.3052524e-39
0.00267208 0.053441599 1.016 1.3355773e-38
0.00267471 0.057953801 1.0170001 1.3809557e-38
0.0051686512 0.058286585 1.0166 1.8046908e-38
0.0097976271 0.05967645 1.016 1.9808752e-38
0.0133604 0.05967645 1.016 7.9050539e-39
0.01071988 0.061639313 1.0190001 1.740879e-38
0.014272134 0.0624419 1.0175 1.2321829e-38
0.017552037 0.06276992 1.0180001 1.4077514e-38
0.020546436 0.063425958 1.0190001 1.123708e-38
0.0026878598 0.062716722 1.022 1.3167423e-38
0.0053757196 0.062716722 1.022 1.8048001e-38
0.00940751 0.063164696 1.022 2.0087143e-38
0.0026878598 0.065404586 1.022 1.3908239e-38
0.0044797664 0.065404586 1.022 1.3356469e-38
0.010751439 0.065404586 1.022 1.5841102e-38
0.014335252 0.065404586 1.022 1.2416177e-38
0.017023113 0.065404586 1.022 1.425759e-38
-0.00089858327 0.063799419 1.025 9.4932604e-39
0.00089858327 0.062900834 1.025 1.5380118e-38
-0.00089858327 0.066495165 1.025 1.0140763e-38
0.0014976388 0.066794693 1.025 1.2893356e-38
0.0056910273 0.066794693 1.025 2.0177873e-38
0.0094351247 0.066944458 1.025 1.9162675e-38
0.014377332 0.06739375 1.025 1.3245236e-38
0.018289605 0.066860445 1.026 1.2155782e-38
0.020727905 0.066689782 1.028 1.1054832e-38
-0.00089989824 0.07019338 1.0265 1.1977841e-38
0.0017978239 0.070141442 1.02575 1.362698e-38
0.0053961026 0.070141442 1.02575 1.8701703e-38
0.0098988814 0.07019338 1.0265 1.7038182e-38
0.014419412 0.070294634 1.028 1.453519e-38
0.018024266 0.070294634 1.028 1.1785553e-38
0.020727905 0.070294634 1.028 1.0502736e-38
-0.00090121327 0.072998278 1.028 1.1423235e-38
0.0018024266 0.073899493 1.028 1.3813154e-38
0.0054072798 0.072998278 1.028 1.9533988e-38
0.0099133467 0.072998278 1.0280001 1.6021533e-38
0.014419412 0.073899493 1.028 1.323656e-38
0.018024266 0.073899493 1.028 1.1784826e-38
0.020727905 0.073899493 1.028 1.0136105e-38
-0.00090384332 0.075018995 1.031 1.1977506e-38
0.0054230597 0.075018995 1.031 2.0086441e-38
0.0099422764 0.075018995 1.031 1.5835693e-38
0.0018076866 0.076826684 1.031 1.538624e-38
0.014461493 0.076826684 1.031 1.2868495e-38
0.018076867 0.076826684 1.031 1.1326369e-38
0.0018129466 0.078863174 1.034 1.7137215e-38
0.00543884 0.077050239 1.034 1.9628341e-38
0.009971207 0.077050239 1.0340002 1.5374726e-38
0.014503574 0.078863174 1.034 1.3975587e-38
0.018129466 0.078863174 1.034 1.1973186e-38
0.0054598795 0.079168253 1.038 2.0362306e-38
0.01000978 0.079168253 1.038 1.5279992e-38
0.0063698594 0.080988213 1.038 2.257754e-38
0.010373771 0.081716195 1.038 1.2234284e-38
0.014559679 0.081898198 1.038 1.4529824e-38
0.017896274 0.081594869 1.038 1.2340173e-38
0.015469659 0.084628135 1.038 1.1781589e-38
0.01728962 0.084628135 1.038 1.2887578e-38
0.0027378299 0.081222288 1.041 1.7135424e-38
0.0051714568 0.08243911 1.0410001 1.9532569e-38
0.0082134902 0.083047509 1.041 2.2847212e-38
0.010403754 0.085602812 1.041 1.0301067e-38
0.014297556 0.086089544 1.0410001 1.4529813e-38
0.0027457199 0.083286844 1.044 1.7320136e-38
0.00275361 0.08627978 1.0470001 1.685918e-38
0.0054947273 0.086095013 1.0447501 2.1102382e-38
0.0082371598 0.086947799 1.044 2.0358696e-38
0.00275361 0.089033388 1.0470001 1.704106e-38
0.0058131767 0.089645311 1.0470002 2.0644652e-38
0.010082106 0.089823715 1.0455 1.2891205e-38
0.01464384 0.08877828 1.044 1.5180238e-38
0.01101444 0.09270487 1.0470001 1.7051175e-38
0.0027614997 0.091129497 1.05 1.8434091e-38
0.0046024998 0.091129497 1.05 1.9542997e-38
0.014727999 0.091129497 1.05 1.6861334e-38
0.0055229994 0.09297049 1.05 1.9637686e-38
0.0096652489 0.094351247 1.05 1.9820271e-38
0.013807499 0.09297049 1.05 1.6219616e-38
0.0027720199 0.093324669 1.054 1.9452928e-38
0.0055440399 0.095172688 1.054 1.9914612e-38
0.014784107 0.094248682 1.054 1.4840262e-38
0.0092400666 0.097020701 1.054 2.0467442e-38
0.012012087 0.097020701 1.054 2.0740439e-38
0.0018545883 0.095579013 1.0585001 2.0650026e-38
0.015752822 0.095443577 1.057 1.2995618e-38
0.0055631073 0.098293841 1.05775 2.0559264e-38
0.0092663672 0.099150121 1.057 2.1019883e-38
0.013920589 0.098362871 1.0585001 1.4654758e-38
0.00093189662 0.09412156 1.063 2.0374884e-38
0.00095907325 0.093030103 1.094 1.4367028e-38
