# .PCD v0.7 - Point Cloud Data file format
VERSION 0.7
FIELDS x y z rgb
SIZE 4 4 4 4
TYPE F F F F
COUNT 1 1 1 1
WIDTH 155
HEIGHT 1
VIEWPOINT 0 0 0 1 0 0 0
POINTS 155
DATA ascii
0.022302398 0.091997392 1.0599999 2.3509886e-38
0.026019463 0.091068119 1.0599999 2.3509886e-38
0.028807262 0.091068119 1.0599999 2.3509886e-38
0.034382861 0.090138853 1.0599999 2.3509886e-38
0.03809993 0.090138853 1.0599999 2.3509886e-38
0.042705059 0.090052947 1.059 2.3509886e-38
0.04637567 0.089967042 1.0580001 2.3509886e-38
0.05008572 0.089967042 1.0580001 2.3509886e-38
0.05379577 0.089967042 1.0580001 2.3509886e-38
0.057614531 0.091068119 1.0599999 2.3509886e-38
0.061331593 0.091068119 1.0599999 2.3509886e-38
0.066216014 0.09063267 1.0595715 2.3509886e-38
0.070491016 0.089967035 1.0580001 2.3509886e-38
0.074071318 0.090406418 1.0588001 2.3509886e-38
0.078003824 0.091003031 1.05925 2.3509886e-38
0.013938999 0.094785199 1.0599999 1.9151137e-38
0.018585332 0.094785191 1.0599999 2.0265416e-38
0.022302398 0.094785191 1.0599999 1.7126802e-38
0.026019463 0.094785191 1.0599999 1.8327116e-38
0.02973653 0.094785191 1.0599999 2.0821808e-38
0.033453599 0.094785191 1.0599999 1.8422568e-38
0.03809993 0.094785199 1.0599999 1.9712606e-38
0.042715359 0.094718784 1.05925 1.9992017e-38
0.046397582 0.094652377 1.0585001 2.1011984e-38
0.050109386 0.094652385 1.0585001 2.1290354e-38
0.053744927 0.09451694 1.057 2.1382915e-38
0.057534318 0.094651073 1.0585001 2.1843166e-38
0.061817624 0.094862692 1.0588001 2.1565863e-38
0.066235498 0.09443786 1.0582001 2.3509518e-38
0.070424385 0.09451694 1.057 2.3509886e-38
0.074130937 0.09451694 1.057 2.3418047e-38
0.077949256 0.094651066 1.0585001 2.2773038e-38
0.08084619 0.094785191 1.0599999 2.3509886e-38
0.026019463 0.09757299 1.0599999 1.18529e-38
0.02973653 0.09757299 1.0599999 1.6838682e-38
0.033763357 0.098192506 1.0599999 9.5552272e-39
0.03809993 0.098502263 1.0599999 1.0200605e-38
0.042746261 0.098502256 1.0599999 9.8263981e-39
0.046463329 0.098502256 1.0599999 1.2876442e-38
0.050180394 0.098502256 1.0599999 1.260416e-38
0.053821191 0.098364189 1.0585001 1.3339927e-38
0.057531685 0.098362863 1.0585001 1.379802e-38
0.062084656 0.098223478 1.0570002 1.3428873e-38
0.066717841 0.098223485 1.057 1.7223261e-38
0.070424385 0.098223478 1.057 1.7789441e-38
0.074184194 0.098293841 1.0577501 1.5493187e-38
0.078003824 0.098433219 1.05925 1.6137828e-38
0.08084619 0.098502256 1.0599999 1.9083041e-38
0.026093103 0.086666383 1.063 2.3501978e-38
0.029820692 0.086666383 1.063 2.34955e-38
0.033548277 0.086666383 1.063 2.3493702e-38
0.036343966 0.086666383 1.063 2.3496945e-38
0.050322413 0.086666383 1.063 2.3479661e-38
0.054050002 0.086666383 1.063 2.3472482e-38
0.057777587 0.086666383 1.063 2.3458082e-38
0.06150518 0.086666383 1.063 2.3461668e-38
0.070824139 0.086666383 1.063 2.3509886e-38
0.073619828 0.086666383 1.063 2.3509886e-38
-0.025161207 0.089462072 1.063 2.1866534e-38
-0.022365518 0.089462072 1.063 2.278528e-38
-0.018637933 0.089462072 1.063 2.3151935e-38
-0.014351207 0.089648448 1.063 2.3335247e-38
-0.010250863 0.090393975 1.063 2.341806e-38
-0.0055913795 0.090393975 1.063 2.2620701e-38
-0.0027956897 0.090393975 1.063 2.3509886e-38
0.0027956897 0.090393975 1.063 2.3509886e-38
0.0055913795 0.090393975 1.063 2.3509886e-38
0.0093189664 0.090393975 1.063 2.3509886e-38
0.01397845 0.090393983 1.063 2.3509886e-38
0.018637933 0.090393975 1.063 2.3509886e-38
0.022676151 0.089772701 1.063 2.3509886e-38
0.026093103 0.088530175 1.063 2.3509886e-38
0.030131325 0.089151442 1.063 2.3509886e-38
0.032616381 0.089462072 1.063 2.3509886e-38
0.057777587 0.088530175 1.063 2.3509886e-38
0.06150518 0.088530175 1.063 2.3509886e-38
0.065232761 0.088530175 1.063 2.3509886e-38
0.075483628 0.088530175 1.063 2.3509886e-38
0.078279316 0.088530175 1.063 2.3509886e-38
0.081075005 0.090393975 1.063 2.3509886e-38
-0.01397845 0.09412156 1.0629998 1.68059e-38
-0.0093189664 0.094121568 1.063 1.6254893e-38
-0.0055913795 0.094121568 1.063 1.6542272e-38
-0.0018637934 0.094121568 1.063 2.1744377e-38
0.0018637932 0.094121568 1.063 2.212263e-38
0.0055913795 0.094121568 1.063 2.0280902e-38
0.0093189664 0.09412156 1.063 1.7966995e-38
0.01397845 0.092257768 1.063 2.3509886e-38
0.018637933 0.092257768 1.063 2.3509886e-38
0.030752588 0.092257768 1.063 2.3509886e-38
0.032616381 0.092257768 1.063 2.3509886e-38
0.081075005 0.092257768 1.063 2.3509886e-38
-0.021514276 0.08699251 1.067 2.3456261e-38
-0.018708067 0.08699251 1.067 2.3450143e-38
-0.014031051 0.086992517 1.0670002 2.3449422e-38
-0.010289436 0.08699251 1.067 2.345048e-38
0.0056124199 0.08699251 1.067 2.3509886e-38
0.0096658347 0.086368911 1.0670002 2.1387592e-38
0.013563348 0.086524807 1.067 2.3210645e-38
0.019643471 0.08699251 1.067 2.3495511e-38
0.022761483 0.086368911 1.0670002 2.3492982e-38
0.026191292 0.085121699 1.067 2.3492263e-38
0.029932905 0.085121699 1.067 2.3490102e-38
0.032739118 0.085121699 1.067 2.348902e-38
0.038351536 0.08699251 1.067 2.349372e-38
0.042093154 0.086992517 1.0670002 2.3384947e-38
0.046770163 0.08699251 1.067 2.3474622e-38
0.050511777 0.085121699 1.067 2.347533e-38
0.054253392 0.085121699 1.067 2.2544418e-38
0.057995006 0.085121699 1.067 2.3181486e-38
0.061736617 0.085121699 1.067 2.2908474e-38
0.065166436 0.086368911 1.0670002 2.228866e-38
0.069219843 0.086057104 1.067 2.3509886e-38
0.073896863 0.086057104 1.067 2.3509886e-38
0.078573883 0.08699251 1.067 2.3509886e-38
0.081380092 0.08699251 1.067 2.3509886e-38
-0.012160243 0.088863321 1.067 2.3443624e-38
-0.0090422323 0.089486919 1.0670002 2.3434259e-38
-0.0056124199 0.088863321 1.067 2.3467772e-38
-0.0015590056 0.089486919 1.0670002 2.3509886e-38
0.0015590056 0.089486919 1.0670002 2.3509886e-38
0.0056124199 0.088863321 1.067 2.3509886e-38
0.0093540326 0.088863321 1.067 2.3509886e-38
0.014031051 0.088863328 1.0670002 2.3509886e-38
0.018708067 0.088863321 1.067 2.3509886e-38
0.021514276 0.088863321 1.067 2.3509886e-38
0.08231549 0.089798719 1.067 2.3509886e-38
0.023450835 0.083484963 1.0700001 1.9969012e-38
0.0253269 0.083484963 1.0700001 2.1536337e-38
0.054405935 0.083484963 1.0700001 1.6099348e-38
-0.017822634 0.085361034 1.0700001 2.3443999e-38
-0.015946567 0.085361034 1.0700001 2.3438597e-38
-0.0084422994 0.087237097 1.0700001 2.3444718e-38
-0.004690167 0.087237097 1.0700001 2.3493698e-38
-0.0018760667 0.087237097 1.0700001 2.3509886e-38
0.0018760667 0.087237097 1.0700001 2.3509886e-38
0.0056282002 0.085361034 1.0700001 2.3509886e-38
0.0084422994 0.085361034 1.0700001 2.3509886e-38
0.014070501 0.085361034 1.0700001 2.3008285e-38
0.017822634 0.087237097 1.0700001 2.3494767e-38
0.021574765 0.085361034 1.0700001 2.3306432e-38
0.034707233 0.085361034 1.0700001 2.3492622e-38
0.036583301 0.085361034 1.0700001 2.3498024e-38
0.045963638 0.085361034 1.0700001 2.3471365e-38
0.083484963 0.089113161 1.0700001 2.3509886e-38
0.027279234 0.08371903 1.073 2.1995536e-38
0.030101225 0.08371903 1.073 1.987252e-38
0.032923214 0.08371903 1.073 2.0422815e-38
0.047033161 0.08371903 1.073 1.7476483e-38
0.050795816 0.08371903 1.073 1.6930519e-38
0.038567193 0.085600361 1.073 2.3494771e-38
0.042329844 0.085600361 1.073 2.3468474e-38
0.046264332 0.082142793 1.077 1.2698878e-38
0.050041012 0.082142793 1.077 1.2517e-38
0.053817689 0.082142793 1.077 1.1965985e-38
