# .PCD v0.7 - Point Cloud Data file format
VERSION 0.7
FIELDS x y z rgb
SIZE 4 4 4 4
TYPE F F F F
COUNT 1 1 1 1
WIDTH 155
HEIGHT 1
VIEWPOINT 0 0 0 1 0 0 0
POINTS 155
DATA ascii
0.06552206 0.13901302 1.01 2.3509886e-38
0.069949232 0.13812761 1.0100001 2.3509886e-38
0.073490962 0.13901302 1.01 2.3509886e-38
0.06552206 0.14166933 1.01 2.3509886e-38
0.069949232 0.14166933 1.0100001 2.3417689e-38
0.073490962 0.14166933 1.01 2.3509886e-38
0.069949232 0.14432564 1.01 5.9895182e-39
-0.026641902 0.13498563 1.013 2.1673177e-38
-0.022201583 0.13498563 1.013 2.1765013e-38
0.0062164436 0.13498563 1.013 2.3450478e-38
0.010656759 0.13498563 1.013 2.3489368e-38
0.014209013 0.13498563 1.013 2.3509886e-38
0.017761268 0.13587368 1.013 2.0903581e-38
0.022201583 0.13587368 1.013 2.2455819e-38
0.0266419 0.13587368 1.013 2.3462265e-38
0.030490175 0.13528165 1.013 2.3498396e-38
0.033450387 0.13528165 1.013 2.3478616e-38
0.036410596 0.13587368 1.013 2.3456991e-38
0.042627037 0.13587368 1.013 2.3475363e-38
0.046179295 0.13587368 1.013 2.3475002e-38
0.049731545 0.13587368 1.013 2.3497682e-38
0.052395735 0.13587368 1.013 2.3503428e-38
0.063052498 0.13587368 1.013 2.3509886e-38
0.065716684 0.13587368 1.013 2.3509886e-38
0.070157006 0.13587368 1.013 2.3509886e-38
0.074597321 0.13587368 1.013 2.3509886e-38
-0.026345879 0.13824186 1.013 1.7724251e-38
-0.022201583 0.13853787 1.013 1.7356909e-38
0.0017761267 0.13853787 1.013 1.4744783e-38
0.0062164436 0.13853787 1.013 1.9101783e-38
0.010656759 0.13853787 1.013 2.1407464e-38
0.014209013 0.13853787 1.013 1.9755474e-38
0.017761268 0.13853787 1.013 2.2616392e-38
0.022201583 0.13853787 1.013 2.2247653e-38
0.0266419 0.13853787 1.013 2.3459865e-38
0.030194152 0.13853787 1.013 2.3274393e-38
0.033746406 0.13853787 1.013 2.1152488e-38
0.038186725 0.13853787 1.013 2.2690235e-38
0.042627037 0.13853787 1.013 2.2885815e-38
0.046179295 0.13853787 1.013 2.3064805e-38
0.049731545 0.13853787 1.013 2.2321844e-38
0.05417186 0.13853788 1.013 2.2693132e-38
0.058612179 0.13853787 1.013 2.1989407e-38
0.062164433 0.13853787 1.013 2.3509886e-38
0.065716684 0.1376498 1.013 2.3509886e-38
0.074893348 0.13824186 1.013 2.3509886e-38
-0.025753837 0.14120206 1.013 1.1112095e-38
-0.022201583 0.14209014 1.013 7.0713332e-39
0.0017761267 0.14120206 1.013 1.5932169e-38
0.0053283796 0.14120206 1.013 1.7202106e-38
0.015097077 0.14120206 1.013 1.8120436e-38
0.018057289 0.14179412 1.013 1.748405e-38
0.022201583 0.14209014 1.013 1.7027381e-38
0.0266419 0.14209013 1.013 1.7299652e-38
0.030194154 0.14209013 1.013 1.7664125e-38
0.033746406 0.14209013 1.013 1.8122595e-38
0.038186725 0.14209013 1.013 1.9043837e-38
0.042627037 0.14209013 1.013 1.9504071e-38
0.046179295 0.14209013 1.013 1.9683773e-38
0.049731545 0.14209013 1.013 1.8568791e-38
0.05417186 0.14209013 1.013 1.9115492e-38
0.058612179 0.14209013 1.013 2.0969432e-38
0.062164433 0.14209013 1.013 2.3322902e-38
0.075485386 0.14209013 1.013 2.3509886e-38
0.049731545 0.14475432 1.013 1.463065e-38
0.054527085 0.14546476 1.013 1.2421187e-38
0.062164433 0.14475432 1.013 1.6209142e-38
0.065716684 0.14564238 1.013 1.1609043e-38
0.074597321 0.14564238 1.013 1.4644373e-38
-0.033052966 0.13131854 1.0190001 1.8215475e-38
-0.030372994 0.13131854 1.0190001 2.3454012e-38
-0.025441963 0.13077521 1.01825 2.3448708e-38
-0.0214082 0.13023189 1.0175 2.3441499e-38
-0.018164242 0.13072298 1.0190001 2.3443643e-38
-0.014272133 0.13023189 1.0175 2.3338473e-38
-0.0098265568 0.13131854 1.0190001 2.3483269e-38
0.0017813867 0.13093191 1.016 1.9914256e-38
0.0053441599 0.13093191 1.016 2.3495536e-38
0.010242973 0.13048658 1.016 2.3509886e-38
0.014251092 0.13004123 1.016 2.3509886e-38
0.017866466 0.13131854 1.0190001 2.3509886e-38
0.021439761 0.1304252 1.0190001 2.3505927e-38
0.025549049 0.13060389 1.0190001 2.3509886e-38
0.030670768 0.130723 1.0190001 2.3416249e-38
0.033052966 0.13042521 1.0190001 2.3507733e-38
0.059852663 0.13131854 1.0190001 2.350988e-38
0.062532634 0.13131854 1.0190001 2.3509886e-38
0.066105925 0.13131854 1.0190001 2.3509886e-38
0.075039163 0.13131854 1.0190001 2.3509886e-38
-0.033052966 0.1339985 1.0190001 2.0036396e-38
-0.030283572 0.13360399 1.016 2.223717e-38
-0.025830109 0.1327133 1.016 2.3439723e-38
-0.02137664 0.1327133 1.016 2.3448698e-38
-0.017813867 0.13360399 1.016 2.3343165e-38
-0.014251093 0.13360399 1.016 2.3430313e-38
-0.0098015722 0.1336693 1.0165 2.3484675e-38
-0.0053520501 0.13379994 1.0175 2.3509886e-38
-0.0017840167 0.13379993 1.0175 2.3509886e-38
0.0017813867 0.13360399 1.016 2.1204995e-38
0.0053441599 0.1327133 1.016 2.3509886e-38
0.0097976271 0.1327133 1.016 2.3509886e-38
0.014251093 0.1327133 1.016 2.3509886e-38
0.017827675 0.13370197 1.0167501 2.2399218e-38
0.021391762 0.13370195 1.0167501 2.3504861e-38
0.025830105 0.13360399 1.016 2.1838484e-38
0.029986676 0.1333071 1.016 2.3509886e-38
0.034177434 0.13343772 1.0170001 2.175457e-38
0.03746435 0.13379993 1.0175 2.3195906e-38
0.041882314 0.13366932 1.0165 2.3472517e-38
0.046316054 0.13360399 1.016 2.3478642e-38
0.049878828 0.13360399 1.016 2.3492658e-38
0.053791977 0.13403152 1.0170001 2.3504146e-38
0.057980537 0.13379994 1.0175002 2.3228265e-38
0.0623939 0.13370197 1.0167501 2.3509886e-38
0.065911308 0.13360399 1.016 2.3509886e-38
0.069474079 0.13360399 1.016 2.3509886e-38
0.073927552 0.13360399 1.016 2.3509886e-38
0.077490322 0.13360399 1.016 2.2034756e-38
-0.030283576 0.13805747 1.016 1.5520559e-38
-0.027611492 0.13983886 1.016 1.6438554e-38
-0.017813867 0.13805747 1.016 1.855077e-38
-0.014251093 0.13805747 1.016 1.7999757e-38
-0.0097976262 0.13805746 1.0159999 2.1171081e-38
-0.0053441599 0.13805747 1.016 2.3509886e-38
-0.0017813867 0.13805747 1.016 2.3509886e-38
0.0017813867 0.13627607 1.016 1.5212279e-38
0.03829981 0.13627607 1.016 2.3459512e-38
0.040081199 0.13627607 1.016 2.3462044e-38
0.054332294 0.13627607 1.016 2.3504505e-38
0.057895064 0.13627607 1.016 2.3502676e-38
0.061457843 0.13627607 1.016 2.3509886e-38
-0.025982646 0.12931591 1.0220001 2.2800107e-38
-0.022398831 0.12812132 1.022 2.1136258e-38
-0.017023113 0.12991321 1.022 2.3428878e-38
-0.0053757196 0.13170514 1.022 2.3509886e-38
-0.0017919065 0.13170514 1.022 2.3509886e-38
0.0017919065 0.12991321 1.022 1.8254735e-38
0.018815018 0.12991321 1.022 2.3313971e-38
0.027774552 0.12991321 1.022 2.3508451e-38
0.029566457 0.12991321 1.022 2.2306305e-38
0.034942176 0.13170514 1.022 2.3509886e-38
0.037630036 0.13170514 1.022 2.3497642e-38
0.041213848 0.13170514 1.022 2.3500917e-38
0.072572216 0.13170514 1.022 2.3509886e-38
0.05286124 0.13349704 1.022 2.349302e-38
-0.030551832 0.13029458 1.025 2.1697691e-38
-0.026998263 0.12868544 1.0265 2.1787726e-38
-0.020667415 0.12849741 1.025 2.0588798e-38
-0.00089858327 0.13029458 1.025 2.3509886e-38
0.017073084 0.13029458 1.025 2.3509886e-38
0.035044748 0.13029458 1.025 2.174883e-38
0.045827746 0.13209175 1.025 2.3504502e-38
0.050320663 0.13209175 1.025 2.3500194e-38
0.053914994 0.13209175 1.025 2.3504863e-38
0.057509329 0.13209175 1.025 2.3509876e-38
