# .PCD v0.7 - Point Cloud Data file format
VERSION 0.7
FIELDS x y z rgb
SIZE 4 4 4 4
TYPE F F F F
COUNT 1 1 1 1
WIDTH 341
HEIGHT 1
VIEWPOINT 0 0 0 1 0 0 0
POINTS 341
DATA ascii
-0.0058666533 0.17013294 0.95599991 1.2170078e-38
-0.0018438053 0.17046817 0.95599997 6.7416581e-39
0.0016761866 0.17180912 0.95599997 6.7323731e-39
0.0041904664 0.17180912 0.95599997 7.4670627e-39
0.015923772 0.17180912 0.95599997 1.3552681e-38
0.017599959 0.17180912 0.95599997 1.3929379e-38
-0.0047491952 0.17404406 0.95600003 9.041891e-39
-0.0016761866 0.17432341 0.95599997 1.2543158e-38
0.0016761866 0.17432341 0.95599997 1.0148629e-38
0.0054476061 0.17474245 0.95599997 1.0241538e-38
0.010895212 0.17432341 0.95599997 1.3371502e-38
0.014247585 0.17432341 0.95599997 9.4135952e-39
0.017599959 0.17432341 0.95599997 2.9656828e-39
0.0016761866 0.17767578 0.95599997 1.0611701e-38
0.0058666533 0.17767578 0.95599997 9.0447636e-39
-0.0058850627 0.16394106 0.95899999 2.2863761e-38
-0.0016814466 0.16394104 0.95899999 9.4027449e-39
-0.0092479559 0.16646321 0.95899999 1.557586e-38
-0.0058850627 0.16646321 0.95900005 2.0464137e-38
-0.0016814466 0.16646321 0.95899999 5.905097e-39
0.0016814466 0.16730393 0.95899999 4.2499813e-39
-0.0092479559 0.16982611 0.95899999 8.5693997e-39
-0.00084072328 0.16898538 0.95899999 8.4445609e-40
0.0016814466 0.16982611 0.95899999 4.162452e-39
0.0047640987 0.17010635 0.95899999 7.9284514e-39
0.010929403 0.17066683 0.95899999 7.6515282e-39
0.014292296 0.17066684 0.95899999 1.1247749e-38
0.018495914 0.17066683 0.95899999 1.3926072e-38
0.0067257863 0.173189 0.95899999 8.945036e-39
0.0096683176 0.17360936 0.95899999 1.0236115e-38
0.013451573 0.17234828 0.95899999 1.1893884e-38
0.019336637 0.17402974 0.95899999 4.8059983e-39
0.021858808 0.17402974 0.95900005 3.9758761e-39
-0.0014012055 0.17795311 0.95899999 1.0054213e-38
0.010088679 0.17739262 0.95899999 4.9885763e-39
0.01261085 0.17739262 0.95899999 2.8916635e-40
0.0016814466 0.18075551 0.95899999 3.5127077e-39
0.0050443397 0.18075551 0.95899999 1.040324e-41
0.027043413 0.15465452 0.96399999 0
-0.004225533 0.15972516 0.96399999 3.3288462e-39
-0.0025353199 0.15972516 0.96399999 3.8315003e-40
0.027033767 0.15797971 0.96366662 6.3600187e-39
0.029558277 0.15792447 0.96333331 1.1154214e-38
-0.0098531488 0.16242938 0.96333331 2.1938203e-38
-0.0059096101 0.16209127 0.963 2.2679409e-38
-0.0016884599 0.16209127 0.96299994 1.5209656e-38
0.0016902132 0.16226047 0.96399999 6.4551963e-39
0.004225533 0.16310558 0.96399999 6.5325732e-40
0.027014483 0.16209215 0.963 7.1012061e-39
0.030360721 0.16192383 0.96200001 8.9454031e-39
-0.012676599 0.16564089 0.96399999 4.5092664e-39
-0.010541917 0.16571891 0.96200001 1.4929494e-38
0.0016867067 0.16529724 0.96200001 2.5872103e-39
0.0048981118 0.16600911 0.96320003 7.8376795e-39
0.016902132 0.16648601 0.96399999 8.1128707e-39
0.021972772 0.16648601 0.96399999 7.5592653e-39
0.02641497 0.16585504 0.96314287 8.5766585e-39
0.030205024 0.16587235 0.96239996 1.2356658e-38
0.032959159 0.16648601 0.96399999 1.1988599e-38
-0.010963594 0.16951402 0.96200001 4.9763962e-39
0.0069211074 0.16931623 0.96279997 8.0202939e-39
0.0099684019 0.16945721 0.96359998 7.7440714e-39
0.013514255 0.16893323 0.96349996 8.2968766e-39
0.017728828 0.16884512 0.963 7.9280885e-39
0.021942381 0.16963032 0.96266669 1.1897074e-38
0.025973001 0.16998872 0.9634999 1.0791475e-38
0.030423837 0.16902132 0.96399999 1.0144354e-38
0.032959159 0.16817622 0.96399999 1.0419145e-38
0.025806611 0.17356211 0.96200001 8.2997367e-39
-0.00253006 0.17963426 0.96200001 5.3526462e-39
0.024584362 0.1551358 0.96700001 9.4060674e-39
-0.0093251029 0.15852675 0.96700001 1.4842071e-38
-0.0059341565 0.15852675 0.96700001 9.2202566e-39
-0.0016954732 0.15852675 0.96700001 3.8851827e-39
0.0016954732 0.15852675 0.96700001 7.3749301e-39
0.0059341565 0.15852675 0.96700001 8.479847e-39
0.011020577 0.15852675 0.96700001 4.6051544e-39
0.012716049 0.15852675 0.96700001 3.6831967e-39
0.024584362 0.15767902 0.96700001 8.8492502e-39
-0.012716049 0.16361317 0.96700001 9.0242724e-39
-0.01017284 0.16106996 0.96700001 2.0190804e-38
-0.0067818929 0.16022222 0.96700001 1.6325529e-38
-0.00084773666 0.16022222 0.96700001 5.1776815e-39
0.0016954732 0.16022222 0.96700001 8.0185619e-39
0.0061460906 0.16170578 0.96700001 4.9789185e-39
0.01017284 0.1619177 0.96700001 6.08382e-39
0.013394238 0.16225679 0.96700001 7.1898158e-39
0.017463375 0.16293499 0.96700001 8.389068e-39
0.022041153 0.16361317 0.96700001 8.0202939e-39
0.024584364 0.1619177 0.96700001 8.0191869e-39
0.0076296297 0.16615638 0.96700001 7.8373264e-39
0.01017284 0.16615638 0.96700001 8.3897799e-39
0.013563786 0.16615638 0.96700001 9.5879854e-39
0.018226339 0.16573252 0.96700001 7.9284696e-39
0.022041153 0.16530864 0.96700001 7.6515184e-39
0.031366255 0.17039506 0.96700001 9.9574559e-39
0.029670782 0.17209053 0.96700001 9.589049e-39
0.022959899 0.1505149 0.97000003 1.4573374e-38
0.024660634 0.1505149 0.97000003 8.0289736e-39
0.011054766 0.1556171 0.97000003 8.6645759e-39
0.012755499 0.1556171 0.97000003 8.9408027e-39
0.017007332 0.1556171 0.97000003 1.0969534e-38
0.022959899 0.15391637 0.97000003 1.3833624e-38
0.025511 0.15306601 0.97000003 6.2707686e-39
-0.012755499 0.15901856 0.97000003 1.0790674e-38
-0.010204399 0.1581682 0.97000003 8.8528684e-39
-0.0059525669 0.15731785 0.97000003 6.8228185e-39
-0.0017007333 0.15731783 0.97000003 8.1121392e-39
0.0017007333 0.15731783 0.97000003 8.1121392e-39
0.0059525669 0.15731785 0.97000003 8.2961718e-39
0.0099209435 0.15788475 0.97000003 7.9259599e-39
0.013889322 0.15788475 0.97000003 7.9252088e-39
0.017517554 0.15833826 0.97000009 6.6373567e-39
0.022109533 0.1581682 0.97000003 4.05517e-39
-0.012755499 0.16156965 0.97000003 8.569041e-39
-0.011054766 0.16071929 0.97000003 1.9262263e-38
0.014456232 0.16071929 0.97000003 4.4206609e-39
0.018282883 0.16114447 0.97000003 7.9237571e-39
0.022109535 0.16156965 0.97000003 7.926292e-39
0.029762832 0.17432517 0.97000003 1.0231544e-38
-0.016240248 0.14787175 0.97500002 8.2025342e-39
-0.01453075 0.14787175 0.97500002 8.3872842e-39
0.019618923 0.14756842 0.97299999 5.353047e-39
0.021324914 0.14756842 0.97299999 5.8126253e-39
-0.016240248 0.15043598 0.97500002 5.9974047e-39
-0.013676 0.15043598 0.97500002 7.6540436e-39
-0.010257 0.150436 0.97500002 8.4805588e-39
0.01835696 0.15070906 0.97399998 5.1715649e-39
0.021893581 0.14984308 0.97299999 1.1159282e-38
-0.016240248 0.153855 0.97500002 9.9578203e-39
-0.013675999 0.153855 0.97500002 7.7447776e-39
-0.010257 0.153855 0.97500002 8.2050551e-39
-0.0059832502 0.15385501 0.97500002 8.2965179e-39
-0.0019944168 0.15413992 0.97500008 8.2046894e-39
0.0017095 0.15470974 0.97500002 8.2046908e-39
0.0063195392 0.153899 0.97420007 8.3883576e-39
0.010541916 0.15413992 0.97500008 8.1124896e-39
0.013675999 0.153855 0.97500002 7.7440756e-39
0.01791293 0.15353939 0.97299999 8.1164805e-39
0.021324914 0.15353939 0.97299999 1.5678236e-38
-0.01624025 0.15812875 0.97500008 1.1708383e-38
-0.01384169 0.15772198 0.97460002 1.1066274e-38
-0.010520292 0.15666707 0.97299999 5.9980969e-39
-0.0059709763 0.1560984 0.97299999 7.5596857e-39
-0.0017059932 0.1560984 0.97299999 8.2046908e-39
0.0017059932 0.1560984 0.97299999 8.2968878e-39
0.0059709768 0.1560984 0.97299999 8.3883632e-39
0.0093829632 0.1560984 0.97299999 8.4798329e-39
0.014500943 0.1560984 0.97299999 1.0415232e-38
0.019618923 0.1569514 0.97299999 1.8590887e-40
0.021324914 0.1560984 0.97299999 2.3077676e-39
0.031560875 0.17315832 0.97299999 9.772371e-39
-0.037724718 0.12774962 0.97799999 8.3908743e-39
-0.035152577 0.12774962 0.97799999 6.8239157e-39
-0.037724718 0.12946437 0.97799999 1.1799955e-38
-0.021434499 0.14575458 0.97799999 9.1276378e-39
-0.018004978 0.14592604 0.97799999 8.1131776e-39
-0.014003873 0.14604038 0.97800004 8.2036118e-39
-0.021434499 0.15004151 0.97800004 1.3922143e-38
-0.018862359 0.15004151 0.97800004 1.0053959e-38
-0.0128607 0.14832674 0.97799999 8.3872842e-39
-0.010288559 0.14832674 0.97799999 8.7560639e-39
-0.0060016601 0.15089887 0.97800004 8.4809133e-39
-0.0020005533 0.15118468 0.97800004 8.3894366e-39
0.00171476 0.15175626 0.97799999 8.3890835e-39
0.0060016597 0.15175626 0.97800004 8.7553394e-39
0.011145939 0.15175626 0.97799999 8.2950829e-39
0.01371808 0.15175626 0.97799999 8.572753e-39
0.017147599 0.14918411 0.97799999 1.2943191e-39
-0.01800498 0.15432838 0.97799999 1.3457598e-38
-0.00085737993 0.15347101 0.97799999 8.2968808e-39
0.00171476 0.15347101 0.97799999 8.2046908e-39
0.0042868997 0.15347101 0.97799999 8.5720286e-39
0.0094311787 0.15347101 0.97799999 8.2954361e-39
-0.01800498 0.15690053 0.97799999 1.2260482e-38
-0.03709352 0.13198392 0.98400003 1.4930653e-38
-0.035368241 0.13112128 0.98400003 1.4655864e-38
-0.021500248 0.14362165 0.98100001 7.5618339e-39
-0.018060211 0.14362165 0.98100007 8.1132112e-39
-0.013760159 0.14362165 0.98100001 7.4682174e-39
-0.01118013 0.14362165 0.98100001 7.5611305e-39
-0.024940288 0.14706171 0.98100001 1.5028126e-38
-0.023220269 0.1462017 0.98100001 1.263107e-38
-0.018060209 0.14534168 0.98100001 8.0217008e-39
-0.012900149 0.14534168 0.98100001 8.2965305e-39
-0.010153904 0.14577353 0.98159999 8.2043321e-39
-0.0060244533 0.14635074 0.98200005 8.6653144e-39
-0.0020128267 0.14693634 0.98400009 8.8482567e-39
0.00172528 0.14751144 0.98400003 8.8482567e-39
0.0051758401 0.14751144 0.98400003 8.3890835e-39
-0.024978423 0.14987186 0.98250002 9.7708632e-39
-0.023220269 0.14964172 0.98100001 1.1988917e-38
-0.0060200705 0.14878172 0.98100007 8.9400992e-39
-0.00143335 0.14935505 0.98100007 8.3890821e-39
0.0017226499 0.14986923 0.98250002 8.2972409e-39
0.0060292752 0.14986923 0.98250002 8.5713139e-39
0.0103359 0.14986923 0.98250002 8.5716684e-39
0.013770021 0.14975548 0.98175001 8.2043251e-39
-0.022360258 0.15308177 0.98100001 8.3857638e-39
-0.01978023 0.15394178 0.98100001 1.216904e-38
0.0094601102 0.15222177 0.98100001 8.3869128e-39
-0.017305398 0.14276955 0.98699999 7.8380719e-39
-0.013555897 0.14219269 0.98699999 2.5836356e-39
-0.010383239 0.14190426 0.98699999 3.3201049e-39
-0.0064895242 0.14233691 0.98699999 8.574181e-39
-0.0025958098 0.14276955 0.98699999 8.6653102e-39
-0.023362288 0.14450008 0.98699999 8.3919533e-39
-0.0060568894 0.14450008 0.98699999 8.6660221e-39
-0.0017305398 0.14536536 0.98699999 8.7560653e-39
0.0020189632 0.14565378 0.98699999 8.8482567e-39
0.0060568894 0.14594221 0.98699999 8.3890863e-39
0.010094817 0.14738432 0.98699999 8.5727572e-39
0.013844321 0.14623062 0.98699999 7.7447776e-39
0.0173054 0.14623062 0.98699999 1.0236169e-38
-0.02087168 0.13044798 0.99199998 4.5164999e-39
-0.0130448 0.13131765 0.99199998 8.4816322e-39
-0.010435839 0.13131765 0.99199998 8.6653074e-39
-0.021741334 0.1339266 0.99200004 4.7023387e-39
-0.016523411 0.13479626 0.99199998 7.0972278e-39
-0.013914453 0.1339266 0.99199998 8.7567631e-39
-0.010435839 0.1339266 0.99199998 8.3887051e-39
-0.0064354348 0.13410054 0.99200004 7.4642573e-39
0.0078268796 0.13479626 0.99199998 7.7494369e-39
0.010435839 0.13479626 0.99199998 1.4110501e-38
0.0130448 0.13479626 0.99199998 1.7429112e-38
-0.021741334 0.13740523 0.99200004 6.4544158e-39
-0.017199147 0.13775872 0.99080002 5.0700422e-39
-0.0138864 0.13799435 0.99000001 7.375656e-39
-0.010414801 0.13799435 0.99000001 6.7306327e-39
-0.0060752998 0.13799435 0.99000001 2.5796686e-39
-0.0019111332 0.13845336 0.99080002 5.990862e-39
0.0017366766 0.13893282 0.99049997 8.4809063e-39
0.0060823131 0.13842362 0.99100006 8.1139231e-39
0.010435839 0.13740522 0.99199998 8.9454172e-39
0.013624569 0.1376951 0.99199998 1.908507e-38
-0.025219945 0.14262313 0.99199998 8.2046151e-39
-0.022209348 0.1413198 0.99071431 7.8380565e-39
-0.018565346 0.1414095 0.9896 7.6529477e-39
-0.014739396 0.1413248 0.98900002 2.8602534e-39
-0.0052021397 0.1413248 0.98900002 8.2050551e-39
-0.0014450389 0.14190283 0.98900002 8.2968878e-39
0.0017340466 0.14219183 0.98900002 8.296885e-39
0.0063236472 0.14194198 0.98985726 8.5734691e-39
0.010419622 0.1415374 0.99049997 8.0209918e-39
0.0138864 0.14146595 0.99000001 1.1527583e-38
0.016473442 0.14219183 0.98900002 1.779823e-38
-0.025143676 0.14565992 0.98900002 1.2996976e-38
-0.00086702331 0.1447929 0.98900002 8.8479036e-39
0.00086702331 0.1447929 0.98900002 8.8482567e-39
0.0078032096 0.1447929 0.98900002 8.3887275e-39
0.010693288 0.14537093 0.98900002 8.4805574e-39
-0.023409629 0.15519717 0.98900002 2.6700453e-39
-0.033146769 0.12997022 0.995 8.0195442e-39
-0.029657632 0.13084251 0.995 9.3092755e-39
-0.026168499 0.13084251 0.995 5.8968671e-39
-0.022504909 0.12927239 0.995 6.7281272e-39
-0.017445665 0.13084249 0.995 8.9415286e-39
-0.013956534 0.12997021 0.995 8.6649501e-39
-0.010467399 0.12909794 0.995 8.4819895e-39
-0.007414408 0.13040635 0.995 8.4819923e-39
-0.033670139 0.13450609 0.995 9.3081293e-39
-0.029657632 0.13433163 0.995 2.2145084e-39
-0.026168499 0.13433163 0.995 1.3833212e-39
-0.017736427 0.13404088 0.99500006 7.2798464e-39
-0.0043614162 0.13345934 0.995 8.5720286e-39
-0.0020353277 0.1346224 0.99500006 8.2954501e-39
0.0061059827 0.13433163 0.995 8.2997226e-39
0.010467399 0.13345934 0.995 1.6878867e-38
-0.033146765 0.13782077 0.995 6.9135176e-39
-0.029657632 0.13782077 0.995 5.719998e-39
-0.026168499 0.13782077 0.995 4.5187097e-39
-0.0008722833 0.13694848 0.995 8.6598648e-39
0.0017445666 0.13694848 0.995 8.8486099e-39
0.0052336995 0.13694848 0.995 8.6642186e-39
-0.028785348 0.14043762 0.995 1.3467274e-38
-0.026604639 0.14174603 0.995 1.2446388e-38
-0.025296215 0.15439415 0.995 3.5909226e-39
-0.033246703 0.12598751 0.99800003 6.3625256e-39
-0.030038692 0.12627916 0.99800003 7.7422693e-39
-0.026247401 0.12598753 0.99800003 8.3887135e-39
-0.021872833 0.12598751 0.99800009 9.2159631e-39
-0.013998613 0.12686244 0.99800003 8.3890835e-39
-0.01049896 0.12686244 0.99800003 7.7462238e-39
-0.0069993064 0.12686244 0.99800003 3.8743324e-39
-0.0017498266 0.12686244 0.99800003 7.2834548e-39
-0.029747054 0.12861226 0.99800003 8.0192079e-39
-0.026247401 0.12861226 0.99800003 8.6634969e-39
-0.017498266 0.12861226 0.99800003 8.5731174e-39
-0.014873526 0.12861226 0.99800003 8.4816322e-39
-0.0055411174 0.12977883 0.99800003 8.2057712e-39
-0.0017498266 0.12948719 0.99800003 8.5742146e-39
-0.0043745665 0.13211191 0.99800003 8.2968864e-39
-0.0014581889 0.13269518 0.99800003 8.2050509e-39
0.0014581889 0.1350283 0.99800003 8.5738236e-39
0.0056869364 0.13254936 0.99800003 9.4986134e-39
-0.032371793 0.14086105 0.99800003 9.1355509e-39
-0.03003869 0.14202762 0.99800003 1.1897031e-38
-0.02887214 0.14436069 0.99800003 1.2168226e-38
-0.027122313 0.14611052 0.99800003 1.18928e-38
-0.033346646 0.12285607 1.001 7.2855931e-39
-0.029881181 0.12303885 1.0024999 8.2990472e-39
-0.026352599 0.12209862 1.002 9.1255625e-39
-0.02197146 0.12303885 1.0025001 1.004608e-38
-0.017603464 0.12234409 1.0039999 8.6653018e-39
-0.014082773 0.12234409 1.0039999 8.3894436e-39
-0.02895893 0.1254887 1.001 8.3887331e-39
-0.0175684 0.12561232 1.002 8.7567842e-39
-0.014061732 0.12479657 1.0024999 8.3894408e-39
-0.0105463 0.12479657 1.0024999 7.3785076e-39
-0.0061428039 0.12607373 1.0010002 3.3218747e-39
-0.0043877168 0.12899886 1.001 8.3916002e-39
0.0017557442 0.12997305 1.00175 7.3763398e-39
0.0057040323 0.13031518 1.001 1.2724327e-38
0.0020476012 0.13309407 1.0010002 8.3890764e-39
-0.033346646 0.14216202 1.001 6.9189602e-39
-0.03256641 0.14522858 1.0039999 8.4816322e-39
-0.030159671 0.1461111 1.0020001 6.8216835e-39
-0.026484098 0.11917844 1.007 8.1132154e-39
-0.017656066 0.11917844 1.007 9.0333514e-39
-0.030015312 0.12094405 1.007 6.1835364e-39
-0.02207008 0.12094405 1.007 9.6783705e-39
-0.017656066 0.12094405 1.007 9.0330025e-39
-0.014124852 0.12094405 1.007 8.7574988e-39
-0.011476442 0.12182686 1.007 7.9291801e-39
-0.026563 0.11776263 1.01 1.3738203e-38
-0.021781659 0.11882515 1.0100001 6.9164435e-39
-0.017708667 0.11776263 1.01 8.2968696e-39
-0.014166933 0.1195335 1.01 8.8500476e-39
-0.0097397659 0.12218979 1.01 1.0135688e-38
-0.0070834663 0.12218979 1.01 1.3359353e-38
-0.0061980332 0.1248461 1.01 8.4834217e-39
-0.010656759 0.11456016 1.013 7.373072e-39
-0.0079925703 0.11456016 1.013 8.8481348e-39
-0.022201583 0.11692834 1.013 7.1037368e-39
-0.017761268 0.11633629 1.013 6.8264339e-39
-0.014505035 0.11752038 1.013 8.390517e-39
-0.010656759 0.11811243 1.013 8.5766571e-39
-0.0071045067 0.11811243 1.013 7.6539819e-39
-0.014251093 0.11489944 1.016 6.2793628e-39
-0.02404872 0.11668083 1.016 9.0352096e-39
-0.0133604 0.11668083 1.016 8.5741964e-39
