# .PCD v0.7 - Point Cloud Data file format
VERSION 0.7
FIELDS x y z rgb
SIZE 4 4 4 4
TYPE F F F F
COUNT 1 1 1 1
WIDTH 375
HEIGHT 1
VIEWPOINT 0 0 0 1 0 0 0
POINTS 375
DATA ascii
0.042869002 0.14575458 0.97799999 2.2401348e-38
0.046298519 0.14661196 0.97799999 1.1061263e-38
0.049728036 0.14661196 0.97799999 4.4332333e-39
0.052300178 0.14661196 0.97799999 7.5618395e-39
0.038582098 0.15089887 0.97799999 1.7422379e-38
0.042011619 0.15004151 0.97799999 1.8067406e-38
0.046298519 0.15004151 0.97800004 8.9518435e-39
0.049728036 0.15004151 0.97800004 6.9289333e-39
0.05380059 0.14982715 0.97800004 1.070067e-38
0.058016043 0.14889833 0.97800004 9.2220012e-39
0.042440306 0.15389968 0.97799999 1.0053851e-38
0.046012726 0.1540426 0.97800004 9.5082305e-39
0.049728036 0.15347101 0.97799999 9.6951062e-39
0.054014936 0.15347102 0.97800004 8.3997193e-39
0.03795616 0.14233559 0.98400003 9.2155805e-39
0.042197175 0.14209276 0.98233342 1.2998167e-38
0.046296418 0.14233139 0.98159999 7.93491e-39
0.049931429 0.14204453 0.98200005 7.7440644e-39
0.053869762 0.14302044 0.98159999 7.8362712e-39
0.056071602 0.14233559 0.98400003 7.5611333e-39
-0.0094890399 0.14492351 0.98400003 1.39175e-38
-0.0077637597 0.14492351 0.98400003 8.0169799e-39
0.019150607 0.1461312 0.98400003 9.6887009e-39
0.022428639 0.14578617 0.98400009 9.4107211e-39
0.025879202 0.14578615 0.98400009 9.5940418e-39
0.029945932 0.1462791 0.98400009 4.1523739e-39
0.034505598 0.14664879 0.98400003 1.5669252e-38
0.037897862 0.14556217 0.98250002 2.3507676e-38
0.040420465 0.1462017 0.98100001 2.3508049e-38
0.046440542 0.14534168 0.98100001 1.3361887e-38
0.049880579 0.14534168 0.98100001 7.0964571e-39
0.05452463 0.1460297 0.98100007 7.3770909e-39
0.058184147 0.14567372 0.98325002 1.1436204e-38
0.01897808 0.15009937 0.98400003 7.1011991e-39
0.022428639 0.15009937 0.98400003 5.4459867e-39
0.025879201 0.15009937 0.98400003 5.086209e-39
0.030159963 0.14994682 0.98300004 4.0669871e-39
0.034400396 0.14964172 0.98100001 1.2170804e-38
0.037553772 0.14935505 0.98100007 2.0186785e-38
0.022428639 0.15268727 0.98400003 1.9436122e-39
0.025879201 0.15268727 0.98400003 1.8593227e-39
0.030623719 0.1531186 0.98400003 6.1856229e-39
0.034451686 0.15331584 0.98250002 9.4978104e-39
0.037553772 0.15336844 0.98100007 1.2352634e-38
0.041280478 0.15566181 0.98100001 6.9235691e-39
0.047300551 0.15566181 0.98100001 8.772162e-39
0.049880579 0.15566181 0.98100001 8.4040745e-39
0.05418063 0.15451513 0.98100007 8.676742e-39
0.057620667 0.15222177 0.98100001 5.0764405e-39
0.038818799 0.15613784 0.98400003 6.4608071e-39
0.049880579 0.15738182 0.98100001 3.150388e-39
0.053320616 0.15738182 0.98100001 2.4992915e-39
-0.010383239 0.13930847 0.98699999 6.2704071e-39
0.041532956 0.13930847 0.98699999 6.5451751e-39
-0.016440129 0.14190426 0.98699999 8.1077378e-39
-0.01384432 0.14190426 0.98699999 1.935527e-38
-0.010383239 0.14190426 0.98699999 1.8619191e-38
-0.0069221593 0.14190426 0.98699999 1.6631115e-39
0.019035939 0.14276955 0.98699999 7.8362208e-39
0.022497017 0.14190428 0.98699999 8.2043222e-39
0.025958098 0.14190426 0.98699999 8.296176e-39
0.029419178 0.14190428 0.98699999 8.2039663e-39
0.033399422 0.14207733 0.98699999 6.7298802e-39
0.038071878 0.141039 0.98699999 3.1310753e-39
0.047589846 0.141039 0.98699999 6.7385276e-39
0.05364674 0.141039 0.98699999 9.2138022e-39
0.057973087 0.14219269 0.98699999 1.0234793e-38
0.061434165 0.14276955 0.98699999 8.7632343e-39
-0.016440129 0.14536536 0.98699999 6.2760235e-39
-0.01384432 0.14536536 0.98699999 9.958811e-39
-0.010815875 0.14666325 0.98699999 9.9570243e-39
-0.0064895246 0.14666325 0.98699999 6.4582595e-39
0.011248509 0.14709589 0.98699999 1.033085e-38
0.01384432 0.14709589 0.98699999 9.5958116e-39
0.016872764 0.14579798 0.98699999 9.7802085e-39
0.030284448 0.14450008 0.98699999 1.2006942e-39
0.033745527 0.14450008 0.98699999 9.0358303e-39
0.059703626 0.14450008 0.98699999 1.1710557e-38
0.011248509 0.15055697 0.98699999 8.0245721e-39
0.01384432 0.15055697 0.98699999 7.1029801e-39
0.016440129 0.15055697 0.98699999 7.2873756e-39
0.01817067 0.15315279 0.98699999 3.9715517e-39
0.022497017 0.15488333 0.98699999 3.23756e-39
0.025958098 0.15488333 0.98699999 5.7257602e-39
0.029419178 0.15488333 0.98699999 7.6603816e-39
0.0052179196 0.13131765 0.99199998 7.8344257e-39
-0.0130448 0.13479626 0.99199998 7.1919654e-39
-0.010435839 0.13479626 0.99199998 5.8072429e-39
0.0057397117 0.13410054 0.99200004 3.7767586e-39
0.009566186 0.13479626 0.99199998 0
0.014784106 0.1339266 0.99199998 8.4805532e-39
0.016523411 0.1339266 0.99199998 8.5727488e-39
0.04174336 0.13479626 0.99199998 8.479477e-39
-0.021724895 0.13860385 0.99124998 7.9334176e-39
-0.017647006 0.13857323 0.99000001 1.1117117e-39
-0.0138864 0.13799435 0.99000001 8.3923008e-39
-0.01042006 0.13719614 0.99050003 4.8877991e-39
-0.0069462676 0.13806406 0.99049997 1.1985558e-39
0.0063326638 0.13771746 0.99157149 6.361846e-39
0.01042532 0.13813375 0.99100006 5.9015937e-39
0.013900425 0.13813375 0.99100006 7.9284584e-39
0.017881719 0.13906442 0.99019998 8.0199422e-39
0.021941649 0.13795161 0.99125004 8.3890778e-39
0.026063299 0.13813373 0.99100006 8.297248e-39
0.029538408 0.13813373 0.99100006 8.112498e-39
0.033882286 0.13813373 0.991 8.3880059e-39
0.038206447 0.13806406 0.99050009 7.6500835e-39
0.041680239 0.13719614 0.99049997 8.2947354e-39
0.046021275 0.13828123 0.99050003 7.2827401e-39
0.050338201 0.13799435 0.99000001 1.1058774e-38
0.053961992 0.1382861 0.9896 1.1980023e-38
0.057917204 0.13817669 0.98974997 8.6649459e-39
0.061165612 0.13711534 0.99199998 1.1615915e-38
-0.022730211 0.1417563 0.9896 9.3213701e-39
-0.019074513 0.14219183 0.98900002 4.0712961e-39
-0.0043482664 0.14175348 0.99199998 8.2132906e-39
-0.0017393066 0.14262314 0.99199998 1.2819141e-38
0.0019132373 0.14210135 0.99200004 9.9617285e-39
0.00585964 0.14175524 0.99049997 7.0107817e-39
0.01040428 0.14219183 0.98900002 7.0997319e-39
0.013872373 0.14219183 0.98900002 7.743672e-39
0.017773978 0.14175831 0.98900002 7.8358985e-39
0.035547953 0.1413248 0.98900002 5.9005203e-39
0.058957584 0.1413248 0.98900002 1.0970174e-38
0.061745383 0.14088383 0.99199998 1.1615528e-38
-0.022253599 0.14537093 0.98900002 6.6448536e-39
-0.019074513 0.14565992 0.98900002 6.2810639e-39
-0.0043351166 0.14565992 0.98900002 1.1898854e-38
-0.0017393065 0.14610174 0.99199998 8.9533611e-39
0.0017393066 0.14610174 0.99199998 8.6788131e-39
0.0060735466 0.14580721 0.99000001 1.1531875e-38
0.010115273 0.14537093 0.98900002 1.161942e-38
0.013872373 0.1447929 0.98900002 1.1804164e-38
-0.013872373 0.14826098 0.98900002 4.985663e-39
-0.010435839 0.15045002 0.99199998 4.4350158e-39
-0.0060875732 0.14958036 0.99199998 5.9086885e-39
-0.0017393066 0.14871071 0.99199998 7.0153709e-39
0.0017393066 0.14871071 0.99199998 8.7656376e-39
0.0060766148 0.14935462 0.99049997 1.0418035e-38
0.0095372573 0.14999503 0.98900002 8.7574316e-39
0.0069572264 0.15218931 0.99199998 9.0351045e-39
0.010435839 0.15392864 0.99199998 7.0075237e-39
0.014189435 0.15435323 0.99100006 5.2597598e-39
0.01820749 0.15519717 0.98900002 3.3279605e-39
0.017393064 0.15740725 0.99199998 3.6045516e-39
0.021695748 0.1570899 0.99000001 3.881863e-39
0.0260107 0.15693122 0.98900002 6.827461e-39
0.029568212 0.15740725 0.99199998 7.1044109e-39
-0.0017445666 0.13171478 0.995 3.9662324e-39
0.0020353277 0.13113326 0.99500006 6.8203214e-39
0.0061059832 0.13055176 0.99500006 8.9429565e-39
0.010467399 0.13084251 0.995 4.611229e-39
0.013956534 0.13084249 0.995 6.1760576e-39
0.016573383 0.13084251 0.995 8.8479204e-39
-0.017445665 0.13520391 0.995 1.7549722e-39
-0.013956534 0.13433163 0.995 6.8235878e-39
-0.010467399 0.13345934 0.995 7.6500835e-39
-0.0056698415 0.13476777 0.995 4.1477398e-39
-0.0017445667 0.13433163 0.995 3.5062842e-39
0.0017445666 0.13433163 0.995 4.1462964e-39
0.0078505492 0.13345934 0.995 6.8188388e-39
0.010758161 0.13404088 0.99500006 5.8986818e-39
0.01308425 0.13433163 0.995 7.9276961e-39
0.018317949 0.13433163 0.995 8.6645787e-39
0.021807082 0.13520393 0.99500006 8.4812707e-39
0.026168499 0.13520391 0.995 8.2975941e-39
0.029657632 0.13520391 0.995 8.0213729e-39
0.034367964 0.13450609 0.995 8.2958074e-39
0.038671229 0.1346224 0.99500006 8.2036104e-39
0.041869599 0.13345934 0.995 8.297248e-39
0.046231017 0.13520393 0.99500006 7.4667712e-39
0.050592434 0.13520391 0.995 1.0323727e-38
0.057570696 0.13520391 0.995 7.9277452e-39
0.061059825 0.13520391 0.995 1.0878719e-38
-0.020934798 0.13694848 0.995 5.9040726e-39
-0.018317949 0.13694848 0.995 4.3047889e-42
-0.0043614162 0.13782077 0.995 3.2254387e-39
-0.0017445667 0.13782077 0.995 4.1502201e-39
0.0017445666 0.13782077 0.995 6.6377294e-39
0.017445665 0.13694848 0.995 8.2046908e-39
0.046231017 0.13694848 0.995 7.4664167e-39
0.053209282 0.13694848 0.995 1.4929247e-38
-0.0017445666 0.14043762 0.995 1.4769237e-39
0.0008722833 0.14043762 0.995 5.4434728e-39
-0.017445665 0.14916044 0.995 5.3562756e-39
-0.0061059832 0.150905 0.995 4.6197559e-39
-0.0008722833 0.150905 0.995 6.6448004e-39
0.0017445666 0.150905 0.995 1.1154075e-38
0.0061059827 0.15352187 0.995 8.3908197e-39
0.011339683 0.1561387 0.995 3.3229383e-39
0.013956534 0.15701099 0.995 3.6938676e-39
0.021807082 0.15962785 0.99500006 3.3251047e-39
0.026168499 0.15962785 0.995 2.5850552e-39
0.028785348 0.15962785 0.995 6.0984509e-42
0.033146765 0.15788327 0.995 5.3544791e-39
0.054244623 0.12336278 0.99800003 7.7432754e-39
0.056869365 0.12336278 0.99800003 1.152764e-38
0.014873526 0.12686244 0.99800003 5.9905649e-39
0.016623352 0.12686244 0.99800003 8.7567926e-39
0.054244623 0.12511261 0.99800003 8.8532215e-39
0.05774428 0.12598753 0.99800003 1.1063403e-38
-0.0096240472 0.13036209 0.99800003 9.0326536e-39
-0.0061243935 0.13036209 0.99800003 9.0330025e-39
-0.0014581889 0.12977883 0.99800003 9.1248492e-39
0.0014581889 0.12919554 0.99800003 9.1252038e-39
0.0065618493 0.12904973 0.99800003 8.5745481e-39
0.01049896 0.12861226 0.99800003 1.2907865e-39
0.013998613 0.12861226 0.99800003 4.6080551e-39
0.017498266 0.12948719 0.99800003 8.5727657e-39
0.020123007 0.13036209 0.99800003 8.2972339e-39
-0.021522868 0.13491164 0.99800009 7.2848659e-39
-0.017498266 0.13386174 0.99800003 8.2050257e-39
-0.013998613 0.13298681 0.99800003 7.9280969e-39
-0.01049896 0.13211191 0.99800003 7.6504436e-39
-0.0064743585 0.13281183 0.99800009 5.806894e-39
0.01837318 0.13211191 0.99800003 8.6645787e-39
0.021435376 0.13342427 0.99800003 8.4809105e-39
0.026247401 0.13386174 0.99800003 8.2972409e-39
0.030038692 0.13327846 0.99800003 8.2046824e-39
0.033684164 0.13254936 0.99800003 8.1124924e-39
0.038496189 0.13298681 0.99800003 8.1121364e-39
0.041995838 0.13211191 0.99800003 8.2968976e-39
0.045495495 0.13386174 0.99800003 6.8210305e-39
0.049870059 0.13386175 0.99800003 7.8355327e-39
0.053952988 0.13502829 0.99800003 1.0783311e-38
0.05774428 0.13386174 0.99800003 7.5596689e-39
0.062118851 0.13444501 0.99800003 1.0605353e-38
-0.02362266 0.13736139 0.99800003 1.005003e-38
0.063868672 0.13736139 0.99800003 1.2077592e-38
-0.02362266 0.14786035 0.99800003 6.5465329e-39
-0.020997919 0.1504851 0.99800003 3.7814263e-39
-0.017498266 0.15136001 0.99800003 5.7200415e-39
-0.013998613 0.15136001 0.99800003 4.2499168e-39
-0.0043745665 0.15136001 0.99800003 5.2651155e-39
-0.0026247399 0.15136001 0.99800003 6.3685764e-39
-0.0008749133 0.15310983 0.99800003 5.6288898e-39
0.0017498266 0.15310983 0.99800003 9.1297398e-39
0.0052494798 0.15485966 0.99800003 6.3682779e-39
0.0096240472 0.15660948 0.99800003 2.7694142e-39
0.035871446 0.1583593 0.99800003 4.0637207e-39
0.030621966 0.16010913 0.99800003 0
-0.0096819056 0.11794321 1.0039999 8.5698467e-39
-0.0061612129 0.11794321 1.0039999 1.1799953e-38
-0.0026405198 0.11794321 1.0039999 1.2447146e-38
-0.0061612129 0.1223441 1.0039999 7.8362698e-39
-0.0026405198 0.12234409 1.0039999 7.8362628e-39
-0.021784289 0.1260848 1.0039998 9.4042485e-39
-0.017603464 0.12674494 1.0039999 1.0692172e-38
-0.013898849 0.12614058 1.0034 1.0323391e-38
-0.01055156 0.12573767 1.003 7.3749371e-39
-0.006155076 0.12573767 1.0029999 8.2050495e-39
-0.0017585934 0.12573767 1.003 8.3890764e-39
0.0017577166 0.12655428 1.0025001 8.4816294e-39
0.0061520077 0.12655428 1.0025001 8.2972395e-39
0.010545863 0.12567499 1.0025001 7.2816555e-39
0.013882016 0.12528601 1.0022 7.3738539e-39
0.017758463 0.12536123 1.0028 8.4816294e-39
0.021492736 0.12606178 1.0035714 8.2972409e-39
0.026405197 0.12762512 1.0039999 8.1135686e-39
0.02992589 0.12762512 1.0039999 8.2046908e-39
0.033446584 0.12762512 1.0039999 8.2043321e-39
0.037847452 0.12762514 1.0039999 7.2848589e-39
0.042541709 0.12703834 1.0039999 1.0139625e-38
0.045769013 0.12586477 1.0039999 1.5940066e-38
0.050169874 0.12586477 1.0039998 1.5390172e-38
0.054487899 0.12743446 1.0025001 9.1298336e-39
0.061318737 0.12703834 1.0039999 1.3828865e-38
-0.021652263 0.13008963 1.0039999 9.4031457e-39
-0.017577166 0.1300697 1.0025001 8.8486267e-39
-0.014040693 0.12987641 1.001 8.5720286e-39
-0.010823036 0.1295839 1.0010002 8.0199296e-39
-0.0061428039 0.12899886 1.0010002 8.4819853e-39
-0.0026326301 0.12899886 1.001 9.032648e-39
0.018428411 0.12899886 1.001 8.2975899e-39
0.022303803 0.12977822 1.0016 8.2050425e-39
0.026384816 0.13016768 1.00325 8.2046824e-39
0.029881181 0.1300697 1.0025001 8.3883534e-39
0.033913147 0.13020656 1.0022 8.2954487e-39
0.038153231 0.12993287 1.0028 7.560036e-39
0.042185199 0.1300697 1.0025001 7.0065077e-39
0.045632251 0.12987641 1.001 6.5455212e-39
0.050019976 0.12987641 1.001 6.9153785e-39
0.054407686 0.12987641 1.001 8.297929e-39
0.057917859 0.12987641 1.001 7.6511457e-39
0.061428033 0.12987641 1.001 1.0235453e-38
0.0646457 0.13016891 1.0010002 1.2262673e-38
-0.022395106 0.13304709 1.00175 7.9298892e-39
-0.017550867 0.13250904 1.001 8.3890835e-39
-0.014918236 0.13250904 1.001 8.4812791e-39
0.022816125 0.13250904 1.001 8.3894366e-39
0.026326301 0.13250904 1.001 8.2972353e-39
0.02895893 0.13250904 1.001 8.2975899e-39
0.037734363 0.13250904 1.001 8.0199408e-39
0.045632251 0.13250904 1.001 7.4674915e-39
0.050019972 0.13250904 1.0010002 7.3767308e-39
0.054700203 0.13309407 1.0010002 8.1125008e-39
0.057917859 0.13250904 1.001 7.8359027e-39
0.061428033 0.13250904 1.001 9.4057521e-39
0.06493821 0.13338658 1.001 1.1434e-38
0.065815754 0.13601923 1.001 1.0325853e-38
-0.02369367 0.15093745 1.001 6.1749058e-39
-0.017550867 0.15357009 1.001 3.4144613e-39
-0.010834431 0.15431029 1.0020001 2.1258496e-39
-0.0020476012 0.15474014 1.0010002 4.7962607e-39
0.0017550867 0.15532516 1.001 5.9994548e-39
0.060550489 0.15532516 1.001 4.7030309e-39
0.061428033 0.15795779 1.001 7.0972558e-39
-0.00088280329 0.11829564 1.007 8.7593191e-39
0.0017656065 0.11917844 1.007 1.1062677e-38
-0.021187279 0.12270965 1.007 7.743658e-39
-0.013242049 0.12270965 1.007 8.2039817e-39
-0.010299372 0.12212113 1.007 7.4660482e-39
-0.0061796228 0.12094405 1.007 6.5466002e-39
-0.0014713388 0.12153259 1.007 6.7306257e-39
0.0017656065 0.12182686 1.007 8.205383e-39
0.010887908 0.12212113 1.007 8.5723747e-39
0.014124852 0.12182686 1.007 7.9277171e-39
0.017656066 0.12182686 1.007 6.9146344e-39
0.022070084 0.12200341 1.007 8.1124377e-39
0.026484098 0.12182686 1.007 1.0420207e-38
0.029721044 0.12212113 1.007 8.2150898e-39
0.045905769 0.12270965 1.007 1.9351289e-38
0.048554178 0.12270965 1.007 1.9443147e-38
-0.017656066 0.12447526 1.007 8.4805728e-39
-0.015007655 0.12447526 1.007 8.4798722e-39
0.0017656065 0.12447526 1.007 8.2972353e-39
0.0061796228 0.12447526 1.007 8.3876317e-39
0.023835689 0.12535806 1.007 8.0202981e-39
0.026484096 0.12535806 1.007 7.7444203e-39
0.030015312 0.12535806 1.007 7.6507883e-39
0.033546522 0.12624086 1.007 8.1110518e-39
0.038313661 0.12553462 1.007 9.4017122e-39
0.042080291 0.12506381 1.007 1.391352e-38
-0.025601294 0.12888928 1.007 1.5304859e-38
-0.023835689 0.13153769 1.007 1.0326161e-38
-0.013281499 0.11599176 1.01 9.498923e-39
-0.011510633 0.11599176 1.01 7.7472047e-39
-0.021250401 0.1195335 1.01 1.3460088e-38
-0.013281499 0.11776263 1.01 9.9581566e-39
-0.011510633 0.11864807 1.01 7.653284e-39
0.0044271667 0.1195335 1.01 1.1619701e-38
0.017708667 0.1195335 1.01 8.4866433e-39
0.022135831 0.1195335 1.01 1.3926085e-38
-0.022135835 0.12189465 1.01 1.1065911e-38
-0.017708667 0.12307522 1.01 8.2961816e-39
-0.014166933 0.12218979 1.01 8.4802057e-39
-0.011510633 0.12130436 1.01 7.8344579e-39
0.0061980332 0.12218979 1.0100001 8.3908435e-39
0.0097397659 0.12130436 1.01 7.5596661e-39
0.022135833 0.12130436 1.01 9.6782416e-39
0.042500798 0.12307522 1.01 1.3732342e-38
-0.023906698 0.1248461 1.01 1.4106217e-38
0.033646464 0.1248461 1.01 6.8202612e-39
0.036302764 0.1248461 1.01 7.9261925e-39
-0.025677565 0.13192956 1.01 1.4933893e-38
-0.025677565 0.13458586 1.01 1.4106625e-38
-0.020425456 0.11811242 1.013 1.5122139e-38
-0.017583655 0.11846765 1.013 7.8376473e-39
-0.014653045 0.11855645 1.013 8.851837e-39
0.0071045067 0.11988855 1.013 7.1951477e-39
0.010656759 0.11988855 1.013 5.4470952e-39
0.014209013 0.11988855 1.013 6.2764873e-39
-0.017761268 0.12166467 1.013 8.5730669e-39
-0.015097077 0.12166467 1.013 8.4809288e-39
0.031082217 0.12166467 1.013 1.6975069e-38
0.033450387 0.12284876 1.013 1.061287e-38
0.038186725 0.12255274 1.013 1.1990376e-38
0.043515101 0.12166467 1.013 7.1897569e-39
0.04529123 0.12166467 1.013 9.6786788e-39
-0.01870456 0.11668083 1.016 7.9287261e-39
0.011579013 0.11846221 1.016 1.457798e-38
0.014251093 0.11846221 1.016 1.7895592e-38
0.016923174 0.11846221 1.016 1.7893804e-38
0.034737039 0.12202498 1.016 1.7069428e-38
0.041862588 0.12202498 1.016 5.9972996e-39
