# .PCD v0.7 - Point Cloud Data file format
VERSION 0.7
FIELDS x y z rgb
SIZE 4 4 4 4
TYPE F F F F
COUNT 1 1 1 1
WIDTH 800
HEIGHT 1
VIEWPOINT 0 0 0 1 0 0 0
POINTS 800
DATA ascii
-0.037888363 0.019341603 0.9066667 1.7560774e-38
-0.035212196 0.019326992 0.90600002 2.0227613e-38
-0.041392691 0.023084387 0.90799999 1.0032773e-38
-0.038167436 0.022263825 0.90700006 1.1297582e-38
-0.034153178 0.022239281 0.90600008 1.4419627e-38
-0.030446632 0.022504032 0.90600002 1.0214656e-38
-0.040596679 0.025472425 0.90799999 1.7564713e-38
-0.038181171 0.026249737 0.90733337 1.3041009e-38
-0.034161948 0.026217395 0.90622222 1.6256007e-38
-0.030181881 0.026210576 0.90600008 1.9210602e-38
-0.0277991 0.02621058 0.90600002 1.8210455e-38
-0.033812597 0.029834282 0.90750003 1.5795714e-38
-0.030181877 0.030181877 0.90600002 2.0760657e-38
-0.038292799 0.029517367 0.91000003 1.3499818e-38
-0.034303967 0.0311129 0.91000003 1.4510008e-38
-0.032708433 0.032708433 0.91000003 1.4601844e-38
-0.030315135 0.032708433 0.91000003 2.0669524e-38
-0.040909648 0.0288774 0.91500002 1.7920557e-38
-0.037647281 0.031238263 0.91366667 1.3407982e-38
-0.037674166 0.033666335 0.91433334 1.3591662e-38
-0.03388346 0.03388346 0.91299999 1.4050837e-38
-0.031283852 0.034492448 0.91500002 1.8458956e-38
-0.036898896 0.037701052 0.91500008 1.5612037e-38
-0.033690296 0.037701052 0.91500008 1.6622242e-38
-0.031283852 0.036898896 0.91500002 1.7999757e-38
-0.045401689 0.046685129 0.91500008 2.030939e-38
-0.040909648 0.0465247 0.91500002 1.9472431e-38
-0.037701052 0.0465247 0.91500008 1.8367148e-38
-0.033690296 0.0465247 0.91500002 1.9010355e-38
-0.029679552 0.0465247 0.91500008 2.1041553e-38
-0.0256688 0.046524696 0.91500002 2.0310484e-38
-0.023262348 0.047326848 0.91500002 1.5520266e-38
-0.048931152 0.0497333 0.91500002 1.3224683e-38
-0.045722555 0.049733296 0.91500008 1.7640373e-38
-0.0417118 0.0497333 0.91500002 1.9201949e-38
-0.037701052 0.049733296 0.91500008 1.8829938e-38
-0.033690296 0.049733296 0.91500002 1.9195509e-38
-0.029679552 0.049733296 0.91500008 1.8559137e-38
-0.0256688 0.049733296 0.91500002 1.7089011e-38
-0.023262348 0.048931152 0.91500002 1.405089e-38
-0.048931152 0.053744048 0.91500008 1.1846813e-38
-0.045722548 0.053744048 0.91500008 1.1663116e-38
-0.0417118 0.053744055 0.91500008 1.3224317e-38
-0.037618641 0.053626571 0.91299999 1.4419992e-38
-0.033616662 0.053626578 0.91300005 1.3684592e-38
-0.029651497 0.053692613 0.91411114 1.2765149e-38
-0.0256688 0.053744055 0.91500008 1.2397799e-38
-0.045722552 0.0577548 0.91500008 1.4142704e-38
-0.0417118 0.0577548 0.91500002 1.2948836e-38
-0.037701052 0.0577548 0.91500008 1.2305963e-38
-0.033690296 0.0577548 0.91500002 1.2214128e-38
-0.02967955 0.0577548 0.91500008 1.3407985e-38
-0.0256688 0.056952652 0.91500002 1.4326339e-38
-0.045493368 0.061307177 0.91500008 1.745387e-38
-0.0417118 0.061765552 0.91500008 1.6810282e-38
-0.037701052 0.061765544 0.91500008 1.6812049e-38
-0.033690296 0.061765544 0.91500008 1.6904959e-38
-0.02967955 0.061765544 0.91500008 1.7639322e-38
-0.0256688 0.062567696 0.91500002 1.9201303e-38
-0.036898896 0.065776303 0.91500002 1.800844e-38
-0.033690296 0.065776303 0.91500002 1.7827315e-38
-0.029679552 0.065776303 0.91500008 1.7551088e-38
-0.0256688 0.065776303 0.91500002 1.598447e-38
-0.036898896 0.069787055 0.91500008 1.4326365e-38
-0.033690296 0.069787055 0.91500008 1.4326354e-38
-0.02988009 0.069586515 0.91500002 1.4142686e-38
-0.0256688 0.068182752 0.91500002 1.3959004e-38
-0.041043781 0.031386416 0.91799998 1.7549579e-38
-0.041133199 0.0338744 0.92000002 1.6897785e-38
-0.029776858 0.034605537 0.91799998 2.3340662e-38
-0.041133203 0.037907064 0.92000002 1.662226e-38
-0.039434217 0.037824661 0.91799998 1.6163075e-38
-0.029539868 0.038402386 0.91900003 1.8460381e-38
-0.026615599 0.039520133 0.92000002 1.8734441e-38
-0.045165867 0.042746268 0.92000002 1.9565357e-38
-0.041670889 0.042208582 0.92000002 1.5703892e-38
-0.037824657 0.041848563 0.9180001 1.4693679e-38
-0.033800758 0.041848559 0.91799998 1.5244692e-38
-0.029809296 0.04189327 0.91900003 1.7724261e-38
-0.026077911 0.042208578 0.92000002 2.1312005e-38
-0.022582933 0.042746268 0.92000002 2.1690162e-38
-0.052424666 0.047585469 0.92000002 1.3132494e-38
-0.049933176 0.045905184 0.91866672 1.9019335e-38
-0.046274848 0.044665284 0.91799998 2.0212513e-38
-0.042274185 0.04549418 0.91850001 1.8832475e-38
-0.037824661 0.044262897 0.91799998 1.6346755e-38
-0.033800758 0.044262897 0.91799998 1.7265073e-38
-0.02977686 0.044262897 0.91799998 1.9748286e-38
-0.025809066 0.044359334 0.92000002 2.085718e-38
-0.022088844 0.045952417 0.91960001 1.8838196e-38
-0.052886378 0.050201438 0.91866672 1.2673357e-38
-0.050701138 0.049896356 0.91799998 1.2397806e-38
-0.021763688 0.049977452 0.91950005 1.3132477e-38
-0.053212203 0.054018736 0.91966671 1.5067245e-38
-0.050701138 0.053920262 0.91799998 1.2305997e-38
-0.021759449 0.053998575 0.91933334 1.4787683e-38
-0.053231198 0.058070399 0.92000002 1.9028712e-38
-0.049896356 0.05794416 0.91799998 1.6163895e-38
-0.025752958 0.058748938 0.91799998 1.5612058e-38
-0.02175945 0.058028318 0.9193334 1.9107262e-38
-0.018550266 0.058070399 0.92000002 2.0133282e-38
-0.054037731 0.062103059 0.91999996 1.7084323e-38
-0.049896356 0.061968058 0.9180001 1.8466562e-38
-0.046677239 0.063577615 0.91799998 1.8747073e-38
-0.025752958 0.060358495 0.91799998 1.8186396e-38
-0.021754187 0.062042672 0.91911113 1.8378347e-38
-0.017743733 0.062103063 0.92000002 1.5520263e-38
-0.053715117 0.065974429 0.92000002 1.3683503e-38
-0.049896356 0.065991953 0.91799998 1.469371e-38
-0.045872461 0.06599196 0.9180001 1.6624786e-38
-0.041848559 0.06599196 0.91799998 1.7547819e-38
-0.039434217 0.065991953 0.91799998 1.8009153e-38
-0.02175156 0.066064142 0.91900003 1.4418198e-38
-0.018550266 0.065329202 0.92000002 1.4142682e-38
-0.053231198 0.069361866 0.92000002 1.3040667e-38
-0.049969416 0.070118137 0.9193334 1.3224337e-38
-0.045895059 0.07005053 0.91844451 1.3683504e-38
-0.041848563 0.070015863 0.9180001 1.4050851e-38
-0.039434217 0.070015855 0.91799998 1.4142689e-38
-0.0281673 0.071625412 0.91799998 1.4234533e-38
-0.025766548 0.070859648 0.91850001 1.4050846e-38
-0.023372516 0.070118725 0.9193334 1.4326339e-38
-0.049198534 0.07339453 0.92000002 1.2948811e-38
-0.045972399 0.07339453 0.92000002 1.3316162e-38
-0.041939735 0.07339453 0.92000002 1.3683514e-38
-0.037552189 0.073975936 0.91920006 1.3867185e-38
-0.033837579 0.074121289 0.91899997 1.3959012e-38
-0.029809296 0.074121296 0.91900003 1.4050852e-38
-0.026058625 0.073879041 0.9193334 1.3775345e-38
-0.065329202 0.077427194 0.92000002 9.3103139e-39
-0.063716128 0.077427194 0.92000002 1.132926e-38
-0.042885654 0.026702389 0.92299998 1.9681254e-38
-0.042885654 0.029939041 0.92300004 2.0399785e-38
-0.042885654 0.033984859 0.92299998 2.0118896e-38
-0.028320715 0.034794021 0.92299998 2.1134096e-38
-0.044908561 0.038435254 0.92299998 1.8093099e-38
-0.042885654 0.038030677 0.92300004 1.8461522e-38
-0.028320715 0.036412347 0.92299998 2.0574087e-38
-0.025893226 0.038839839 0.92299998 1.956101e-38
-0.022656571 0.038839836 0.92299998 2.1866657e-38
-0.050168123 0.042885654 0.92299998 2.0400519e-38
-0.046526887 0.041671909 0.92299998 1.9380609e-38
-0.042885654 0.041267328 0.92299998 1.6530469e-38
-0.025084062 0.041267328 0.92299998 2.0669563e-38
-0.022656571 0.041267328 0.92299998 2.1873127e-38
-0.05313506 0.046122305 0.92300004 1.5890069e-38
-0.021038245 0.046122309 0.92299998 1.6264619e-38
-0.054213941 0.04935896 0.92299998 1.3040678e-38
-0.020229081 0.050977286 0.92299998 1.3591662e-38
-0.057450593 0.055023104 0.92299998 2.0225836e-38
-0.055832267 0.055023104 0.92299998 2.0225836e-38
-0.018610757 0.054213941 0.92300004 1.828111e-38
-0.058259755 0.058259755 0.92299998 1.5890454e-38
-0.055832267 0.058259755 0.92299998 2.1321754e-38
-0.016992429 0.058259755 0.92299998 1.8381566e-38
-0.057450593 0.062305577 0.92300004 1.4326346e-38
-0.015374102 0.061496411 0.92299998 1.4050831e-38
-0.057450593 0.065542229 0.92299998 1.294883e-38
-0.055832267 0.067160554 0.92299998 1.2857007e-38
-0.017801594 0.066351391 0.92299998 1.3867175e-38
-0.055832267 0.069588043 0.92299998 1.2765156e-38
-0.021307966 0.069318324 0.92300004 1.4418194e-38
-0.053890277 0.07266286 0.92299998 1.2948837e-38
-0.050168123 0.07444302 0.92299998 1.2948813e-38
-0.046122305 0.07525219 0.92300004 1.331616e-38
-0.042076491 0.075252183 0.92299998 1.368351e-38
-0.039648999 0.075252183 0.92299998 1.3867184e-38
-0.025084062 0.075252183 0.92299998 1.3683524e-38
-0.023465736 0.07444302 0.92299998 1.3867191e-38
-0.062305573 0.077679679 0.92299998 8.1946084e-39
-0.041267328 0.076870508 0.92299998 1.3407988e-38
-0.038030677 0.076870516 0.92300004 1.3591666e-38
-0.033984859 0.076870508 0.92299998 1.4050834e-38
-0.029939041 0.077679679 0.92299998 1.4050852e-38
-0.026702389 0.077679679 0.92299998 1.3959019e-38
-0.045486286 0.026803643 0.92649996 1.6098945e-38
-0.052880529 0.031728316 0.92799997 1.6002464e-38
-0.050439887 0.031728316 0.92799997 1.8014931e-38
-0.045823865 0.030277312 0.92628574 1.8926098e-38
-0.028474132 0.031728316 0.92799997 2.131745e-38
-0.025219945 0.031728316 0.92799997 2.0305427e-38
-0.021965757 0.03172832 0.92799997 1.9305309e-38
-0.018711573 0.031728316 0.92799997 1.4447035e-38
-0.056134716 0.033355411 0.92799997 1.1142353e-38
-0.053422894 0.03389778 0.92799997 1.9485365e-38
-0.050358362 0.034112416 0.92649996 1.92016e-38
-0.046248116 0.034076475 0.92550004 1.8919279e-38
-0.028382082 0.033247583 0.92500001 2.0950448e-38
-0.025969714 0.034085456 0.92574996 1.9840137e-38
-0.021905709 0.034076475 0.92550009 2.1224872e-38
-0.017855288 0.034085456 0.92575002 1.8665699e-38
-0.015407417 0.034869418 0.92500001 1.5551944e-38
-0.056134716 0.039050236 0.92799997 1.7727931e-38
-0.053694077 0.038236689 0.92799997 2.0487971e-38
-0.050276831 0.038113084 0.92500007 2.0214312e-38
-0.047195353 0.037788715 0.92500001 1.8830311e-38
-0.025679028 0.037031859 0.92500007 1.9928383e-38
-0.021246016 0.037464347 0.92500001 1.9842295e-38
-0.017840166 0.038113084 0.92500007 2.1131563e-38
-0.013785583 0.038113084 0.92500007 1.7750238e-38
-0.010541917 0.039734915 0.92500001 1.268812e-38
-0.056948263 0.04311797 0.92799997 1.6173187e-38
-0.053564552 0.042201199 0.92574996 2.0209597e-38
-0.050276831 0.041356746 0.92500001 2.0305807e-38
-0.020272916 0.042167664 0.92500001 1.6071255e-38
-0.017853973 0.04220251 0.92574996 1.9011027e-38
-0.013793914 0.042190894 0.92550004 2.0502778e-38
-0.00976256 0.042304426 0.92799997 1.3060119e-38
-0.0073219188 0.04311797 0.92799997 1.1775495e-38
-0.057355039 0.045965381 0.92799997 1.7096944e-38
-0.055142336 0.046222251 0.92500001 1.3683514e-38
-0.020272916 0.044600416 0.92500001 1.3683516e-38
-0.017867781 0.046297204 0.92650002 1.68095e-38
-0.013830293 0.046372157 0.92799991 2.0316956e-38
-0.010033742 0.045287427 0.92799997 1.5264177e-38
-0.0073219188 0.044745062 0.92799997 1.2146423e-38
-0.061015997 0.051253434 0.92799997 1.7632508e-38
-0.058179691 0.050602369 0.926 2.0224051e-38
-0.055953249 0.050276831 0.92500001 1.4792412e-38
-0.017867781 0.050358359 0.92649996 1.7363428e-38
-0.013830292 0.05043989 0.92799997 2.0226192e-38
-0.061586883 0.054435041 0.92679995 1.2219192e-38
-0.058791459 0.053925958 0.92500001 2.1048348e-38
-0.055953249 0.052709579 0.92500001 1.7555407e-38
-0.017029252 0.054331418 0.92500007 2.1874946e-38
-0.014021845 0.054258868 0.92724997 1.8657083e-38
-0.010576106 0.054507624 0.92799997 1.626105e-38
-0.060818747 0.058385998 0.92500001 1.2122285e-38
-0.01355953 0.058064394 0.92542869 1.4786997e-38
-0.0097415205 0.057635568 0.92600006 1.342492e-38
-0.060818747 0.06162966 0.92500001 9.2753851e-39
-0.059196915 0.06162966 0.92500001 1.0469247e-38
-0.012994392 0.061729603 0.92649996 1.2581485e-38
-0.010576106 0.061015997 0.92799997 1.5624331e-38
-0.061015997 0.064270183 0.92799997 8.9998786e-39
-0.058839455 0.06614428 0.92574996 1.138761e-38
-0.01702925 0.067306079 0.92500001 1.3499835e-38
-0.014260987 0.065513425 0.92585725 1.2948832e-38
-0.058241934 0.069619313 0.92699999 1.2122304e-38
-0.020272916 0.070549749 0.92500001 1.414268e-38
-0.017853973 0.069796033 0.92574996 1.3407998e-38
-0.014915022 0.069693826 0.92799997 1.3040649e-38
-0.057575084 0.072982505 0.92500001 1.2489657e-38
-0.054390155 0.074956171 0.926 1.2673334e-38
-0.051087748 0.075415246 0.92500001 1.2948816e-38
-0.021106627 0.073874943 0.92600006 1.3867188e-38
-0.018169207 0.072948009 0.92799997 1.3407999e-38
-0.015457386 0.072405644 0.92799997 1.3224323e-38
-0.052880529 0.077286929 0.92799997 1.2857024e-38
-0.050358362 0.077975549 0.92649996 1.2948813e-38
-0.046222251 0.077848002 0.92500007 1.3224314e-38
-0.042437971 0.078118302 0.92500007 1.3407995e-38
-0.038113084 0.078658909 0.92500007 1.3499831e-38
-0.0340585 0.078658909 0.92500001 1.4050834e-38
-0.025138417 0.077847995 0.92500001 1.4142713e-38
-0.023025064 0.077746019 0.92699999 1.405087e-38
-0.065481521 0.082105309 0.92500007 1.0319068e-38
-0.062575586 0.082081422 0.92699999 9.2069639e-39
-0.045965381 0.080947883 0.92799997 1.304065e-38
-0.042304426 0.081354655 0.92799997 1.3132491e-38
-0.038195487 0.082081422 0.92700005 1.3224331e-38
-0.034132138 0.082081422 0.92700005 1.3775327e-38
-0.030291963 0.081591748 0.9267143 1.3867187e-38
-0.026847038 0.080541112 0.92799997 1.3867184e-38
-0.037423141 0.085422389 0.92799997 1.3224341e-38
-0.049407177 0.02951386 0.93000001 1.6826824e-38
-0.026089599 0.030981399 0.93000001 2.0033172e-38
-0.023643699 0.030166099 0.93000001 2.0315858e-38
-0.057070993 0.041580297 0.93000001 1.7366694e-38
-0.0089683002 0.046472099 0.93000001 1.2514119e-38
-0.0073376996 0.046472099 0.93000001 1.2421565e-38
-0.066039301 0.049733296 0.93000001 1.4006822e-38
-0.061962798 0.048917994 0.93000001 1.5719059e-38
-0.059516896 0.048917994 0.93000001 2.1599771e-38
-0.010598901 0.049733296 0.93000001 1.6084209e-38
-0.0097835995 0.052994497 0.93000001 1.3422782e-38
-0.009511834 0.062234566 0.93000001 1.2698169e-38
-0.0073376996 0.0627781 0.93000001 1.1510777e-38
-0.064408697 0.067669898 0.93000001 1.8612692e-38
-0.061691031 0.067126364 0.93000001 8.6368512e-39
-0.012229499 0.066854596 0.93000001 1.1020307e-38
-0.0097835995 0.066039301 0.93000001 1.3153399e-38
-0.0073376996 0.066039301 0.93000001 1.1602973e-38
-0.061691031 0.069844037 0.93000001 9.5545252e-39
-0.059516896 0.070931099 0.93000001 1.0928444e-38
-0.012773033 0.070387572 0.93000001 1.1846811e-38
-0.0105989 0.070115805 0.93000001 1.5627572e-38
-0.061962798 0.075822897 0.93000001 9.4688049e-39
-0.057886295 0.074735835 0.93000001 1.1846803e-38
-0.017664833 0.07527937 0.93000001 1.3224327e-38
-0.014675399 0.073376998 0.93000001 1.3224335e-38
-0.061147496 0.078268796 0.93000001 1.1115015e-38
-0.053809799 0.078268796 0.93000001 1.2857016e-38
-0.0211978 0.078268796 0.93000001 1.3959016e-38
-0.018751899 0.077453494 0.93000001 1.3224328e-38
-0.061147496 0.081529997 0.93000001 1.111536e-38
-0.049733296 0.08125823 0.93000001 1.2856974e-38
-0.045928568 0.083432369 0.93000001 1.3132494e-38
-0.042395599 0.083975896 0.93000001 1.322433e-38
-0.029350799 0.083975896 0.93000001 1.3867184e-38
-0.026089599 0.081529997 0.93000001 1.3959021e-38
-0.044841498 0.085606501 0.93000001 1.3224328e-38
-0.042395599 0.085606501 0.93000001 1.322432e-38
-0.039949697 0.085606501 0.93000001 1.3407982e-38
-0.0342426 0.085606501 0.93000001 1.3499825e-38
-0.030166101 0.085606501 0.93000001 1.3591673e-38
-0.028658232 0.029476162 0.93400002 2.0400861e-38
-0.02646569 0.029193293 0.93366671 1.9580093e-38
-0.021774471 0.029307142 0.93380004 1.2972228e-38
-0.018852714 0.030328283 0.935 8.6602781e-39
-0.061476246 0.043443214 0.935 1.9569999e-38
-0.058890961 0.04171443 0.93300003 2.0492335e-38
-0.064616472 0.046622008 0.93300003 1.5735256e-38
-0.062229306 0.045852296 0.93400002 1.6639228e-38
-0.05970889 0.04580408 0.93300003 2.1046983e-38
-0.064616472 0.048257869 0.93300003 1.7030312e-38
-0.0089972299 0.049893729 0.93300003 1.2419051e-38
-0.0073613701 0.049893733 0.93300003 1.2972226e-38
-0.064616472 0.066252328 0.93300003 2.3509886e-38
-0.062980607 0.066252328 0.93300003 5.8987252e-39
-0.064754978 0.07131245 0.935 1.1048354e-38
-0.062980607 0.071159914 0.93300003 8.2828454e-39
-0.0089972299 0.070341982 0.93300003 1.1696598e-38
-0.0073613701 0.070341982 0.93300003 1.1696598e-38
-0.064616472 0.073613703 0.93300003 1.1787353e-38
-0.062162675 0.073613703 0.93300003 9.8368602e-39
-0.05970889 0.074431628 0.93300003 1.0744801e-38
-0.012814237 0.07388635 0.93300003 1.1754981e-38
-0.0098151602 0.073613703 0.93300003 1.2972591e-38
-0.0073613701 0.073613703 0.93300003 1.0775719e-38
-0.064616472 0.076067492 0.93300003 1.1511856e-38
-0.058147717 0.077803992 0.93419999 1.1754967e-38
-0.054801308 0.079339206 0.93300003 1.2857007e-38
-0.020448251 0.079339206 0.93300003 1.4050848e-38
-0.017747533 0.078907304 0.93433332 1.3407995e-38
-0.014151278 0.07730785 0.9338572 1.2214153e-38
-0.010101831 0.076722652 0.93433332 1.3797675e-38
-0.053165447 0.080975071 0.93300003 1.2673308e-38
-0.050711662 0.082610928 0.93300003 1.2948818e-38
-0.025355829 0.082610928 0.93300003 1.3959032e-38
-0.0221145 0.081909887 0.93433332 1.3867175e-38
-0.049487457 0.085754663 0.93414289 1.2948825e-38
-0.046110034 0.08703576 0.93366671 1.3040649e-38
-0.04171443 0.087518506 0.93300003 1.3132476e-38
-0.037624776 0.087518506 0.93300003 1.3316189e-38
-0.034353059 0.087518506 0.93300003 1.3407988e-38
-0.030263409 0.087518506 0.93300003 1.3499838e-38
-0.026191875 0.085944593 0.93366671 1.3683513e-38
-0.022942659 0.086036652 0.93466663 1.3499838e-38
-0.045629039 0.08989194 0.93500006 1.2948815e-38
-0.041759141 0.090069614 0.93400002 1.3040647e-38
-0.037684832 0.090117387 0.93449998 1.3224332e-38
-0.034389876 0.090069607 0.93400002 1.3407985e-38
-0.030295847 0.090069614 0.93400002 1.3408013e-38
-0.026229866 0.090165168 0.935 1.3499838e-38
-0.023770815 0.089345478 0.935 1.3316171e-38
-0.041803848 0.09262421 0.93500006 1.3040643e-38
-0.037705433 0.09262421 0.935 1.3224325e-38
-0.034426697 0.09262421 0.935 1.3499825e-38
-0.031967647 0.09262421 0.935 1.340801e-38
-0.060156867 0.079934463 0.94 9.7345822e-39
-0.058384243 0.079764389 0.93800002 1.2397802e-38
-0.013157013 0.079764389 0.93800002 1.184682e-38
-0.010690073 0.079764389 0.93800002 1.5629736e-38
-0.060156867 0.081582591 0.94 1.019376e-38
-0.057409979 0.082131974 0.94 1.2214153e-38
-0.054585941 0.082564466 0.9386667 1.2673315e-38
-0.01811018 0.082319871 0.93900001 1.3316153e-38
-0.014398811 0.081864439 0.93849999 1.2122321e-38
-0.054388396 0.084878862 0.94 1.2673322e-38
-0.051805738 0.087165214 0.93800002 1.2765154e-38
-0.020557834 0.085520588 0.93800002 1.3407998e-38
-0.018404156 0.085428238 0.94 1.2948816e-38
-0.049896359 0.090406075 0.93920004 1.2765145e-38
-0.046871856 0.09127678 0.93800002 1.2856975e-38
-0.022213418 0.090090215 0.93849999 1.3316158e-38
-0.049443997 0.093943596 0.94 1.2581474e-38
-0.046099514 0.093843661 0.93900001 1.2673303e-38
-0.041937985 0.094566032 0.93800008 1.2765134e-38
-0.037826415 0.094566032 0.93800002 1.3132477e-38
-0.033714846 0.094566032 0.93800008 1.3316171e-38
-0.029634839 0.093844533 0.93900001 1.3408006e-38
-0.026342079 0.093844533 0.93900001 1.3408015e-38
-0.023897933 0.093119532 0.94 1.3224344e-38
-0.045323666 0.096415795 0.94 1.248963e-38
-0.04169777 0.097075045 0.94 1.2305956e-38
-0.038181752 0.096965179 0.94 1.2948818e-38
-0.033786733 0.096415803 0.94 1.3132508e-38
-0.060348857 0.083496362 0.94300002 9.6427439e-39
-0.058695462 0.083496362 0.94300002 1.2214156e-38
-0.013227146 0.083496362 0.94300002 1.1112126e-38
-0.057593197 0.085700892 0.94300002 1.2030498e-38
-0.05456198 0.086803146 0.94300002 1.2673321e-38
-0.01736063 0.086803146 0.94300002 1.2948808e-38
-0.014467191 0.085563101 0.94300002 1.184681e-38
-0.052908584 0.090109937 0.94300002 1.2673314e-38
-0.020667417 0.090109937 0.94300002 1.3132484e-38
-0.019014023 0.088456541 0.94300002 1.2856981e-38
-0.052081887 0.094243415 0.94300002 1.2581483e-38
-0.022871939 0.094518982 0.94300002 1.3132504e-38
-0.049326237 0.097274631 0.94300002 1.2581471e-38
-0.046570577 0.097825766 0.94300002 1.2397796e-38
-0.04381492 0.0983769 0.94300002 1.1938617e-38
-0.037201349 0.0983769 0.94300002 1.304066e-38
-0.033894565 0.0983769 0.94300002 1.3040681e-38
-0.02976108 0.097550206 0.94300002 1.331616e-38
-0.026454292 0.096723504 0.94300002 1.3499842e-38
-0.023974203 0.096723504 0.94300002 1.3224344e-38
-0.04629501 0.1000303 0.94300002 1.203045e-38
-0.041830849 0.10069165 0.94300002 1.1846782e-38
-0.038028046 0.1000303 0.94300002 1.2673312e-38
-0.034721259 0.1000303 0.94300002 1.3040675e-38
-0.061370172 0.086249962 0.94599998 1.0196642e-38
-0.058882192 0.087079294 0.94599998 1.1938661e-38
-0.013269225 0.087079294 0.94599998 1.129724e-38
-0.061499916 0.088925563 0.94800001 9.8307715e-39
-0.058083989 0.089615062 0.94649994 1.1754991e-38
-0.055011999 0.089843713 0.94599998 1.2397807e-38
-0.017968744 0.089843713 0.94599998 1.2673311e-38
-0.014122808 0.089725375 0.94766665 1.1296149e-38
-0.057344519 0.092249878 0.94800001 1.1571316e-38
-0.054794297 0.093812972 0.94700003 1.2397799e-38
-0.02076239 0.09384717 0.94733334 1.3040656e-38
-0.018441912 0.093540683 0.94760001 1.2673308e-38
-0.01579052 0.092249878 0.94800001 1.2214143e-38
-0.052247576 0.097031213 0.94599998 1.2673318e-38
-0.050588921 0.098689869 0.94599998 1.2305968e-38
-0.025709128 0.098689876 0.94599998 1.3224324e-38
-0.022391818 0.097031213 0.94599998 1.294883e-38
-0.049518805 0.10097212 0.94666672 1.2305961e-38
-0.046467274 0.1028913 0.94649994 1.2489629e-38
-0.042710323 0.10325117 0.94599998 1.2765135e-38
-0.038149022 0.1028365 0.94599998 1.2673321e-38
-0.033816289 0.10263662 0.94742858 1.3040649e-38
-0.029887319 0.10128567 0.94700003 1.313248e-38
-0.026594561 0.10056067 0.94800001 1.3224323e-38
-0.044878319 0.10554716 0.94800001 1.2489627e-38
-0.041466333 0.10532448 0.94599998 1.2673303e-38
-0.038229678 0.10554716 0.94800001 1.2673328e-38
-0.061694533 0.090874381 0.95099998 9.8332574e-39
-0.058359694 0.093375519 0.95099998 1.1571317e-38
-0.01417307 0.093097612 0.95099998 1.1388702e-38
-0.053357437 0.098377779 0.95099998 1.230597e-38
-0.021676458 0.098377779 0.95099998 1.2856988e-38
-0.052523725 0.1008789 0.95099998 1.2305972e-38
-0.025845008 0.10171261 0.95099998 1.3224323e-38
-0.049188886 0.10421374 0.95099998 1.2489627e-38
-0.045854047 0.10671487 0.95099998 1.2397792e-38
-0.041685499 0.10754858 0.95099998 1.2305959e-38
-0.038350657 0.10754858 0.95099998 1.2397807e-38
-0.034182109 0.10588118 0.95099998 1.2765138e-38
-0.030847268 0.10421374 0.95099998 1.2948808e-38
-0.065234512 0.087815695 0.954 9.9452338e-39
-0.065269142 0.090372503 0.95449996 9.7619173e-39
-0.064533181 0.093866453 0.95599997 8.8403352e-39
-0.061889157 0.093670078 0.954 9.6484906e-39
-0.05938014 0.09450642 0.954 1.1571316e-38
-0.013381439 0.09450642 0.954 1.1023159e-38
-0.062018901 0.096380726 0.95599997 9.5570055e-39
-0.057509329 0.097989112 0.95533335 1.1663132e-38
-0.054362096 0.099524453 0.954 1.2305961e-38
-0.020908499 0.099524453 0.954 1.2856983e-38
-0.018418767 0.097955219 0.95499998 1.248963e-38
-0.015907116 0.097118005 0.95499998 1.2030475e-38
-0.056152247 0.10140929 0.95599997 1.2030461e-38
-0.053880513 0.10245486 0.95533335 1.2122302e-38
-0.051016737 0.10286982 0.954 1.2305983e-38
-0.025090199 0.10286982 0.954 1.2948812e-38
-0.022038233 0.10182541 0.95466661 1.2948832e-38
-0.052799877 0.10476166 0.95599997 1.2030461e-38
-0.050529312 0.10580607 0.95533335 1.2122288e-38
-0.046835039 0.10788786 0.954 1.2214125e-38
-0.034289937 0.10788786 0.954 1.2673301e-38
-0.029829461 0.10565762 0.954 1.2856972e-38
-0.025935013 0.10541594 0.95433331 1.2856979e-38
-0.022628518 0.10559975 0.95599997 1.2581484e-38
-0.045628745 0.11009443 0.95499992 1.2122292e-38
-0.04186083 0.11051348 0.95499998 1.2305959e-38
-0.037687317 0.11055176 0.95533335 1.2489633e-38
-0.033523731 0.11062831 0.95599997 1.2489633e-38
-0.030171357 0.10895212 0.95599997 1.2673298e-38
-0.026818983 0.10811403 0.95599997 1.2856976e-38
-0.041904662 0.11314259 0.95599997 1.2214121e-38
-0.037378963 0.11381308 0.95599997 1.2305968e-38
-0.034361824 0.11314259 0.95599997 1.2305997e-38
-0.062213525 0.098364621 0.95899999 9.6506402e-39
-0.059691351 0.098364621 0.95899999 1.1387645e-38
-0.013451573 0.096683174 0.95899999 1.0839128e-38
-0.061372798 0.10004608 0.95899999 8.0836817e-39
-0.058850627 0.1008868 0.95899999 1.1295808e-38
-0.021018082 0.10340896 0.95899999 1.2856999e-38
-0.018495914 0.1008868 0.95899999 1.2305959e-38
-0.015973743 0.10004608 0.95899999 1.1663135e-38
-0.05380629 0.10593113 0.95899999 1.1938616e-38
-0.021018082 0.10509041 0.95899999 1.2673321e-38
-0.0504434 0.1084533 0.95899999 1.212229e-38
-0.047080502 0.1118162 0.95899999 1.2214121e-38
-0.030266037 0.1118162 0.95899999 1.2765134e-38
-0.02564206 0.10971439 0.95899999 1.2765138e-38
-0.022699529 0.1084533 0.95899999 1.2305962e-38
-0.044558335 0.11433837 0.95899999 1.1938615e-38
-0.042036165 0.11517908 0.95899999 1.1938615e-38
-0.039513994 0.11517908 0.95899999 1.1938615e-38
-0.033348694 0.11461861 0.95899999 1.2305966e-38
-0.031106761 0.11349764 0.95899999 1.2397805e-38
-0.042036165 0.11686053 0.95899999 1.1938615e-38
-0.037832551 0.11686053 0.95899999 1.203045e-38
-0.034469657 0.11686053 0.95899999 1.2305956e-38
-0.013493653 0.098672338 0.96200001 1.065546e-38
-0.060002569 0.1022579 0.96399999 1.1203968e-38
-0.057408515 0.10384029 0.963 1.1663137e-38
-0.017373078 0.10305778 0.96200001 1.1938636e-38
-0.013684767 0.10187813 0.96359998 1.065439e-38
-0.010986386 0.10056768 0.96399999 1.4720716e-38
-0.05662214 0.10563833 0.96399999 1.1938616e-38
-0.054817967 0.10710587 0.96200001 1.1479437e-38
-0.021083834 0.10710587 0.96200001 1.239781e-38
-0.01815971 0.10600609 0.96349996 1.1938626e-38
-0.054031596 0.10890566 0.963 1.1663108e-38
-0.050601199 0.11047929 0.96200001 1.2122295e-38
-0.021949101 0.10974902 0.963 1.2489636e-38
-0.049413752 0.11360767 0.96349996 1.1938615e-38
-0.046384431 0.11469605 0.96200001 1.1938615e-38
-0.030100059 0.11505723 0.96266669 1.2489639e-38
-0.026742425 0.11344767 0.96333331 1.2765142e-38
-0.044697724 0.11722611 0.96200001 1.1938615e-38
-0.042167664 0.11891282 0.96200001 1.1938622e-38
-0.037950899 0.11891282 0.96200007 1.1938615e-38
-0.033475809 0.11843298 0.96266669 1.2122288e-38
-0.031268943 0.11831493 0.96399999 1.2305963e-38
-0.042255331 0.12085025 0.96399999 1.1938622e-38
-0.038029801 0.12085025 0.96399999 1.1938615e-38
-0.034649372 0.12085025 0.96399999 1.203045e-38
-0.060189299 0.10427161 0.96700001 1.1295811e-38
-0.057646088 0.10681482 0.96700001 1.1479438e-38
-0.017802469 0.10766255 0.96700001 1.2030463e-38
-0.012716049 0.10427161 0.96700001 8.821995e-39
-0.056798354 0.10935803 0.96700001 1.1479437e-38
-0.054255143 0.1110535 0.96700001 1.1663111e-38
-0.021193415 0.1110535 0.96700001 1.2489636e-38
-0.053407408 0.11274898 0.96700001 1.1846779e-38
-0.050864197 0.11444444 0.96700001 1.1754944e-38
-0.024584362 0.11444444 0.96700001 1.2581467e-38
-0.02288889 0.11359671 0.96700001 1.2489639e-38
-0.050016463 0.11670508 0.96700001 1.1571278e-38
-0.046060361 0.11896571 0.96700001 1.1754944e-38
-0.029670782 0.11868313 0.96700001 1.2489654e-38
-0.027127571 0.11698765 0.96700001 1.2489656e-38
-0.04238683 0.12292181 0.96700001 1.193863e-38
-0.03814815 0.12292181 0.96700001 1.184678e-38
-0.033909462 0.12207408 0.96700001 1.203045e-38
-0.060376033 0.10629583 0.97000003 1.1112095e-38
-0.058675297 0.10799656 0.97000003 1.1112095e-38
-0.016156966 0.10799656 0.97000003 1.1295766e-38
-0.013605866 0.10629583 0.97000003 1.0472866e-38
-0.056974567 0.11139803 0.97000003 1.1387606e-38
-0.018991522 0.11026421 0.97000003 1.1938624e-38
-0.054706924 0.11423258 0.97000003 1.1479438e-38
-0.021259166 0.11309877 0.97000003 1.2489639e-38
-0.053573098 0.11650023 0.97000003 1.1387616e-38
-0.050171632 0.11905134 0.97000003 1.1387611e-38
-0.028062101 0.1199017 0.97000003 1.2489647e-38
-0.025511 0.11735059 0.97000003 1.2305975e-38
-0.022959899 0.11650023 0.97000003 1.2030454e-38
-0.045636341 0.12216934 0.97000003 1.1663108e-38
-0.030613199 0.12160243 0.97000003 1.2305966e-38
-0.042518333 0.1250039 0.97000003 1.1663108e-38
-0.038266502 0.1250039 0.97000003 1.1938619e-38
-0.034865033 0.1250039 0.97000003 1.1846782e-38
-0.062268753 0.10321259 0.97299999 7.5333805e-39
-0.064106248 0.10598899 0.97500002 1.1127927e-38
-0.062268753 0.10577159 0.97299999 7.5319456e-39
-0.060625002 0.10929666 0.97399998 1.0836589e-38
-0.058917258 0.11100441 0.97399998 1.1020279e-38
-0.016786706 0.11125046 0.97366667 1.1479458e-38
-0.013647947 0.10833057 0.97299999 1.0565418e-38
-0.057209514 0.11441989 0.97399998 1.129577e-38
-0.021324914 0.11515454 0.97299999 1.2305965e-38
-0.019062532 0.11409494 0.97366667 1.2030465e-38
-0.054914109 0.11807911 0.97366667 1.1295783e-38
-0.024736902 0.11856653 0.97299999 1.2305973e-38
-0.021922803 0.11815917 0.97433341 1.2030453e-38
-0.019659251 0.1179555 0.97500002 1.1387606e-38
-0.052780773 0.12178776 0.97419995 1.1112108e-38
-0.04952465 0.12295863 0.97399998 1.1295766e-38
-0.046914816 0.1236845 0.97299999 1.1663108e-38
-0.033266868 0.1236845 0.97299999 1.2030451e-38
-0.029442849 0.12332157 0.97350001 1.2030458e-38
-0.025624966 0.12214684 0.97433329 1.2214132e-38
-0.023078252 0.12222925 0.97500008 1.1663108e-38
-0.052139752 0.12650299 0.97500002 1.1020264e-38
-0.0495755 0.12650299 0.97500002 1.1112095e-38
-0.046110034 0.12637326 0.97399998 1.1295766e-38
-0.041796833 0.1270965 0.97299999 1.1754951e-38
-0.037569545 0.12722713 0.97399998 1.1938622e-38
-0.03388229 0.12670201 0.97433329 1.184678e-38
-0.030343624 0.12607563 0.97500002 1.193862e-38
-0.026497249 0.12564825 0.97500002 1.1938627e-38
-0.048720747 0.12906726 0.97500002 1.1112095e-38
-0.045871586 0.12963709 0.97500008 1.1112095e-38
-0.042310126 0.12949464 0.97500002 1.1571284e-38
-0.037608996 0.12906726 0.97500002 1.1663126e-38
-0.035044752 0.12906726 0.97500002 1.1846779e-38
-0.062588736 0.10888726 0.97799999 6.8891098e-39
-0.01371808 0.11060201 0.97799999 1.047466e-38
-0.060873974 0.11317416 0.97799999 1.0836612e-38
-0.059159219 0.11488892 0.97799999 1.074476e-38
-0.016861806 0.11517471 0.97800004 1.1295795e-38
-0.057444457 0.11831843 0.97799999 1.1203935e-38
-0.01800498 0.11831843 0.97799999 1.1387606e-38
-0.057444457 0.12089057 0.97799999 1.1112112e-38
-0.055729698 0.12174796 0.97799999 1.0928438e-38
-0.021434499 0.12174796 0.97799999 1.1754944e-38
-0.019148152 0.12146217 0.97800004 1.1387609e-38
-0.054443628 0.12560616 0.97799999 1.0928431e-38
-0.029150918 0.12774962 0.97799999 1.1938627e-38
-0.025435604 0.12717804 0.97800004 1.18468e-38
-0.022577673 0.12603486 0.97800004 1.1479443e-38
-0.019719739 0.12432009 0.97799999 1.129577e-38
-0.053157557 0.12946437 0.97799999 1.0744753e-38
-0.050013833 0.13060755 0.97800004 1.102026e-38
-0.047155898 0.13117914 0.97799999 1.1112095e-38
-0.041154236 0.13117914 0.97799999 1.157128e-38
-0.037724718 0.13117914 0.97799999 1.1387606e-38
-0.034009404 0.13060755 0.97800004 1.1663108e-38
-0.030351251 0.13015029 0.97799999 1.1938619e-38
-0.045441139 0.13375127 0.97799999 1.0836589e-38
-0.042011619 0.13375127 0.97800004 1.1112098e-38
-0.038010515 0.13346548 0.97800004 1.1112095e-38
-0.064698003 0.11041792 0.98400003 1.1130821e-38
-0.062780723 0.11094129 0.98100001 6.8901747e-39
-0.064698003 0.11386848 0.98400003 1.1040402e-38
-0.062780723 0.11352132 0.98100001 7.1681924e-39
-0.01376016 0.11352132 0.98100001 1.0567227e-38
-0.06207896 0.1181225 0.98350012 8.5421557e-39
-0.059340689 0.11868137 0.98100001 1.0652918e-38
-0.016340189 0.11868137 0.98100001 1.0561099e-38
-0.01377331 0.11794235 0.98200005 1.093673e-38
-0.062110074 0.12163224 0.98400003 8.0844131e-39
-0.058888327 0.12265706 0.98300004 1.0652922e-38
-0.016930185 0.12253346 0.98200005 1.074478e-38
-0.01466488 0.12163224 0.98400003 1.1663158e-38
-0.057620667 0.12556145 0.98100001 1.0836597e-38
-0.055900648 0.12642147 0.98100001 1.0744754e-38
-0.021500248 0.12642147 0.98100001 1.1479445e-38
-0.018072702 0.1256568 0.98175001 1.0836597e-38
-0.057163052 0.13012803 0.98300004 1.0377415e-38
-0.054610632 0.13029152 0.98100001 1.0561083e-38
-0.028380331 0.13158153 0.98100001 1.1938619e-38
-0.025800299 0.13072151 0.98100001 1.1571309e-38
-0.022394449 0.13006139 0.98250002 1.1295776e-38
-0.019245464 0.12897784 0.98300004 1.1112099e-38
-0.05262104 0.13370919 0.98400003 1.0469247e-38
-0.049956851 0.13436802 0.98250002 1.0744753e-38
-0.047372878 0.13436802 0.98250002 1.0836589e-38
-0.036980428 0.13502157 0.98100001 1.1112095e-38
-0.034400396 0.13416156 0.98100001 1.1387602e-38
-0.030144621 0.13436714 0.98250008 1.1571274e-38
-0.025879201 0.13370919 0.98400003 1.1663121e-38
-0.045719918 0.13715976 0.98400003 1.0744775e-38
-0.042204928 0.13781333 0.98250002 1.1020261e-38
-0.037898302 0.13781331 0.98250002 1.1112095e-38
-0.034505598 0.13715976 0.98400003 1.1203932e-38
-0.031055041 0.13715976 0.98400003 1.1387607e-38
-0.041406717 0.14061031 0.98400003 1.102026e-38
-0.066625789 0.11161982 0.98699999 9.2109254e-39
-0.066625789 0.11421563 0.98699999 9.3949593e-39
-0.010383239 0.1150809 0.98699999 1.20625e-38
-0.06489525 0.11767671 0.98699999 1.0671308e-38
-0.010383239 0.11681144 0.98699999 1.1971378e-38
-0.06489525 0.12113778 0.98699999 1.1042973e-38
-0.062299438 0.1237336 0.98699999 8.0844117e-39
-0.014709589 0.1237336 0.98699999 1.2953191e-38
-0.062299438 0.12546416 0.98699999 7.9000219e-39
-0.059703626 0.12632942 0.98699999 1.0285576e-38
-0.016440129 0.12719469 0.98699999 1.0193753e-38
-0.014709589 0.12632942 0.98699999 1.2494346e-38
-0.05364674 0.13498211 0.98699999 1.0469248e-38
-0.025958098 0.13584739 0.98699999 1.1295773e-38
-0.022497017 0.13325158 0.98699999 1.129577e-38
-0.050185658 0.13757792 0.98699999 1.0744757e-38
-0.047013 0.13873163 0.98699999 1.0836598e-38
-0.033745527 0.13930848 0.98699999 1.102026e-38
-0.029130755 0.13873163 0.98699999 1.1387609e-38
-0.025958098 0.13757792 0.98699999 1.1295773e-38
-0.044994038 0.141039 0.98699999 1.0836589e-38
-0.041532956 0.14276955 0.98699999 1.0836594e-38
-0.038360305 0.14161585 0.98699999 1.0928425e-38
-0.068494841 0.11184601 0.98900002 9.9488492e-39
-0.068494841 0.11358006 0.98900002 1.0500951e-38
-0.066760793 0.11704814 0.98900002 8.8435708e-39
-0.066182777 0.12340631 0.98900002 1.0408013e-38
-0.01300535 0.12225029 0.98900002 9.4745545e-39
-0.011271304 0.12138326 0.98900002 1.3162384e-38
-0.065738015 0.12655239 0.99100006 1.0587738e-38
-0.062425677 0.12745243 0.98900002 7.8993058e-39
-0.0130448 0.12436043 0.99199998 8.831699e-39
-0.011305492 0.12436043 0.99199998 1.261172e-38
-0.061745383 0.12957834 0.99199998 9.8263981e-39
-0.059824612 0.13005349 0.98900002 1.0101905e-38
-0.017365452 0.13024943 0.99049997 1.0744775e-38
-0.056356516 0.13438861 0.98900002 1.0193746e-38
-0.020838805 0.13459244 0.99049997 1.1020265e-38
-0.019102126 0.13285576 0.99049997 1.1112112e-38
-0.056527462 0.13653557 0.99199998 1.0193746e-38
-0.053796869 0.13796125 0.98975003 1.0377412e-38
-0.050287351 0.13959076 0.98900002 1.065292e-38
-0.0260107 0.13959076 0.98900002 1.138761e-38
-0.022992555 0.13752642 0.98975003 1.1112101e-38
-0.053918503 0.14088383 0.99199998 1.019374e-38
-0.050363619 0.14240879 0.99049997 1.0377411e-38
-0.046385746 0.14262533 0.98900002 1.0652918e-38
-0.037282001 0.14305884 0.98900002 1.0928424e-38
-0.033865191 0.14240882 0.99050009 1.102026e-38
-0.029523501 0.14240879 0.99049997 1.129577e-38
-0.026352307 0.14219037 0.99100006 1.1112106e-38
-0.046091627 0.14523211 0.99199998 1.0469247e-38
-0.04174336 0.1452321 0.99199998 1.0744771e-38
-0.038264744 0.1452321 0.99199998 1.0469259e-38
-0.033046823 0.1452321 0.99199998 1.1112095e-38
-0.030437866 0.1452321 0.99199998 1.1112099e-38
-0.01308425 0.12648107 0.995 8.5562009e-39
-0.011339683 0.12648107 0.995 1.2613169e-38
-0.016573383 0.13171478 0.995 1.0193786e-38
-0.01308425 0.12822564 0.995 9.018628e-39
-0.011339683 0.12822564 0.995 1.2798647e-38
-0.017154906 0.1346224 0.99500006 1.0010106e-38
-0.056698415 0.13869305 0.995 1.0101905e-38
-0.020644039 0.13811153 0.99500006 1.0836601e-38
-0.054081567 0.14305446 0.995 1.0010069e-38
-0.025296215 0.14392674 0.995 1.0928439e-38
-0.022679366 0.14130989 0.995 1.0928427e-38
-0.049720149 0.14567131 0.995 9.9182546e-39
-0.046231017 0.14741588 0.99500006 1.0193741e-38
-0.041869599 0.14741588 0.995 1.0561099e-38
-0.038380466 0.14741588 0.995 1.0652932e-38
-0.035763618 0.14654359 0.995 1.0744753e-38
-0.028785348 0.14567131 0.995 1.1295773e-38
-0.063868672 0.13036209 0.99800003 5.6963455e-39
-0.014873526 0.13036209 0.99800003 1.2124862e-38
-0.060369018 0.13473666 0.99800003 1.0010083e-38
-0.058619194 0.13473666 0.99800003 1.0193746e-38
-0.014873526 0.13298681 0.99800003 1.1572419e-38
-0.058619194 0.13823631 0.99800003 1.0010072e-38
-0.017789904 0.13794467 0.99800003 9.9182518e-39
-0.057452641 0.14144433 0.99800003 9.7345626e-39
-0.021872833 0.14261088 0.99800003 1.0836593e-38
-0.054244623 0.1452356 0.99800003 9.8263981e-39
-0.050744973 0.14698544 0.99800003 9.9182448e-39
-0.033246703 0.14786035 0.99800003 1.1112095e-38
-0.029747054 0.14786035 0.99800003 1.1112099e-38
-0.026247401 0.14611052 0.99800003 1.0928465e-38
-0.02362266 0.14436069 0.99800003 1.0928432e-38
-0.048120234 0.14961018 0.99800003 1.0010069e-38
-0.045495495 0.14961018 0.99800003 1.019374e-38
-0.041995838 0.15048508 0.99800003 1.0469254e-38
-0.038496189 0.1504851 0.99800003 1.0561088e-38
-0.034996532 0.14961018 0.99800003 1.0744753e-38
-0.065815754 0.13075395 1.001 1.0490517e-38
-0.013163149 0.13075395 1.001 9.7525665e-39
-0.011408064 0.13075395 1.001 1.3347837e-38
-0.064252652 0.13378634 1.0039999 5.3297238e-39
-0.062305581 0.13338658 1.001 9.6427271e-39
-0.013163149 0.13338658 1.001 9.8461746e-39
-0.011425158 0.13358778 1.0025001 1.288863e-38
-0.061521392 0.13797943 1.0025001 9.0917267e-39
-0.016673323 0.13952939 1.001 8.3570582e-39
-0.01436126 0.13687776 1.003 9.9247538e-39
-0.060550489 0.14128448 1.001 8.6325366e-39
-0.058795404 0.14303957 1.001 9.5508916e-39
-0.020213742 0.14237636 1.0025001 1.0469251e-38
-0.017603464 0.1417079 1.0039999 9.4590631e-39
-0.057684079 0.14552432 1.0020001 8.7243847e-39
-0.05528523 0.14654973 1.001 9.7345626e-39
-0.022567444 0.14625576 1.003 1.0377414e-38
-0.054223876 0.14918791 1.003 8.8162076e-39
-0.050458744 0.15005991 1.001 9.2753893e-39
-0.045632251 0.151815 1.001 1.0377414e-38
-0.033785418 0.15137622 1.001 1.065292e-38
-0.029879866 0.15028477 1.0025001 1.0469247e-38
-0.026671415 0.14918791 1.003 1.0561107e-38
-0.023764677 0.14874928 1.0039999 8.5407011e-39
-0.042122081 0.15444762 1.001 6.9802418e-39
-0.038611908 0.15444763 1.001 7.0720717e-39
-0.06621024 0.13330328 1.007 1.030613e-38
-0.064444639 0.1368345 1.007 5.5141235e-39
-0.013242049 0.13860011 1.007 7.8229393e-39
-0.060913429 0.14389692 1.007 7.9897106e-39
-0.018538868 0.14389692 1.007 1.0193753e-38
-0.015007655 0.14036572 1.007 1.1210819e-38
-0.020304475 0.14566255 1.007 9.183579e-39
-0.066407494 0.1354713 1.01 9.4803292e-39
-0.06552206 0.1381276 1.01 7.4505918e-39
-0.062865764 0.14166933 1.01 8.2651975e-39
-0.017708667 0.14521106 1.01 8.1733788e-39
-0.066604748 0.13942593 1.013 9.4792544e-39
-0.064828619 0.14120206 1.013 5.148215e-39
-0.014209013 0.14209013 1.013 9.1039853e-39
-0.068583384 0.13449469 1.016 9.3992445e-39
-0.068684638 0.13737059 1.0175 8.9379118e-39
