# .PCD v0.7 - Point Cloud Data file format
VERSION 0.7
FIELDS x y z rgb
SIZE 4 4 4 4
TYPE F F F F
COUNT 1 1 1 1
WIDTH 873
HEIGHT 1
VIEWPOINT 0 0 0 1 0 0 0
POINTS 873
DATA ascii
-0.21018082 0.20711249 0.875 1.4610907e-38
-0.20634541 0.20711249 0.875 1.6086384e-38
-0.20212644 0.20749602 0.875 1.8309872e-38
-0.19790749 0.20787957 0.875 1.9049965e-38
-0.19483915 0.20787957 0.875 1.6834791e-38
-0.21299347 0.21043651 0.875 1.6355043e-38
-0.20993166 0.21054395 0.87460005 1.6553134e-38
-0.20608377 0.21067889 0.87388897 1.840209e-38
-0.20191675 0.21045224 0.8738572 1.8499683e-38
-0.19825532 0.2108973 0.87400007 1.6007521e-38
-0.19490315 0.21054395 0.87460005 1.4889315e-38
-0.21785164 0.21401624 0.875 1.2581869e-38
-0.21401624 0.21401623 0.875 1.2950265e-38
-0.21014278 0.21412671 0.87420005 1.8117557e-38
-0.20587377 0.21429241 0.87300009 1.7575912e-38
-0.20204712 0.21429241 0.87300003 1.5083393e-38
-0.19822048 0.21429239 0.87300009 1.2859894e-38
-0.19354762 0.21383983 0.87350005 1.2765205e-38
-0.19009113 0.21385261 0.87433338 1.2673348e-38
-0.18793541 0.21555041 0.875 1.2305987e-38
-0.22066431 0.21810734 0.875 1.3869728e-38
-0.21785165 0.21785165 0.875 1.3132521e-38
-0.21401624 0.21785164 0.875 1.2030486e-38
-0.20974024 0.21801209 0.87379998 1.3686732e-38
-0.20587376 0.21811904 0.87300009 1.4336114e-38
-0.20204714 0.21811906 0.87300009 1.2675162e-38
-0.19822049 0.21811904 0.87300009 1.2765186e-38
-0.19397341 0.21782449 0.87357157 1.2305999e-38
-0.19012752 0.21772762 0.87450004 1.2305979e-38
-0.18793541 0.21785165 0.875 1.21223e-38
-0.22092001 0.22168708 0.875 1.350706e-38
-0.21785167 0.22168708 0.875 1.2859177e-38
-0.21401624 0.22168708 0.875 1.1754977e-38
-0.21033423 0.22199392 0.875 1.1295791e-38
-0.20587377 0.22194569 0.87300009 1.1939004e-38
-0.20204712 0.2219457 0.87300003 1.221417e-38
-0.19822049 0.22194569 0.87300009 1.1846813e-38
-0.1938803 0.22187886 0.875 1.1571301e-38
-0.19023666 0.22168708 0.875 1.1479457e-38
-0.18793541 0.22168708 0.875 1.129578e-38
-0.22076659 0.22598274 0.875 1.2677657e-38
-0.21785164 0.22628956 0.875 1.2309223e-38
-0.21420801 0.22609779 0.875 1.1387988e-38
-0.21023457 0.2262117 0.8738572 1.0377421e-38
-0.20587376 0.22577235 0.87300009 1.0652934e-38
-0.20204714 0.22577235 0.87300009 1.1295794e-38
-0.19822049 0.22577235 0.87300009 1.120396e-38
-0.19426383 0.22609781 0.875 1.0836601e-38
-0.19100374 0.22552249 0.875 1.0928435e-38
-0.21759596 0.22986931 0.875 1.1020275e-38
-0.21478333 0.230125 0.875 1.1020278e-38
-0.21071693 0.23023896 0.87325007 1.0194127e-38
-0.20587377 0.229599 0.87300009 9.5509042e-39
-0.20204714 0.23036432 0.87300009 1.0101905e-38
-0.19844636 0.22986227 0.87400007 1.0652923e-38
-0.19560625 0.230125 0.875 1.0469263e-38
-0.24212217 0.23522544 0.87400001 1.1034324e-38
-0.23954828 0.23495631 0.87300003 1.2413286e-38
-0.21708457 0.23242624 0.875 9.7345626e-39
-0.21445458 0.23417957 0.87500006 9.0920771e-39
-0.21027523 0.23403785 0.87433338 9.092461e-39
-0.20634539 0.23396042 0.875 7.989691e-39
-0.20174292 0.23421609 0.875 9.4590561e-39
-0.19790749 0.23319332 0.875 1.0193741e-38
-0.19560625 0.23242624 0.875 1.0377436e-38
-0.24930207 0.23856291 0.875 8.6530727e-39
-0.24585021 0.23817936 0.875 1.3333456e-38
-0.24182761 0.23784089 0.87460005 1.2128814e-38
-0.23954828 0.23648697 0.87300003 1.3969832e-38
-0.21324916 0.23702873 0.875 8.0815321e-39
-0.2109479 0.23702873 0.875 7.9915113e-39
-0.25006917 0.24163124 0.875 1.0578378e-38
-0.24623373 0.24163122 0.875 1.1853282e-38
-0.24255173 0.24132441 0.875 9.4601687e-39
-0.24981348 0.24521098 0.875 6.6290666e-39
-0.24623373 0.24546665 0.875 7.4559434e-39
-0.2431654 0.24546665 0.875 7.5524536e-39
-0.21292479 0.20289573 0.88 1.672925e-38
-0.21001463 0.20354271 0.87880003 1.5895902e-38
-0.20610224 0.20332706 0.8792001 1.5338783e-38
-0.21772864 0.20641729 0.87966669 1.5342717e-38
-0.21414278 0.20566836 0.87866676 1.6084226e-38
-0.21013175 0.20551346 0.87800002 1.4698428e-38
-0.20566833 0.20515519 0.87866676 1.5061837e-38
-0.202126 0.20564622 0.87857157 1.6545927e-38
-0.19790506 0.20599759 0.87925005 1.904493e-38
-0.19356421 0.20667446 0.87966669 1.8127296e-38
-0.19055226 0.20675305 0.88 1.664786e-38
-0.22192524 0.21009609 0.88 1.2031589e-38
-0.21793953 0.21023734 0.87844455 1.2581492e-38
-0.21423689 0.20910546 0.87800002 1.5156147e-38
-0.19319806 0.21013175 0.87800002 1.4796395e-38
-0.19052726 0.21017775 0.87900007 1.3500961e-38
-0.2250111 0.21472488 0.88 1.4791333e-38
-0.22201467 0.21353379 0.87933344 1.3871189e-38
-0.18886614 0.21353321 0.87933338 1.2673343e-38
-0.18746638 0.21446773 0.88 1.2489661e-38
-0.22912557 0.21986799 0.88 7.9896882e-39
-0.2264806 0.21810463 0.88000011 1.424354e-38
-0.22275503 0.21752098 0.87800008 1.4056268e-38
-0.18659358 0.21833591 0.87880003 1.1754963e-38
-0.22912557 0.22218239 0.88 4.8673009e-39
-0.2268112 0.22218239 0.88 1.1391925e-38
-0.22398657 0.22244714 0.87800002 1.3138633e-38
-0.18659358 0.22234125 0.87880003 1.1203932e-38
-0.23221146 0.22758266 0.88 9.9305062e-39
-0.22963989 0.22655404 0.88 1.0935624e-38
-0.22681122 0.22603974 0.88000005 1.1391944e-38
-0.22398657 0.22629571 0.87800002 1.1938665e-38
-0.18934947 0.22629571 0.87800002 1.0836597e-38
-0.18645541 0.22624557 0.87959999 1.0744757e-38
-0.23707171 0.23168372 0.87800002 1.1403118e-38
-0.23221146 0.22912557 0.88 1.1675015e-38
-0.22989705 0.22912557 0.88 1.1949787e-38
-0.22603974 0.22963989 0.88 1.0570804e-38
-0.22213927 0.22983639 0.87800008 9.4590687e-39
-0.21936829 0.23168372 0.87800002 9.8263981e-39
-0.1938138 0.23045218 0.87800008 1.0377419e-38
-0.19058557 0.23000301 0.87914294 1.0377422e-38
-0.18746638 0.22912557 0.88 1.0101933e-38
-0.23753355 0.23414679 0.87800008 1.3880158e-38
-0.23529732 0.23452586 0.88 1.3694345e-38
-0.22192523 0.2337544 0.88 7.0713346e-39
-0.21885514 0.23424941 0.87800002 7.5305135e-39
-0.19627689 0.23476256 0.87800002 1.0101906e-38
-0.19349086 0.23434876 0.87933338 9.9182392e-39
-0.1897808 0.23221146 0.88 9.9182378e-39
-0.23784143 0.23784143 0.87800014 1.0379966e-38
-0.23452586 0.23761174 0.88 8.7244058e-39
-0.21833663 0.23744166 0.87880003 6.4284875e-39
-0.21292479 0.23992611 0.88 6.7039912e-39
-0.20977816 0.23853633 0.87866676 6.9795089e-39
-0.20574665 0.23888376 0.87900001 6.2448151e-39
-0.20216414 0.23759201 0.87850004 8.5407011e-39
-0.19857852 0.23800901 0.87942863 9.4590561e-39
-0.19518106 0.23684026 0.88 9.918235e-39
-0.24130513 0.24284455 0.87800002 7.9018366e-39
-0.23807462 0.24208622 0.88000005 7.4412382e-39
-0.21215333 0.24146906 0.88 5.0509607e-39
-0.21061039 0.24146906 0.88 3.6734198e-39
-0.24224052 0.24609786 0.88 7.6424884e-39
-0.21727481 0.19871753 0.88200003 1.6442961e-38
-0.21418194 0.19871753 0.88200009 1.6081356e-38
-0.21031584 0.19871753 0.88200003 1.6452289e-38
-0.2203677 0.20335685 0.88200003 1.80106e-38
-0.21766141 0.20219703 0.88200003 1.6359036e-38
-0.21440287 0.20136859 0.88200009 1.6541977e-38
-0.21031584 0.2010372 0.88200003 1.7006546e-38
-0.20644975 0.20181042 0.88200009 1.6086748e-38
-0.2018104 0.20258364 0.88200009 1.5156167e-38
-0.19794433 0.2018104 0.88200009 1.6079925e-38
-0.19429916 0.20225225 0.88200009 1.7746629e-38
-0.19021213 0.20258364 0.88200003 1.9691723e-38
-0.18665531 0.20273829 0.88200009 1.877231e-38
-0.18325314 0.20335685 0.88200003 1.4252565e-38
-0.22088318 0.20644975 0.88200009 1.4514689e-38
-0.21882126 0.2049033 0.88200003 1.6822542e-38
-0.20026398 0.2049033 0.88200003 1.6451946e-38
-0.19407824 0.2049033 0.88200009 1.9508792e-38
-0.18982551 0.20606314 0.88200003 1.7203902e-38
-0.18634601 0.20644975 0.88200003 1.4704556e-38
-0.18263458 0.20675902 0.88200009 1.32269e-38
-0.22887312 0.21108906 0.88200003 1.5166926e-38
-0.2255225 0.21057358 0.88200009 1.4982909e-38
-0.22346058 0.20954262 0.88200003 1.0652944e-38
-0.18634602 0.21031582 0.88200009 1.3316185e-38
-0.18247992 0.21031584 0.88200003 1.2857003e-38
-0.22945304 0.21437526 0.88200003 1.4792744e-38
-0.22603798 0.21315098 0.88200009 1.525554e-38
-0.18590419 0.21396102 0.88200009 1.2581494e-38
-0.18263458 0.21387266 0.88200009 1.2305979e-38
-0.23041956 0.21804804 0.88200003 1.139228e-38
-0.18531506 0.21779029 0.88200009 1.1846796e-38
-0.18325314 0.21804804 0.88200003 1.1754956e-38
-0.23273921 0.22114092 0.88200003 4.6954751e-39
-0.23119278 0.22114092 0.88200003 7.072443e-39
-0.1847996 0.22191414 0.88200009 1.1203933e-38
-0.18325314 0.22114092 0.88200003 1.1295769e-38
-0.18479958 0.22578023 0.88200003 1.0836589e-38
-0.23428565 0.2311928 0.88200009 1.213563e-38
-0.22964635 0.2311928 0.88200009 1.1025328e-38
-0.22655344 0.23119278 0.88200003 8.7243988e-39
-0.18634602 0.23003295 0.88200003 1.0010094e-38
-0.23384382 0.23406474 0.88200009 1.1760375e-38
-0.22964634 0.23428565 0.88200003 8.9095201e-39
-0.22539362 0.23389904 0.88200003 6.9794991e-39
-0.22346058 0.23505887 0.88200003 6.7958267e-39
-0.19021213 0.23505887 0.88200003 9.6427299e-39
-0.18711925 0.23428564 0.88200009 8.5407152e-39
-0.23273921 0.23815176 0.88200003 8.9088166e-39
-0.23041956 0.23737854 0.88200003 7.5305485e-39
-0.22500703 0.23815176 0.88200003 5.6026883e-39
-0.22268736 0.23815176 0.88200003 5.1427892e-39
-0.19717109 0.23892497 0.88200003 8.9998786e-39
-0.19376893 0.23830639 0.88200009 9.2753921e-39
-0.19021213 0.23815176 0.88200003 6.0611427e-39
-0.18789245 0.23815176 0.88200003 2.8469102e-39
-0.24047141 0.24356431 0.88200003 7.2572084e-39
-0.2358321 0.24047141 0.88200003 9.3765715e-39
-0.21804804 0.24047141 0.88200003 5.6019653e-39
-0.21495515 0.24124464 0.88200003 6.6121613e-39
-0.20954262 0.24047141 0.88200003 4.4081108e-39
-0.20799617 0.24047141 0.88200003 4.1326001e-39
-0.20181042 0.24098691 0.88200009 8.1733592e-39
-0.1975577 0.24201787 0.88200003 7.5305135e-39
-0.19429916 0.24157603 0.88200009 5.1427878e-39
-0.19098534 0.24047141 0.88200003 3.3060779e-39
-0.24047141 0.24511072 0.88200003 7.4433948e-39
-0.23892497 0.24511072 0.88200003 7.1668093e-39
-0.21772893 0.19517843 0.88700002 1.3134355e-38
-0.21364653 0.19381762 0.88700002 1.4694827e-38
-0.22472736 0.19984405 0.88700002 1.4236359e-38
-0.22163448 0.1988762 0.88499999 1.4785944e-38
-0.21823552 0.19739841 0.88500011 1.5337685e-38
-0.2141346 0.1970659 0.88499999 1.5800089e-38
-0.21041314 0.19773158 0.88566673 1.6540892e-38
-0.20564359 0.19854008 0.88614291 1.7005825e-38
-0.20194922 0.19806413 0.88600004 1.6822155e-38
-0.19799078 0.19798961 0.88566673 1.6078852e-38
-0.19370805 0.19798179 0.8865 1.5888707e-38
-0.18988436 0.19831792 0.88614291 1.6539823e-38
-0.18572697 0.19816011 0.88642859 1.8209738e-38
-0.18211585 0.19831792 0.88614291 1.9415153e-38
-0.17807117 0.19906646 0.88700002 1.8219486e-38
-0.22472736 0.20217687 0.88700002 1.3408054e-38
-0.2220189 0.20183539 0.88550001 1.6350024e-38
-0.21956554 0.20172098 0.88499999 1.6172484e-38
-0.20870364 0.20094514 0.88499999 1.6545567e-38
-0.20560023 0.20094514 0.88499999 1.6361178e-38
-0.20172098 0.20094514 0.88499999 1.5434566e-38
-0.19396248 0.20094514 0.88499999 1.7826952e-38
-0.19008325 0.20094514 0.88499999 1.9230366e-38
-0.18594538 0.20146237 0.88499999 1.9788254e-38
-0.18232474 0.201721 0.88500011 1.7759954e-38
-0.17793617 0.20202492 0.88633335 1.3874787e-38
-0.22472736 0.20606488 0.88700002 1.046931e-38
-0.22266893 0.20560025 0.88499999 1.3132482e-38
-0.18139374 0.20528989 0.88500005 1.3408414e-38
-0.17784692 0.20580633 0.88588893 1.3316199e-38
-0.17496075 0.20684248 0.88700002 1.3316196e-38
-0.23353085 0.21180704 0.88499999 1.0215001e-38
-0.23042744 0.21077257 0.88499999 1.3239814e-38
-0.22594242 0.20937809 0.88566673 1.1668552e-38
-0.18077306 0.21025535 0.88499999 1.2948853e-38
-0.17796309 0.21017973 0.88550007 1.2765162e-38
-0.17496075 0.20995291 0.88700002 1.2581485e-38
-0.23353085 0.2141346 0.88499999 9.1007525e-39
-0.23197913 0.21335874 0.88499999 1.3132901e-38
-0.18077305 0.2141346 0.88499999 1.2397817e-38
-0.17761855 0.21400875 0.88585722 1.2122307e-38
-0.17496076 0.21384093 0.88700002 1.2122302e-38
-0.23415153 0.21770349 0.88500005 5.8843311e-39
-0.18154889 0.21801382 0.88500011 1.1663114e-38
-0.17806241 0.21778116 0.88585722 1.1479444e-38
-0.17496075 0.21772893 0.88700002 1.1479441e-38
-0.18154889 0.22189307 0.88499999 1.1112096e-38
-0.17910796 0.22161695 0.88700002 1.102026e-38
-0.18259826 0.2261125 0.88633335 1.0561082e-38
-0.18504941 0.23111825 0.88566673 9.8263981e-39
-0.18387644 0.22887576 0.88499999 1.019374e-38
-0.22732404 0.23508254 0.88499999 7.5305233e-39
-0.18504941 0.23370561 0.88566673 8.8162104e-39
-0.18387644 0.23508254 0.88499999 6.1529782e-39
-0.23003952 0.23934971 0.88499999 7.166075e-39
-0.22732405 0.23818593 0.88499999 6.5203426e-39
-0.18697985 0.23896179 0.88499999 2.479564e-39
-0.23457232 0.24156198 0.88600004 7.9972342e-39
-0.23059985 0.2414711 0.88566673 6.7072436e-39
-0.22563952 0.24195078 0.88599998 3.9492907e-39
-0.22172742 0.24254964 0.88620007 3.3979162e-39
-0.21723798 0.24284105 0.88499999 5.5101382e-39
-0.20947948 0.24284105 0.88499999 2.3877229e-39
-0.20560023 0.24284105 0.88499999 4.6836103e-39
-0.20249684 0.24284105 0.88499999 8.1733592e-39
-0.19008324 0.24128933 0.88499999 2.6632294e-39
-0.21351831 0.24457684 0.88566673 1.9285454e-39
-0.20094514 0.24439274 0.88499999 7.2550042e-39
-0.19813864 0.24579775 0.88633341 3.2142424e-39
-0.19473834 0.24439274 0.88499999 2.1122164e-39
-0.20855635 0.18668528 0.89099997 1.1590751e-38
-0.20621303 0.18668528 0.89099997 1.1489933e-38
-0.21324302 0.19137195 0.89099997 1.1308753e-38
-0.21011855 0.18980971 0.89099991 1.2865659e-38
-0.20660359 0.18941917 0.89099997 1.4051969e-38
-0.20230746 0.19137196 0.89099997 1.7181945e-38
-0.19762081 0.19137196 0.89099997 1.7002229e-38
-0.19371527 0.19137195 0.89099997 1.7556485e-38
-0.18980972 0.19137196 0.89099997 1.7742325e-38
-0.18590418 0.19137195 0.89099997 1.5897323e-38
-0.18356083 0.19137195 0.89099997 1.6071324e-38
-0.17731196 0.19137195 0.89099997 1.6171431e-38
-0.17574973 0.19137195 0.89099997 1.7093388e-38
-0.20980376 0.19420454 0.88966668 1.5706814e-38
-0.20590445 0.19420415 0.88966668 1.6814243e-38
-0.20200475 0.19420417 0.88966668 1.709478e-38
-0.19781269 0.19402273 0.88985711 1.7557911e-38
-0.19397368 0.19436291 0.88949996 1.6912551e-38
-0.18979108 0.19408193 0.88999993 1.5987722e-38
-0.18594012 0.19440621 0.88957143 1.6073815e-38
-0.18181665 0.19430117 0.89011109 1.7279551e-38
-0.1779598 0.19434969 0.89033329 1.8859813e-38
-0.17435434 0.19398718 0.89071429 1.7942544e-38
-0.17028196 0.19371527 0.89099997 1.7668098e-38
-0.16741791 0.19397566 0.89099997 1.6464545e-38
-0.20886758 0.19717722 0.889 1.6633801e-38
-0.20652951 0.19717722 0.889 1.7186617e-38
-0.18782495 0.19717722 0.889 1.6075951e-38
-0.18003137 0.19717722 0.889 1.97861e-38
-0.17769331 0.19717722 0.889 1.9972281e-38
-0.17379588 0.19759342 0.88999993 1.6003919e-38
-0.17028198 0.19762081 0.89099997 1.3599641e-38
-0.16715753 0.19762081 0.89099997 1.3316225e-38
-0.22964633 0.20308858 0.89099997 8.8266669e-39
-0.22679278 0.20263273 0.889 1.2489685e-38
-0.17379652 0.20185336 0.88900006 1.3319064e-38
-0.17021798 0.20223121 0.89066666 1.3591702e-38
-0.16715753 0.20230749 0.89099997 1.3224345e-38
-0.22964633 0.20621301 0.89099997 8.6472909e-39
-0.22679278 0.20575017 0.889 1.0928486e-38
-0.17348479 0.2055943 0.88900006 1.3132521e-38
-0.17018598 0.20609774 0.89050001 1.2673335e-38
-0.16715753 0.20621303 0.89099997 1.2305979e-38
-0.22904347 0.20928459 0.88966668 1.0207427e-38
-0.22679278 0.20808823 0.889 1.0836673e-38
-0.17301719 0.20964693 0.88900006 1.2397828e-38
-0.17028198 0.21011856 0.89099997 1.2122301e-38
-0.16731374 0.20980611 0.89099997 1.1846785e-38
-0.17317306 0.21401134 0.88900006 1.1846789e-38
-0.17028198 0.21402413 0.89099997 1.1846783e-38
-0.16793863 0.21324302 0.89099997 1.1387606e-38
-0.173172 0.21814428 0.89059991 1.1203935e-38
-0.17067252 0.21753912 0.89099997 1.1112096e-38
-0.1775662 0.22176366 0.88966668 1.102026e-38
-0.17509751 0.22140947 0.89033335 1.0928425e-38
-0.1802339 0.22626853 0.88999999 1.0285576e-38
-0.17809308 0.22574078 0.89099997 1.0285576e-38
-0.17574973 0.22417855 0.89099997 1.0377411e-38
-0.18172511 0.23034179 0.88966668 1.0010084e-38
-0.17835343 0.22938596 0.89099997 9.5509154e-39
-0.18470752 0.23458634 0.889 9.5512587e-39
-0.18277973 0.23433298 0.89099997 6.3366492e-39
-0.21120565 0.24549735 0.889 1.1938615e-39
-0.2038697 0.24604961 0.89099997 6.3366492e-39
-0.20455614 0.18731385 0.89399999 1.2403267e-38
-0.20220491 0.18731385 0.89399999 1.4785598e-38
-0.19985369 0.18731385 0.89399999 1.5520298e-38
-0.21396101 0.19044882 0.89399999 9.0157413e-39
-0.20507865 0.18992633 0.89399999 1.5521006e-38
-0.20220491 0.18966508 0.89399999 1.6075594e-38
-0.19828621 0.18966508 0.89399999 1.6814602e-38
-0.19358377 0.18966508 0.89399999 1.700223e-38
-0.18966508 0.18966508 0.89399999 1.737211e-38
-0.18574637 0.18966508 0.89399999 1.691004e-38
-0.18182766 0.19044882 0.89399999 1.5795798e-38
-0.17790899 0.19044882 0.89399999 1.6721347e-38
-0.17477401 0.19044882 0.89399999 1.7192035e-38
-0.16928783 0.19044882 0.89399999 2.0153418e-38
-0.16693661 0.19044882 0.89399999 2.0248142e-38
-0.20612361 0.19201629 0.89399999 1.6071286e-38
-0.18182766 0.19201629 0.89399999 1.5703954e-38
-0.17947645 0.19201629 0.89399999 1.699467e-38
-0.17399028 0.19201629 0.89399999 1.747436e-38
-0.17007157 0.19201629 0.89399999 1.9509495e-38
-0.16599613 0.19327028 0.89399999 1.6736449e-38
-0.16327915 0.19462876 0.89399999 1.3683912e-38
-0.16536914 0.19828622 0.89399999 1.3408016e-38
-0.16243011 0.19809026 0.89399999 1.3499863e-38
-0.16536914 0.20220491 0.89399999 1.3132508e-38
-0.1630179 0.20220491 0.89399999 1.2765166e-38
-0.16536914 0.20612362 0.89399999 1.2305979e-38
-0.16301791 0.20612362 0.89399999 1.2122305e-38
-0.16536914 0.2100423 0.89399999 1.1754949e-38
-0.1630179 0.2100423 0.89399999 1.1571284e-38
-0.16850409 0.21552849 0.89399999 1.1112108e-38
-0.16615288 0.21396101 0.89399999 1.129577e-38
-0.16340977 0.21356913 0.89399999 1.1203932e-38
-0.16902658 0.21814096 0.89399999 1.0928432e-38
-0.16693661 0.21709597 0.89399999 1.1020269e-38
-0.17372903 0.22284339 0.89399999 1.0561083e-38
-0.17033283 0.22179842 0.89399999 1.0561089e-38
-0.17634149 0.22650085 0.89399999 1.019374e-38
-0.17399028 0.22571711 0.89399999 1.0285576e-38
-0.17163906 0.22493337 0.89399999 9.3672206e-39
-0.17673336 0.23002769 0.89399999 8.5407025e-39
-0.17414704 0.22932231 0.89399999 5.9693073e-39
-0.18104392 0.23355451 0.89399999 6.9795257e-39
-0.17790899 0.23277077 0.89399999 4.1326085e-39
-0.22023094 0.24687807 0.89399999 3.0305714e-39
-0.21866344 0.24687807 0.89399999 3.2142424e-39
-0.20612361 0.24687807 0.89399999 5.5101298e-39
-0.20501375 0.18616192 0.89600003 1.0578747e-38
-0.20217101 0.18643895 0.89733332 1.4512595e-38
-0.19773707 0.18703964 0.89720005 1.6164217e-38
-0.19387518 0.18727075 0.89679998 1.7180164e-38
-0.19030154 0.18715519 0.89699996 1.7553968e-38
-0.18185398 0.18657747 0.898 1.755828e-38
-0.17768137 0.18617873 0.8976 1.7279179e-38
-0.17444119 0.18624519 0.89766663 1.6536952e-38
-0.17004527 0.18657745 0.898 1.5706113e-38
-0.18815194 0.18815194 0.898 1.7557198e-38
-0.18579021 0.18815194 0.898 1.801854e-38
-0.18200617 0.18861271 0.89720005 1.6355074e-38
-0.17840648 0.1890159 0.89649999 1.6536593e-38
-0.1732554 0.18942362 0.89657146 1.7649759e-38
-0.16985591 0.18872792 0.89699996 1.8487057e-38
-0.16572726 0.18931748 0.89699996 1.9691733e-38
-0.16225766 0.18995611 0.8976 1.8307722e-38
-0.15928625 0.19077611 0.898 1.5623256e-38
-0.1641681 0.19244586 0.89600003 1.7664879e-38
-0.16165452 0.19370267 0.89600003 1.3965902e-38
-0.15902382 0.19366266 0.898 1.3592767e-38
-0.15843339 0.19740209 0.89799988 1.3408015e-38
-0.16102615 0.20187178 0.89600009 1.276517e-38
-0.15981106 0.20232239 0.898 1.2581497e-38
-0.16102614 0.20579925 0.89600003 1.2214138e-38
-0.15981106 0.20625862 0.898 1.2030471e-38
-0.16102615 0.20972674 0.89600009 1.1479452e-38
-0.15981106 0.21019486 0.898 1.1387616e-38
-0.16154979 0.21391603 0.89600009 1.0928424e-38
-0.15981106 0.21413109 0.898 1.0652919e-38
-0.1654249 0.21852425 0.89600003 1.0652926e-38
-0.16225766 0.21765597 0.8976 1.0469247e-38
-0.16888106 0.2230801 0.89600003 1.0285604e-38
-0.16592407 0.2217572 0.89700001 9.8264121e-39
-0.16296005 0.22121631 0.898 9.183565e-39
-0.17202303 0.22700757 0.89600003 8.9094823e-39
-0.1699284 0.22596024 0.89600009 8.0815237e-39
-0.16610906 0.22436529 0.898 6.9795089e-39
-0.17202303 0.22857857 0.89600003 4.8672883e-39
-0.17045206 0.22857857 0.89600003 3.9489263e-39
-0.17987797 0.23486252 0.89600003 4.6836103e-39
-0.22436529 0.24798268 0.898 1.4693763e-39
-0.22279079 0.24798268 0.898 2.9387359e-39
-0.21019486 0.24798268 0.898 1.7448744e-39
-0.1820749 0.1797 0.903 1.8385494e-38
-0.17811677 0.1797 0.90300006 1.7922019e-38
-0.1741586 0.1797 0.903 1.7919153e-38
-0.1698838 0.1790667 0.903 1.8381932e-38
-0.16650617 0.17917225 0.90300006 1.8013496e-38
-0.16228415 0.1797 0.90300006 1.6900003e-38
-0.19735257 0.18206994 0.90166664 1.1860503e-38
-0.19380498 0.18194048 0.90233338 1.4604426e-38
-0.18999121 0.18286653 0.903 1.7273037e-38
-0.18563724 0.18247071 0.903 1.8014939e-38
-0.18207489 0.18207489 0.903 1.7647594e-38
-0.17798583 0.18193989 0.90233326 1.8014939e-38
-0.17396572 0.1818724 0.90199995 1.8383361e-38
-0.17013705 0.1820074 0.90266669 1.7830553e-38
-0.1662423 0.1820749 0.903 1.6814585e-38
-0.16228417 0.18207489 0.903 1.6903559e-38
-0.15911762 0.1820749 0.903 1.9025478e-38
-0.20200276 0.18491827 0.90219992 1.2043083e-38
-0.19803111 0.18507081 0.90140003 1.5244775e-38
-0.19430967 0.18483113 0.90100002 1.6257838e-38
-0.19019446 0.18522802 0.90128577 1.7367765e-38
-0.18581848 0.18542354 0.90100002 1.7923468e-38
-0.18167163 0.18483113 0.90100002 1.7739071e-38
-0.17772226 0.18404125 0.90100002 1.8291171e-38
-0.17350957 0.18456784 0.90100002 1.7371749e-38
-0.16959782 0.18516965 0.90100008 1.5985584e-38
-0.16587411 0.18562101 0.90100002 1.8104273e-38
-0.16192472 0.18562101 0.90100002 1.8856932e-38
-0.15826726 0.18596379 0.90266669 1.9783928e-38
-0.15459403 0.18648542 0.903 1.6923e-38
-0.16113484 0.18878052 0.90100002 1.90453e-38
-0.15781736 0.19004433 0.90100002 1.5442481e-38
-0.1541775 0.1905469 0.90188885 1.3683921e-38
-0.15001388 0.19038703 0.903 1.4326385e-38
-0.14645153 0.19078283 0.903 1.405087e-38
-0.15718547 0.19430965 0.90100002 1.35917e-38
-0.15402596 0.19430965 0.90100002 1.3683534e-38
-0.14958085 0.19390123 0.90277779 1.3408017e-38
-0.14565992 0.19394934 0.903 1.3040657e-38
-0.14328502 0.19553261 0.903 1.2581463e-38
-0.15718547 0.19983879 0.90100002 1.3040682e-38
-0.15422341 0.19806156 0.90100002 1.2948836e-38
-0.14956224 0.19783473 0.90266669 1.2397813e-38
-0.14565991 0.19790751 0.903 1.2214132e-38
-0.14328502 0.19711587 0.903 1.248963e-38
-0.15797533 0.20220843 0.90100002 1.2397819e-38
-0.154043 0.20218976 0.90242851 1.2214138e-38
-0.15014581 0.2013379 0.903 1.2030467e-38
-0.15797535 0.2061578 0.90100002 1.193863e-38
-0.15444599 0.20596693 0.90214288 1.1846782e-38
-0.1504097 0.20582378 0.903 1.1203938e-38
-0.15797533 0.21010719 0.90100002 1.138761e-38
-0.15408358 0.20986325 0.90249997 1.1203932e-38
-0.15067357 0.20872645 0.90300006 1.0836596e-38
-0.15797535 0.21405658 0.90100002 1.0744754e-38
-0.15406354 0.214109 0.90122223 1.019377e-38
-0.14964941 0.21409537 0.90199995 6.8876678e-39
-0.14645153 0.21374008 0.903 4.8672813e-39
-0.16034496 0.21800596 0.90100002 1.0469256e-38
-0.15797533 0.21800596 0.90100002 9.2757509e-39
-0.15408236 0.21808693 0.90133333 3.6734283e-39
-0.15086643 0.21721609 0.90100002 2.7550705e-39
-0.16167997 0.22173791 0.90140003 6.6121571e-39
-0.158326 0.22165638 0.903 3.5815858e-39
-0.15542336 0.22139251 0.90300006 2.2958874e-39
-0.16824374 0.2266946 0.90100002 6.1529782e-39
-0.16587409 0.2266946 0.90100002 2.7550649e-39
-0.16289431 0.22457305 0.90200001 1.8367099e-39
-0.16922033 0.22852772 0.90200001 2.2040519e-39
-0.17034684 0.17591894 0.90799999 1.8477356e-38
-0.16716281 0.17591894 0.90799999 1.8196813e-38
-0.18913865 0.17801198 0.90649998 1.341562e-38
-0.18612158 0.178179 0.90600002 1.5796497e-38
-0.18208629 0.17810974 0.90700006 1.7083629e-38
-0.17811061 0.17810974 0.90700001 1.9119138e-38
-0.17413494 0.17810974 0.90700006 1.7921661e-38
-0.16997164 0.17711999 0.90600002 1.8195024e-38
-0.16575523 0.17783359 0.90640002 1.9028741e-38
-0.16220787 0.17810972 0.90700006 1.7740171e-38
-0.15871654 0.17860638 0.90750003 1.6629848e-38
-0.15442657 0.179103 0.90799999 1.6899962e-38
-0.18989858 0.18115762 0.90633339 1.5245121e-38
-0.18612158 0.18082653 0.90600002 1.7085083e-38
-0.15765373 0.18171547 0.90628582 1.8108574e-38
-0.1534038 0.18201938 0.90666664 1.9503016e-38
-0.14965051 0.18308306 0.90799999 1.8490338e-38
-0.14586942 0.18248606 0.90799999 1.6828283e-38
-0.15408644 0.18506257 0.90600002 1.9414781e-38
-0.15022501 0.18599302 0.90666676 1.5715823e-38
-0.14585979 0.18594311 0.90720004 1.4234903e-38
-0.14376105 0.1866511 0.90600002 1.4050851e-38
-0.14979742 0.18887503 0.90600008 1.4234922e-38
-0.14598499 0.18951045 0.90600008 1.3959023e-38
-0.14280525 0.19029504 0.90714288 1.3408009e-38
-0.1423806 0.19408464 0.90733337 1.2765144e-38
-0.14216816 0.19813398 0.90766668 1.2122294e-38
-0.14852661 0.20253628 0.90600002 1.1846779e-38
-0.14630513 0.20196557 0.90700001 1.1663112e-38
-0.14312372 0.20116958 0.90700001 1.1571278e-38
-0.14892374 0.2053162 0.90600002 1.1295767e-38
-0.14726245 0.20616746 0.90799999 1.1112095e-38
-0.14916542 0.21010427 0.9066667 1.0469247e-38
-0.14598882 0.21030672 0.90799999 9.8263981e-39
-0.15011513 0.21206743 0.90600002 1.0010072e-38
-0.14535204 0.21317236 0.90799999 4.2244342e-39
-0.16123477 0.22477558 0.90600002 1.5612034e-39
-0.17630643 0.1747109 0.91000003 1.7453856e-38
-0.17391312 0.1747109 0.91000003 1.8570941e-38
-0.1699243 0.17471091 0.91000003 1.8475917e-38
-0.15716003 0.1747109 0.91000003 1.848025e-38
-0.15476674 0.1747109 0.91000003 1.7646896e-38
-0.18587962 0.17790197 0.91000003 1.4235661e-38
-0.1818908 0.17630643 0.91000003 1.5428436e-38
-0.17790197 0.17630643 0.91000003 1.7362749e-38
-0.17391312 0.17630643 0.91000003 1.9213111e-38
-0.16513771 0.17630643 0.91000003 1.8290094e-38
-0.16194664 0.17630643 0.91000003 1.8568832e-38
-0.15795779 0.1771042 0.91000003 1.7458908e-38
-0.15374105 0.1774461 0.91000003 1.7089032e-38
-0.14998013 0.17790197 0.91000003 1.74632e-38
-0.1459913 0.17790198 0.90999997 1.9591246e-38
-0.14998013 0.18109304 0.91000003 1.9784294e-38
-0.14439577 0.18109304 0.91000003 1.7293556e-38
-0.14226839 0.18694332 0.91000003 1.3959028e-38
-0.13960916 0.18747516 0.91000003 1.3499866e-38
-0.1412047 0.18986847 0.91000003 1.349985e-38
-0.13960916 0.18986847 0.91000003 1.3316172e-38
-0.13881141 0.19385731 0.91000003 1.2489636e-38
-0.13881139 0.19784614 0.91000003 1.2030464e-38
-0.14439577 0.20343049 0.91000003 1.1387603e-38
-0.1412047 0.2010372 0.91000003 1.1754951e-38
-0.13960916 0.20023943 0.91000003 1.1479476e-38
-0.14519353 0.20582379 0.91000003 1.1203933e-38
-0.14492762 0.20874894 0.91000003 1.0652918e-38
-0.14200246 0.21061039 0.91000003 6.0611427e-39
-0.13960916 0.21061039 0.91000003 2.6632308e-39
-0.14280023 0.2130037 0.91000003 2.8469004e-39
-0.17381172 0.169808 0.91366667 1.4609468e-38
-0.17005581 0.17005581 0.91500002 1.579647e-38
-0.16604504 0.17005581 0.91500008 1.8375443e-38
-0.16168012 0.16968408 0.91299999 1.8385152e-38
-0.15796655 0.16999356 0.91466665 1.8288653e-38
-0.1538436 0.17067122 0.91400003 1.9211698e-38
-0.1459913 0.17085795 0.91500002 1.6905733e-38
-0.18585737 0.17431061 0.91460001 1.141174e-38
-0.18182272 0.17381175 0.91366673 1.286818e-38
-0.17792633 0.17344132 0.91339999 1.5063252e-38
-0.1737489 0.17294851 0.91333336 1.6531896e-38
-0.16986994 0.17307416 0.91399997 1.9302799e-38
-0.16580309 0.17381173 0.91366673 1.847555e-38
-0.16168013 0.17368607 0.91300005 1.847376e-38
-0.15790683 0.17322871 0.91300011 1.8755384e-38
-0.15358305 0.17344132 0.91339999 1.8569203e-38
-0.149711 0.17372796 0.91322219 1.6902483e-38
-0.14572507 0.1737489 0.91333342 1.7450991e-38
-0.14194645 0.17402388 0.91477776 1.8197532e-38
-0.13791925 0.17400256 0.91466665 2.0418868e-38
-0.13427992 0.17502913 0.91500008 1.8394535e-38
-0.18850525 0.17727515 0.91500002 1.3611849e-38
-0.18569201 0.17688765 0.91299999 1.387477e-38
-0.1417225 0.17775264 0.91333342 1.9782142e-38
-0.13766822 0.17768805 0.91299999 1.7565856e-38
-0.13395905 0.17807731 0.91500008 1.4700568e-38
-0.12994829 0.17887944 0.91500002 1.4510063e-38
-0.1416702 0.18169004 0.91299999 1.5902376e-38
-0.13766822 0.18169004 0.91300005 1.4053032e-38
-0.13389321 0.18199919 0.91455555 1.4326378e-38
-0.1299483 0.18208805 0.91500008 1.4142701e-38
-0.14135005 0.18553196 0.91300005 1.4326382e-38
-0.13766822 0.18569203 0.91299999 1.4050879e-38
-0.13390967 0.18603072 0.91466665 1.349985e-38
-0.12994829 0.18609878 0.91500002 1.3040664e-38
-0.13766822 0.18969399 0.91300005 1.3132504e-38
-0.13389321 0.1900176 0.91455567 1.2765154e-38
-0.13010873 0.18978868 0.91500008 1.2305969e-38
-0.13686782 0.19369598 0.91299999 1.2397795e-38
-0.13395905 0.19412029 0.91500008 1.212229e-38
-0.13686782 0.19769797 0.91299999 1.1663111e-38
-0.13433276 0.19777864 0.91442859 1.138761e-38
-0.14006941 0.20250034 0.91299999 1.1203947e-38
-0.13774318 0.20181085 0.91350007 1.1020276e-38
-0.13556336 0.20214179 0.91500002 1.0928432e-38
-0.14173838 0.20580246 0.91344452 1.0744764e-38
-0.13806956 0.20574227 0.91460001 1.0377414e-38
-0.13556336 0.20454825 0.91500002 1.0744753e-38
-0.1416702 0.20890352 0.91299999 9.9182406e-39
-0.13877194 0.2101633 0.91500002 5.7856363e-39
-0.15727401 0.16372627 0.92000002 1.7083642e-38
-0.15566093 0.16372627 0.92000002 1.9757315e-38
-0.16533934 0.1669524 0.92000002 1.4969274e-38
-0.16211319 0.16695242 0.92000002 1.7822644e-38
-0.15808053 0.16614586 0.92000002 1.8656347e-38
-0.15404786 0.16614589 0.92000002 1.9213476e-38
-0.15001521 0.16614586 0.92000002 1.8386956e-38
-0.14678906 0.16614586 0.92000002 1.8843255e-38
-0.17885664 0.17160487 0.91900003 1.3617237e-38
-0.16900378 0.16819902 0.91799998 1.5705724e-38
-0.16578467 0.16819902 0.91799998 1.6163137e-38
-0.16176078 0.16819903 0.91799998 1.856056e-38
-0.15808053 0.16856545 0.92000002 1.9858849e-38
-0.15362656 0.16950575 0.91885722 1.9027656e-38
-0.1497978 0.16993073 0.91866672 1.903055e-38
-0.1456161 0.1695586 0.9191429 1.8383019e-38
-0.141847 0.17005405 0.91933334 1.6902854e-38
-0.13804343 0.1702868 0.91949999 1.690142e-38
-0.13388452 0.17098507 0.92000002 1.9127029e-38
-0.13146493 0.1717916 0.92000002 2.0244189e-38
-0.13600782 0.17302769 0.91799998 2.1345129e-38
-0.13342164 0.17368989 0.91866672 2.0245269e-38
-0.1297572 0.17408437 0.91933334 1.6547754e-38
-0.12581921 0.17421119 0.92000002 1.4050884e-38
-0.18912329 0.17624681 0.91799998 1.1780884e-38
-0.13037436 0.17705159 0.91799998 1.4326364e-38
-0.12653279 0.1781147 0.91933334 1.4510057e-38
-0.1233996 0.17905039 0.92000002 1.3867209e-38
-0.12648694 0.18207811 0.91900003 1.3683516e-38
-0.1233996 0.18146999 0.92000002 1.3499847e-38
-0.12644105 0.18603916 0.91866672 1.2948816e-38
-0.12648693 0.19013524 0.91900003 1.2214121e-38
-0.12964925 0.19453308 0.91857153 1.1571277e-38
-0.12695929 0.19386649 0.91950005 1.1571273e-38
-0.13278869 0.19878066 0.91799998 1.1112096e-38
-0.12966251 0.19811964 0.91866672 1.1020261e-38
-0.12662573 0.1984072 0.92000002 1.0836589e-38
-0.1336658 0.2021098 0.91850001 1.0744795e-38
-0.13018368 0.20112091 0.91949999 1.0285577e-38
-0.12662573 0.20082679 0.92000002 1.0744764e-38
-0.13600782 0.20682845 0.91799998 1.0928434e-38
-0.13366465 0.20589919 0.91960001 7.7141901e-39
-0.13146493 0.20485947 0.92000002 6.8876748e-39
-0.13761736 0.20843801 0.91799998 7.4386752e-39
-0.15293185 0.15940516 0.92299998 1.5796843e-38
-0.15131353 0.15940516 0.92299998 1.6530468e-38
-0.15697768 0.16264182 0.92299998 1.5520259e-38
-0.15293185 0.16183266 0.92299998 1.948033e-38
-0.15001887 0.1619945 0.92299998 2.0042871e-38
-0.14645857 0.16264182 0.92299998 1.8017435e-38
-0.1610235 0.16587847 0.92299998 1.6714125e-38
-0.15940516 0.16426013 0.92299998 1.579648e-38
-0.15374103 0.16426013 0.92299998 1.9587965e-38
-0.1496952 0.16426013 0.92300004 1.865922e-38
-0.1456494 0.16587847 0.92299998 1.8843649e-38
-0.14241274 0.16668764 0.92299998 1.9491892e-38
-0.1387715 0.16709222 0.92299998 1.7550364e-38
-0.13432109 0.16668764 0.92299998 1.6897838e-38
-0.13027529 0.16668765 0.92299998 1.727017e-38
-0.12622947 0.1674968 0.92299998 2.0608972e-38
-0.1367486 0.16911513 0.92299998 1.6622295e-38
-0.13432109 0.16911513 0.92299998 1.7081484e-38
-0.13027529 0.1699243 0.92299998 1.9681648e-38
-0.12622947 0.16992429 0.92299998 2.0332793e-38
-0.12218365 0.17073345 0.92300004 1.4421462e-38
-0.12946613 0.17235178 0.92299998 2.0522579e-38
-0.12622947 0.17235178 0.92299998 1.738648e-38
-0.12218364 0.17397009 0.92299992 1.4142703e-38
-0.12185998 0.17785409 0.92299998 1.4050869e-38
-0.11894701 0.17801592 0.92299998 1.3959015e-38
-0.12172128 0.18229295 0.92299998 1.3408002e-38
-0.12299281 0.18610755 0.92299998 1.2765141e-38
-0.12315466 0.18982969 0.92299998 1.2122285e-38
-0.12542032 0.19419919 0.92299998 1.1203931e-38
-0.12326254 0.19446892 0.92300004 1.102026e-38
-0.12542032 0.19824502 0.92300004 1.0101906e-38
-0.12299281 0.19824502 0.92299998 9.0917183e-39
-0.12946613 0.20309998 0.92299998 8.3570302e-39
-0.12595975 0.20256054 0.92300004 5.4182957e-39
-0.12299281 0.20148166 0.92299998 2.8469004e-39
-0.13027529 0.20471831 0.92299998 7.5305107e-39
-0.13728803 0.2106522 0.92300004 3.5815844e-39
-0.13513026 0.20957328 0.92299998 3.7652553e-39
-0.15294677 0.15864159 0.92799997 1.4331434e-38
-0.15026285 0.15919608 0.92649996 1.5887607e-38
-0.16026868 0.16352287 0.92799997 1.5252308e-38
-0.15731782 0.16137241 0.92500001 1.4148853e-38
-0.15505253 0.16154513 0.926 1.69003e-38
-0.1486384 0.16082054 0.92649996 1.9026186e-38
-0.14631939 0.16176495 0.92724997 1.9668344e-38
-0.14269607 0.16287203 0.92799997 1.8834267e-38
-0.13803175 0.16298051 0.92799997 2.0599991e-38
-0.13409142 0.16253313 0.92699999 1.9586951e-38
-0.12995705 0.16244501 0.92649996 1.6534789e-38
-0.12596297 0.16253313 0.92699999 1.6897822e-38
-0.12203199 0.16352287 0.92799997 1.74488e-38
-0.11959136 0.16352287 0.92799997 1.736492e-38
-0.14515407 0.165427 0.92500001 1.9393218e-38
-0.14191042 0.16461608 0.92500007 2.0597121e-38
-0.13785583 0.16542698 0.92500001 1.8112502e-38
-0.13380127 0.16461608 0.92500007 1.7265195e-38
-0.12974666 0.16461608 0.92500001 1.6714142e-38
-0.1254604 0.16577454 0.92500007 1.8285434e-38
-0.12183431 0.16650572 0.92649996 2.0329172e-38
-0.11837103 0.16637027 0.92799997 2.0704443e-38
-0.12407025 0.16948158 0.92500001 2.1442365e-38
-0.12163749 0.16948158 0.92500001 1.8494287e-38
-0.11797566 0.16955173 0.92650002 1.4787747e-38
-0.11430943 0.17089652 0.92740005 1.478556e-38
-0.11839383 0.17434707 0.92500007 1.4601885e-38
-0.11478133 0.17420532 0.9267143 1.4601876e-38
-0.11758291 0.17840166 0.92500001 1.3867178e-38
-0.11431996 0.1780808 0.92650002 1.3499836e-38
-0.11145588 0.17898026 0.92799997 1.3132503e-38
-0.11839383 0.18164533 0.92500001 1.304065e-38
-0.1148109 0.18171881 0.92619991 1.2948809e-38
-0.11145588 0.18142089 0.92799997 1.2856989e-38
-0.12082657 0.18651083 0.92500001 1.2581464e-38
-0.11839383 0.18569992 0.92500007 1.2489629e-38
-0.11533558 0.18600105 0.92650002 1.2214121e-38
-0.12082657 0.18975449 0.92500001 1.2122285e-38
-0.1178354 0.19016477 0.92699999 1.1479437e-38
-0.11471007 0.18955636 0.92799997 1.1387602e-38
-0.12147532 0.19348471 0.92500001 1.1295767e-38
-0.11803102 0.19370337 0.9267143 1.0561096e-38
-0.12082657 0.19786367 0.92500001 9.2753851e-39
-0.11805876 0.19698191 0.92620003 7.0713388e-39
-0.12947635 0.20624313 0.92500007 3.3060793e-39
-0.12731391 0.20516191 0.92500001 2.1122164e-39
-0.13217942 0.20840558 0.92500001 0
-0.13055758 0.20840558 0.92500001 3.6734198e-40
-0.13586229 0.21233566 0.92799997 3.6734198e-40
-0.15409169 0.1581682 0.93000001 1.4800318e-38
-0.15001521 0.1581682 0.93000001 1.5985897e-38
-0.15735289 0.1606141 0.93000001 1.3333816e-38
-0.14512339 0.1606141 0.93000001 2.0325222e-38
-0.1410469 0.16224469 0.93000001 1.957181e-38
-0.1377857 0.16115764 0.93000001 1.8839292e-38
-0.13370919 0.1606141 0.93000001 2.1610563e-38
-0.1296327 0.1606141 0.93000001 1.9496905e-38
-0.1255562 0.1606141 0.93000001 1.6995762e-38
-0.12256677 0.16170117 0.93000001 1.6897792e-38
-0.11789238 0.16289693 0.93000001 1.9119505e-38
-0.114142 0.1638753 0.93000001 2.1622464e-38
-0.1174032 0.1655059 0.93000001 2.0794493e-38
-0.114142 0.16632119 0.93000001 1.7195985e-38
-0.1116961 0.16632119 0.93000001 1.3411636e-38
-0.114142 0.16876709 0.93000001 1.4785561e-38
-0.11006551 0.1695824 0.93000001 1.4969235e-38
-0.1100655 0.17365889 0.93000001 1.4326368e-38
-0.10973938 0.17757232 0.93000001 1.3407999e-38
-0.1133267 0.18344249 0.93000001 1.2581476e-38
-0.1100655 0.18140423 0.93000001 1.2765145e-38
-0.1133267 0.18588839 0.93000001 1.2030458e-38
-0.1116961 0.18588839 0.93000001 1.2030458e-38
-0.11373435 0.19037254 0.93000001 1.102026e-38
-0.1116961 0.18914959 0.93000001 1.1203932e-38
-0.114142 0.1932261 0.93000001 1.0377789e-38
-0.11803439 0.15082172 0.935 1.8472688e-38
-0.11401945 0.15066271 0.93300003 1.6827196e-38
-0.14918235 0.15492015 0.935 1.3341729e-38
-0.14672332 0.15492015 0.935 1.6075601e-38
-0.14098552 0.15492015 0.935 1.8001998e-38
-0.13852647 0.15492015 0.935 2.2152603e-38
-0.12950996 0.15492015 0.935 1.8924307e-38
-0.12623122 0.15492015 0.935 2.1050196e-38
-0.12213282 0.15410048 0.93500006 2.0787629e-38
-0.11803439 0.15410046 0.935 2.0141202e-38
-0.11381413 0.15393654 0.93400002 1.8761507e-38
-0.11011079 0.15437369 0.93500006 1.4168253e-38
-0.14918995 0.15737101 0.93333334 1.552889e-38
-0.14579961 0.15808493 0.93433332 1.8287557e-38
-0.14214312 0.15781866 0.93414289 2.0226907e-38
-0.13809933 0.15814871 0.93350005 1.9025844e-38
-0.134284 0.15802853 0.93400002 1.8931118e-38
-0.13020614 0.1580473 0.93411118 2.0413435e-38
-0.12605122 0.15797213 0.93366671 1.9677706e-38
-0.12187157 0.15786049 0.93300003 1.7180163e-38
-0.11786607 0.15797213 0.93366671 1.7633594e-38
-0.11393598 0.15819888 0.935 1.8100321e-38
-0.10983755 0.15819889 0.93500006 1.6174277e-38
-0.10655883 0.15901856 0.935 1.3889529e-38
-0.14231983 0.16113222 0.93300003 1.8388758e-38
-0.13986602 0.16113222 0.93300003 1.7448821e-38
-0.12105364 0.16113222 0.93300003 1.6989655e-38
-0.11778192 0.16113222 0.93300003 1.7267325e-38
-0.11369227 0.16195014 0.93300003 1.9312887e-38
-0.10960262 0.16195014 0.93300003 1.579578e-38
-0.1055872 0.16206586 0.93366671 1.4158208e-38
-0.10246041 0.16311698 0.935 1.4638573e-38
-0.11205641 0.16440393 0.93300003 1.6279076e-38
-0.10960262 0.16603979 0.93300003 1.5337301e-38
-0.10577313 0.16592385 0.93350005 1.4605508e-38
-0.10246041 0.16557604 0.935 1.573019e-38
-0.1053747 0.16993445 0.9338572 1.4142713e-38
-0.10164072 0.16967444 0.93500006 1.3517836e-38
-0.099181682 0.17131381 0.935 1.4634225e-38
-0.1063309 0.17421907 0.93300003 1.4142689e-38
-0.10226522 0.1742602 0.93322223 1.2398899e-38
-0.099040255 0.17434239 0.93366671 1.7016599e-38
-0.1063309 0.17830873 0.93300003 1.3040646e-38
-0.10224125 0.17830876 0.93300003 1.1846787e-38
-0.10878469 0.18239839 0.93300003 1.2581476e-38
-0.10638744 0.18167821 0.93349999 1.2397795e-38
-0.10224126 0.18158047 0.93300003 1.083659e-38
-0.099181682 0.18278939 0.935 1.554253e-38
-0.10968035 0.18580335 0.93366665 1.1663116e-38
-0.10573913 0.1860681 0.935 1.0836589e-38
-0.10164072 0.1860681 0.93500006 1.0753775e-38
-0.099181682 0.18442874 0.935 1.7018399e-38
-0.10971922 0.18996315 0.93400002 1.0928424e-38
-0.1062856 0.18989329 0.93500006 8.4495831e-39
-0.10246041 0.18934684 0.935 1.4629922e-38
-0.11308596 0.19458757 0.93339998 7.255007e-39
-0.11065724 0.19344527 0.935 5.6019653e-39
-0.14173946 0.15080419 0.94 1.3335992e-38
-0.13926727 0.15080419 0.94 1.3417766e-38
-0.1332241 0.15025482 0.94 1.911297e-38
-0.13020253 0.14998013 0.94 2.0683548e-38
-0.1260822 0.14998013 0.94 1.9764505e-38
-0.12183212 0.1498197 0.93900001 2.0131499e-38
-0.14883871 0.15377259 0.93800002 1.1969219e-38
-0.14620732 0.15344368 0.93800002 1.2692786e-38
-0.14249516 0.15330271 0.93800008 1.5618211e-38
-0.13816057 0.15363899 0.93920004 1.8747456e-38
-0.13416448 0.15391713 0.93888897 1.9766632e-38
-0.1299952 0.15303138 0.93850005 1.9580112e-38
-0.12614287 0.15278582 0.93800002 1.8564866e-38
-0.12170237 0.15212797 0.93800002 1.9116627e-38
-0.10772305 0.15706185 0.93800002 1.2521689e-38
-0.10553022 0.1910508 0.93800008 7.534098e-39
-0.10948427 0.19427371 0.93900001 4.7754458e-39
-0.10701382 0.19344965 0.93900001 4.3162683e-39
-0.11594618 0.1981775 0.93800002 5.1427878e-39
-0.13640495 0.14797869 0.94300002 1.2784978e-38
-0.13392484 0.14797869 0.94300002 1.49775e-38
-0.12924026 0.14742757 0.94300002 1.8375791e-38
-0.12565789 0.14715201 0.94300002 2.0038925e-38
-0.1231778 0.14797869 0.94300002 2.1705282e-38
-0.13695608 0.15073436 0.94300002 1.5892301e-38
-0.13475154 0.1496321 0.94300002 1.7081428e-38
-0.11987101 0.1496321 0.94300002 1.8200423e-38
-0.10829727 0.1959271 0.94300002 5.5101298e-40
-0.13103361 0.14679082 0.94599998 1.6538005e-38
-0.13849755 0.15010811 0.94599998 1.5720119e-38
-0.13020429 0.14844947 0.94599998 2.0029898e-38
-0.10554716 0.1953038 0.94800001 3.5815844e-39
-0.10366583 0.1932331 0.94599998 1.307372e-38
-0.1121958 0.19862811 0.94800001 2.1122164e-39
-0.11053363 0.19862811 0.94800001 2.2958874e-39
-0.10698313 0.19655041 0.94599998 5.5101298e-40
-0.109216 0.19925669 0.95099998 1.5612132e-39
