# .PCD v0.7 - Point Cloud Data file format
VERSION 0.7
FIELDS x y z rgb
SIZE 4 4 4 4
TYPE F F F F
COUNT 1 1 1 1
WIDTH 360
HEIGHT 1
VIEWPOINT 0 0 0 1 0 0 0
POINTS 360
DATA ascii
-0.13605252 0.2150998 0.86699998 2.3418252e-38
-0.13453238 0.2150998 0.86699998 2.3418252e-38
-0.13713834 0.21835725 0.8670001 2.323457e-38
-0.13453238 0.2181401 0.86699998 2.3234567e-38
-0.13757265 0.22194044 0.86700004 2.249987e-38
-0.13377231 0.22194043 0.86699998 2.2683536e-38
-0.12997198 0.22194043 0.86700004 2.2775364e-38
-0.13713834 0.22552364 0.8670001 2.194885e-38
-0.13377231 0.22574079 0.86700004 2.1857008e-38
-0.13047868 0.22523408 0.86700004 2.1948841e-38
-0.13301224 0.22878104 0.86699998 2.1030476e-38
-0.13149211 0.22878104 0.86699998 2.1030476e-38
-0.12980804 0.20387496 0.87099999 2.345276e-38
-0.14202525 0.20692927 0.87099999 2.3419737e-38
-0.13782558 0.20654748 0.87099999 2.3440184e-38
-0.13362591 0.2061657 0.87099999 2.3453133e-38
-0.12980804 0.2061657 0.87099999 2.3453497e-38
-0.12700824 0.20642023 0.87099999 2.3448107e-38
-0.15347891 0.21151073 0.87099999 2.3418253e-38
-0.15031005 0.21058528 0.87033331 2.3326415e-38
-0.14562497 0.21041994 0.87099999 2.3419341e-38
-0.14186248 0.20974132 0.87 2.341828e-38
-0.13806593 0.20976812 0.87011105 2.3423302e-38
-0.13393024 0.20955776 0.87014282 2.3429762e-38
-0.13023037 0.20993204 0.87 2.3427966e-38
-0.12642647 0.21020176 0.87099999 2.3426888e-38
-0.15347891 0.21380144 0.87099999 2.2408049e-38
-0.15044278 0.21412779 0.87 2.314274e-38
-0.14627008 0.21407235 0.86900008 2.341826e-38
-0.14246097 0.21407236 0.86900002 2.3418263e-38
-0.13808048 0.21388189 0.86900002 2.3419335e-38
-0.13392854 0.21376763 0.86900008 2.3418969e-38
-0.13027179 0.21407236 0.86900002 2.3418262e-38
-0.12573262 0.21412671 0.86922222 2.3418256e-38
-0.12221207 0.21406184 0.8702001 2.3418243e-38
-0.11937248 0.21405599 0.87099999 2.3418236e-38
-0.15424249 0.21761934 0.87099999 2.1857036e-38
-0.14995921 0.21769728 0.86957145 2.2499884e-38
-0.14627008 0.21788147 0.86900002 2.3050899e-38
-0.14246097 0.21788149 0.86900008 2.3326404e-38
-0.13941367 0.21788147 0.86900002 2.3418241e-38
-0.13331908 0.21788147 0.86900002 2.3418239e-38
-0.13027179 0.21788149 0.86900008 2.3418249e-38
-0.12570086 0.21788149 0.86900008 2.3326405e-38
-0.12179512 0.21752362 0.86940002 2.3326401e-38
-0.1182332 0.2173961 0.87011105 2.323456e-38
-0.11453649 0.2191465 0.87099999 2.2591709e-38
-0.15767856 0.22334616 0.87099999 1.9377434e-38
-0.15424249 0.2222008 0.87099999 2.0663159e-38
-0.15030946 0.22203189 0.87033331 2.1397844e-38
-0.14632648 0.22177622 0.86933339 2.2040694e-38
-0.14246096 0.22169057 0.86900002 2.2499873e-38
-0.13331908 0.22016694 0.86900002 2.3234558e-38
-0.13027179 0.22016695 0.86900008 2.3326393e-38
-0.12570085 0.22169058 0.86900002 2.2867212e-38
-0.12189173 0.22169058 0.86900008 2.2683539e-38
-0.11808262 0.22169057 0.86900002 2.2408025e-38
-0.11396382 0.22200991 0.87099993 2.1948839e-38
-0.15806036 0.22525512 0.87099999 1.8459778e-38
-0.15398797 0.22576419 0.87099999 1.9836613e-38
-0.1504246 0.22601871 0.87099999 2.0663146e-38
-0.1460816 0.22606798 0.87060004 2.1306e-38
-0.14202563 0.22604387 0.86900008 2.167334e-38
-0.13941367 0.22702335 0.86900002 2.1765175e-38
-0.12925602 0.22727728 0.86900008 2.1489656e-38
-0.12570085 0.22626151 0.86900002 2.1673334e-38
-0.12209985 0.22606097 0.86940002 2.1581494e-38
-0.11860476 0.22576253 0.87060004 2.1305988e-38
-0.1504246 0.22830942 0.87099999 2.0112122e-38
-0.14562498 0.22940023 0.87099999 2.038763e-38
-0.14202525 0.23060013 0.87099999 2.0387624e-38
-0.13789003 0.23007065 0.86900008 2.0663134e-38
-0.13433485 0.2303246 0.86900008 2.0571301e-38
-0.12996708 0.23022301 0.86900008 2.0846789e-38
-0.12570086 0.23007065 0.86900008 2.0203939e-38
-0.12190664 0.22993019 0.87019998 1.9928433e-38
-0.11911796 0.22983658 0.87099999 2.0020268e-38
-0.14202525 0.23289087 0.87099999 1.9744765e-38
-0.1380675 0.23417921 0.87011105 1.9469248e-38
-0.1340809 0.23387977 0.86900008 1.9652921e-38
-0.13027178 0.23387977 0.86900002 1.956108e-38
-0.12579611 0.23405917 0.86966664 1.8918233e-38
-0.12255405 0.23403624 0.87099999 1.8642726e-38
-0.11911795 0.23289087 0.87099999 1.8918236e-38
-0.13736534 0.23809959 0.87050003 1.7999868e-38
-0.13380791 0.2381705 0.87019998 1.7908025e-38
-0.12976393 0.23794281 0.86900008 1.7632522e-38
-0.1260415 0.23825006 0.86985713 1.7540686e-38
-0.12293584 0.23823591 0.87099999 1.7540681e-38
-0.13668022 0.24052663 0.87099999 1.662234e-38
-0.13362589 0.24052663 0.87099999 1.6622337e-38
-0.12996076 0.24235924 0.87099999 1.4143832e-38
-0.12624466 0.24205379 0.87099999 1.3960161e-38
-0.12980804 0.2451081 0.87099999 7.7141957e-39
-0.12599015 0.2451081 0.87099999 2.3877229e-39
-0.14114332 0.20327708 0.875 2.3423323e-38
-0.137613 0.20201029 0.87450004 2.3425839e-38
-0.1341373 0.20158802 0.87433338 2.3433383e-38
-0.12999025 0.20182933 0.87442863 2.3432303e-38
-0.12656875 0.20327708 0.875 2.3431944e-38
-0.15264958 0.20711249 0.875 2.3419692e-38
-0.14996479 0.20749605 0.875 2.3430128e-38
-0.14537969 0.20720981 0.87433338 2.314993e-38
-0.14169535 0.20526507 0.8736667 2.3423322e-38
-0.13801451 0.20485334 0.87300003 2.3439847e-38
-0.13393277 0.20434313 0.87300003 2.3452771e-38
-0.12603047 0.20566197 0.87340003 2.3443786e-38
-0.12350041 0.20711249 0.875 2.2512109e-38
-0.1534386 0.20960486 0.8736667 2.3420055e-38
-0.15000468 0.2089351 0.87300003 2.3430484e-38
-0.14694336 0.2089351 0.87300003 2.3423655e-38
-0.1247488 0.20970044 0.87300003 2.3429408e-38
-0.12179157 0.21045436 0.87375009 2.3422213e-38
-0.11820535 0.2111367 0.8736667 2.3418251e-38
-0.11582958 0.2109479 0.875 2.3418248e-38
-0.15571791 0.21555041 0.875 2.2316215e-38
-0.12196624 0.21248208 0.875 2.3418256e-38
-0.11754522 0.2136485 0.87349999 2.3418241e-38
-0.11429542 0.21401626 0.875 2.3326404e-38
-0.11122708 0.21401624 0.875 2.3142729e-38
-0.15776347 0.21810734 0.875 2.1673351e-38
-0.11388916 0.217824 0.87357152 2.2867215e-38
-0.15840898 0.22151701 0.87433338 2.0295804e-38
-0.11122708 0.22245416 0.875 2.1673337e-38
-0.16148463 0.22653767 0.87300003 1.6166752e-38
-0.1584233 0.227303 0.87300003 1.7541776e-38
-0.155362 0.227303 0.87300003 1.9377424e-38
-0.11709549 0.227303 0.87300003 2.0938639e-38
-0.11392647 0.22643234 0.8738572 2.0846796e-38
-0.1584233 0.229599 0.87300009 1.625894e-38
-0.15420865 0.22985761 0.87340003 1.9010086e-38
-0.15000468 0.23112965 0.87300003 1.9561095e-38
-0.14694336 0.23189498 0.87300003 1.974477e-38
-0.11709549 0.23036432 0.87300003 1.9836599e-38
-0.11429542 0.230125 0.875 1.9561094e-38
-0.15801916 0.23242624 0.875 1.5154765e-38
-0.15341666 0.23396042 0.875 1.7999878e-38
-0.15034834 0.23472749 0.875 1.8183566e-38
-0.14617804 0.23419099 0.87300009 1.9101914e-38
-0.14235139 0.23495631 0.87300003 1.9561087e-38
-0.12092214 0.23495631 0.87300003 1.8367223e-38
-0.11769512 0.23462552 0.8736667 1.8459054e-38
-0.11467895 0.23280978 0.875 1.8550889e-38
-0.14855847 0.23754013 0.875 1.7816183e-38
-0.14566299 0.23766038 0.87450004 1.8091688e-38
-0.14169475 0.23794429 0.8736667 1.8183545e-38
-0.12099096 0.23738863 0.87349999 1.772435e-38
-0.11806289 0.23766039 0.87450004 1.7081517e-38
-0.14804707 0.24009708 0.875 1.6530441e-38
-0.14559242 0.24132441 0.875 1.5887646e-38
-0.14206207 0.24175395 0.87475002 1.6438656e-38
-0.1380145 0.24209937 0.87300003 1.5795809e-38
-0.13393275 0.24222693 0.87300003 1.6071318e-38
-0.1247488 0.24260959 0.87300003 1.4331447e-38
-0.12177981 0.24100676 0.8736667 1.5246595e-38
-0.11813083 0.24009708 0.875 1.4973241e-38
-0.14497875 0.24546665 0.875 4.6836103e-39
-0.14180347 0.24527965 0.87433338 7.7141817e-39
-0.13786459 0.24585971 0.8736667 8.6325493e-39
-0.13393275 0.2456709 0.87300009 9.1835776e-39
-0.13087143 0.24720158 0.87300003 3.9489263e-39
-0.1247488 0.24414025 0.87300003 7.8978527e-39
-0.12321813 0.24414025 0.87300003 7.4386752e-39
-0.1342352 0.18746638 0.88 2.3440575e-38
-0.1342352 0.18900932 0.88 2.3439497e-38
-0.13346373 0.19518106 0.88 2.3441307e-38
-0.13037786 0.19518106 0.88 2.3444152e-38
-0.12652053 0.19518106 0.88 2.3436252e-38
-0.14889306 0.19980985 0.88 2.3427971e-38
-0.14580719 0.19903839 0.88000005 2.3428343e-38
-0.14186963 0.19892487 0.87949997 2.3431933e-38
-0.13795343 0.19806549 0.87911117 2.3433378e-38
-0.13403182 0.19796535 0.87866676 2.3441285e-38
-0.13018031 0.19796534 0.87866676 2.3438401e-38
-0.12565303 0.19811593 0.87933338 2.3436965e-38
-0.12204602 0.19857551 0.88000005 2.3427981e-38
-0.11803439 0.19980985 0.88 2.342079e-38
-0.11494853 0.19980985 0.88 2.3418274e-38
-0.15317294 0.20397402 0.87800002 2.3418263e-38
-0.15060708 0.20238854 0.87971437 2.3420431e-38
-0.14624554 0.20243458 0.87800014 2.3420809e-38
-0.1426169 0.20199479 0.87800014 2.3419729e-38
-0.13931811 0.20166489 0.87800002 2.3423689e-38
-0.12854213 0.20166489 0.87800002 2.3424409e-38
-0.12607904 0.20212673 0.87800008 2.3425478e-38
-0.12238443 0.2024346 0.87800014 2.3424751e-38
-0.11809225 0.20247142 0.87900007 2.3420064e-38
-0.11443421 0.20238142 0.88 2.3418267e-38
-0.15431669 0.20618264 0.87866676 2.341827e-38
-0.14975145 0.20564622 0.87857157 2.3427262e-38
-0.14650211 0.20602661 0.87800002 2.3429773e-38
-0.12546326 0.20551346 0.87800002 2.3437657e-38
-0.12207653 0.20612924 0.87800008 2.3426545e-38
-0.11762186 0.20608658 0.87857157 2.3418988e-38
-0.11409056 0.2058244 0.87933344 2.341826e-38
-0.11048082 0.20611551 0.87975001 2.3418259e-38
-0.10723386 0.20598158 0.88 2.2591735e-38
-0.1562518 0.21167117 0.87800002 2.295907e-38
-0.15471236 0.20859231 0.87800002 2.3418266e-38
-0.12161471 0.20859231 0.87800002 2.3421518e-38
-0.11776614 0.20936203 0.87800014 2.3418253e-38
-0.11391757 0.21013175 0.87800014 2.3418249e-38
-0.11038592 0.21017776 0.87900007 2.3326411e-38
-0.15771496 0.21396658 0.87900007 2.249989e-38
-0.10929368 0.21380988 0.87919998 2.2867224e-38
-0.16432239 0.21986799 0.88 1.5621818e-38
-0.16175084 0.21935368 0.88 2.0846826e-38
-0.15881751 0.2168026 0.87800002 2.1765193e-38
-0.11078507 0.21833591 0.87880003 2.2316198e-38
-0.16432239 0.22218239 0.88 1.4248584e-38
-0.16191638 0.22205572 0.87950003 1.9652956e-38
-0.1107493 0.2217575 0.87933338 2.1581503e-38
-0.16327173 0.22565354 0.87850004 1.498006e-38
-0.11083521 0.22614212 0.87919998 2.0663127e-38
-0.11109295 0.23004539 0.87880003 1.937743e-38
-0.16087008 0.23399284 0.87800002 9.5728752e-39
-0.15740637 0.2343777 0.87800002 1.5525692e-38
-0.11391757 0.23476256 0.87800002 1.809208e-38
-0.11083521 0.23384976 0.87919998 1.5982367e-38
-0.1573514 0.2376215 0.87800014 1.0104822e-38
-0.15394266 0.23861113 0.87800002 1.4786286e-38
-0.15112039 0.2388677 0.87800002 1.6806674e-38
-0.11640321 0.23820376 0.87933338 1.6255719e-38
-0.11391757 0.23784143 0.87800014 1.2948893e-38
-0.11128625 0.23759113 0.87850004 8.2652255e-39
-0.1562518 0.24168998 0.87800002 5.6030863e-39
-0.15394264 0.24245971 0.87800014 5.8774956e-39
-0.15028653 0.24265212 0.87800014 1.0101921e-38
-0.14701524 0.24399914 0.87800002 1.2948876e-38
-0.15009411 0.24553856 0.87800002 4.2244538e-39
-0.14701524 0.24630827 0.87800002 4.4081038e-39
-0.15232435 0.19485144 0.88200003 2.3418267e-38
-0.15000468 0.19485144 0.88200003 2.3418651e-38
-0.14652519 0.19523805 0.88200003 2.3425843e-38
-0.14227247 0.19562466 0.88200003 2.3433738e-38
-0.13801977 0.19523805 0.88200003 2.3435894e-38
-0.13415368 0.19446483 0.88200003 2.3438778e-38
-0.12990096 0.19407822 0.88200003 2.3441635e-38
-0.12603486 0.19485144 0.88200003 2.3438412e-38
-0.14923146 0.19794431 0.88200003 2.3426905e-38
-0.14613858 0.19717109 0.88200009 2.3430508e-38
-0.14227247 0.19717109 0.88200003 2.3434095e-38
-0.12139554 0.19717109 0.88200003 2.3431581e-38
-0.11907588 0.19871753 0.88200003 2.3421871e-38
-0.15387078 0.20258364 0.88200003 2.3419345e-38
-0.15077789 0.20026398 0.88200003 2.3426529e-38
-0.11273549 0.20150113 0.88200009 2.3418267e-38
-0.10979724 0.20335685 0.88200003 2.3418258e-38
-0.15696366 0.20799617 0.88200003 2.3418258e-38
-0.10902402 0.2049033 0.88200003 2.3418259e-38
-0.16005653 0.21108906 0.88200003 2.2683571e-38
-0.15773688 0.21031584 0.88200003 2.314275e-38
-0.16160297 0.21418194 0.88200009 2.1673362e-38
-0.10747758 0.21340871 0.88200003 2.2316204e-38
-0.16469586 0.21882126 0.88200003 1.5897693e-38
-0.1623762 0.21804804 0.88200003 2.0846826e-38
-0.10902402 0.21804804 0.88200003 2.2224364e-38
-0.1662423 0.22114092 0.88200003 1.645517e-38
-0.10902402 0.22191414 0.88200009 2.1489664e-38
-0.10902402 0.22500703 0.88200003 2.0571297e-38
-0.10902402 0.23041956 0.88200003 1.845908e-38
-0.10747758 0.23041956 0.88200003 1.3502085e-38
-0.10902402 0.23351243 0.88200003 1.2673384e-38
-0.14943485 0.19290698 0.88550001 2.3418291e-38
-0.14633055 0.19368283 0.88550001 2.3425501e-38
-0.14167194 0.19445957 0.88550001 2.3439838e-38
-0.13757302 0.19353521 0.88660002 2.343841e-38
-0.13359697 0.19262733 0.88600004 2.3438774e-38
-0.13005297 0.19282651 0.88619995 2.343841e-38
-0.12582883 0.19495839 0.88600004 2.3439484e-38
-0.15629826 0.19984405 0.88700002 2.3418272e-38
-0.15361831 0.19861759 0.88499999 2.3418636e-38
-0.15129074 0.19861759 0.88499999 2.3421862e-38
-0.12142052 0.19667798 0.88499999 2.3436959e-38
-0.11806244 0.19806442 0.88600004 2.3424021e-38
-0.1141347 0.19954364 0.88566673 2.3418279e-38
-0.15813458 0.20213215 0.88566673 2.341826e-38
-0.15478207 0.20133306 0.88499999 2.3419352e-38
-0.1099055 0.20233773 0.88600004 2.3430107e-38
-0.16096389 0.20606488 0.88700002 2.332643e-38
-0.15845311 0.20583257 0.88600004 2.3418267e-38
-0.15594584 0.20482439 0.88499999 2.3418273e-38
-0.10808686 0.20528728 0.88700002 2.2693547e-38
-0.1648519 0.21073051 0.88700002 1.9386058e-38
-0.1620156 0.21041256 0.88566673 2.2408059e-38
-0.15904924 0.20870364 0.88499999 2.3418263e-38
-0.10784315 0.2110312 0.88499999 2.2867228e-38
-0.16601831 0.2142297 0.88700002 1.7186273e-38
-0.16370435 0.21335874 0.88499999 2.1765209e-38
-0.16854969 0.21903604 0.88600004 1.2429496e-38
-0.16641255 0.21799771 0.88620007 1.7185562e-38
-0.16370435 0.21801384 0.88499999 2.0571318e-38
-0.10808686 0.21850653 0.88700002 2.1673347e-38
-0.10784315 0.21646214 0.88499999 2.1581524e-38
-0.16835944 0.22111723 0.88499999 1.17852e-38
-0.10808686 0.22006175 0.88700002 2.1030495e-38
-0.10615709 0.22143525 0.88550007 1.9012257e-38
-0.10326578 0.22128265 0.88566673 1.9853892e-38
-0.10874085 0.2275809 0.88600004 1.9285593e-38
-0.10618713 0.22576971 0.88575006 1.7637938e-38
-0.10326578 0.22594124 0.88566673 1.5999624e-38
-0.10886446 0.22939298 0.88700002 1.8275404e-38
-0.10555562 0.23051366 0.88533342 1.1855142e-38
-0.10318805 0.23042744 0.88499999 1.1411052e-38
-0.10784315 0.23430669 0.88499999 8.5410837e-39
-0.10939484 0.23663422 0.88499999 6.7958379e-39
-0.10784315 0.23663422 0.88499999 3.9489263e-39
-0.14885712 0.19094236 0.889 2.3419011e-38
-0.14573967 0.190163 0.88900006 2.3425843e-38
-0.1418429 0.190163 0.889 2.3443082e-38
-0.13908988 0.19056481 0.88966668 2.3445937e-38
-0.13278869 0.19137195 0.89099997 2.3438768e-38
-0.14496033 0.19328044 0.889 2.3434466e-38
-0.14210269 0.19302064 0.88900006 2.3443788e-38
-0.13872547 0.19250108 0.889 2.344486e-38
-0.12888314 0.19293416 0.89099997 2.3436613e-38
-0.12703513 0.19405979 0.889 2.3440203e-38
-0.12235899 0.19561851 0.889 2.3438393e-38
-0.11924157 0.19561851 0.889 2.3429752e-38
-0.12263426 0.1960586 0.89099997 2.344235e-38
-0.11664371 0.19769679 0.88900006 2.3418288e-38
-0.11456542 0.19873594 0.889 2.3418276e-38
-0.10988928 0.20107402 0.889 2.3446669e-38
-0.16756167 0.21120565 0.889 1.7284931e-38
-0.1691204 0.21432309 0.88900006 1.2154713e-38
-0.16756167 0.21354371 0.889 1.8017107e-38
-0.16912039 0.2174405 0.889 1.2337657e-38
-0.10572117 0.21807389 0.88999999 1.9382843e-38
-0.10380989 0.21776545 0.89033335 2.2338138e-38
-0.13401952 0.19044882 0.89399999 2.3437685e-38
-0.13088457 0.19201629 0.89399999 2.3438766e-38
-0.12586865 0.19421077 0.89399999 2.3442367e-38
-0.12226343 0.19515125 0.89399999 2.3438761e-38
-0.10475992 0.21500599 0.89399999 2.1602725e-38
-0.10266993 0.21474475 0.89399999 1.5749971e-38
-0.10737237 0.21787971 0.89399999 2.158152e-38
-0.12960641 0.1908749 0.89600009 2.3436973e-38
-0.12567893 0.19008939 0.89600003 2.3435544e-38
-0.12193148 0.19115892 0.89733332 2.3431587e-38
-0.11887424 0.19130093 0.898 2.3435552e-38
-0.12882091 0.19244586 0.89600003 2.3439127e-38
-0.12567893 0.19244586 0.89600003 2.3435905e-38
-0.12156586 0.19362935 0.89628571 2.3430859e-38
-0.1179811 0.19433105 0.89600003 2.3426912e-38
-0.117824 0.19715883 0.89600003 2.3418287e-38
-0.10942728 0.21176934 0.898 2.2959069e-38
-0.10612167 0.21145491 0.89666671 2.1785669e-38
-0.1063558 0.21349709 0.89600003 2.1316433e-38
-0.10289963 0.21286869 0.89600003 1.5936177e-38
-0.10761259 0.21601066 0.89600003 2.259171e-38
-0.11611187 0.19904891 0.90100002 2.3418274e-38
-0.11453211 0.19983879 0.90100002 2.3418276e-38
-0.1138676 0.2016421 0.90200001 2.3418263e-38
-0.11161982 0.20186564 0.903 2.34532e-38
-0.1083332 0.2103395 0.90200001 2.3433731e-38
-0.10618567 0.21052536 0.90166664 2.0986099e-38
-0.10881361 0.20730186 0.90600002 2.3481148e-38
-0.1072251 0.20730186 0.90600002 2.3500917e-38
-0.10881361 0.20889036 0.90600002 2.3465638e-38
-0.1072251 0.20889036 0.90600002 2.247347e-38
