# .PCD v0.7 - Point Cloud Data file format
VERSION 0.7
FIELDS x y z rgb
SIZE 4 4 4 4
TYPE F F F F
COUNT 1 1 1 1
WIDTH 266
HEIGHT 1
VIEWPOINT 0 0 0 1 0 0 0
POINTS 266
DATA ascii
0.054725036 0.22194043 0.86699998 2.341827e-38
0.05776532 0.22194043 0.86699998 2.341827e-38
0.060045525 0.22270049 0.86699998 2.3418266e-38
0.050924689 0.22498071 0.86699998 2.341826e-38
0.053964969 0.22498071 0.86700004 2.3326426e-38
0.057765316 0.22422063 0.86699998 2.3418267e-38
0.060045525 0.22422063 0.86699998 2.3418267e-38
0.047884405 0.23106126 0.86699998 2.2224382e-38
0.05007783 0.2306602 0.86550003 2.2224376e-38
0.053584933 0.2314413 0.86699998 2.2132544e-38
0.057765316 0.23182134 0.86699998 2.1857033e-38
0.047884405 0.23334149 0.86699998 2.0755018e-38
0.049991038 0.23253408 0.86400002 2.1581527e-38
0.054345004 0.23372152 0.86699998 2.1673359e-38
0.05776532 0.23410153 0.86699998 2.1765189e-38
0.046578176 0.20692927 0.87099999 2.3452788e-38
0.049632482 0.20692927 0.87099999 2.3454949e-38
0.052686788 0.20692927 0.87099999 2.3451e-38
0.038942408 0.21074715 0.87099999 2.3421165e-38
0.042214882 0.21041992 0.87099999 2.342298e-38
0.0458146 0.20998357 0.87099999 2.3447057e-38
0.049632479 0.20998359 0.87099993 2.345422e-38
0.054023046 0.21017447 0.87099993 2.3451719e-38
0.0579652 0.21050432 0.87 2.3444895e-38
0.060322553 0.21151073 0.87099999 2.3436966e-38
0.038178831 0.21380146 0.87099999 2.3420081e-38
0.041996714 0.21380144 0.87099999 2.3420086e-38
0.046531342 0.21435289 0.87014282 2.3426187e-38
0.050002683 0.21406433 0.86985713 2.3431217e-38
0.054089457 0.21407235 0.86900002 2.3430498e-38
0.057898574 0.21407235 0.86900008 2.3427266e-38
0.061317574 0.2142278 0.87066668 2.342152e-38
0.035379052 0.21863745 0.87099999 2.341826e-38
0.038178831 0.21761934 0.87099999 2.3418636e-38
0.041996714 0.21761933 0.87099993 2.3418286e-38
0.046268336 0.21762589 0.86928576 2.3420439e-38
0.050280336 0.21788147 0.86900002 2.3423309e-38
0.054089457 0.21788149 0.86900008 2.3424747e-38
0.057898574 0.21788147 0.86900002 2.3418274e-38
0.061934091 0.21743417 0.86949998 2.3418279e-38
0.065514877 0.21792476 0.87099999 2.3418277e-38
0.035043873 0.22169058 0.86900008 2.3418238e-38
0.038105488 0.22177503 0.86933339 2.3418252e-38
0.041943531 0.22191694 0.86988884 2.3418255e-38
0.046471227 0.22169057 0.86900002 2.3418263e-38
0.05028034 0.22169058 0.86900008 2.3418266e-38
0.053479999 0.22108112 0.86900008 2.3418274e-38
0.057898574 0.22016694 0.86900002 2.3418279e-38
0.061934523 0.22162724 0.86949998 2.3418269e-38
0.065667585 0.22220081 0.87099999 2.3418267e-38
0.035805698 0.22473788 0.86900002 2.3142729e-38
0.038374916 0.22541934 0.8696667 2.3418251e-38
0.0419221 0.22637646 0.86944443 2.3142729e-38
0.04647122 0.22626151 0.86900002 2.3326412e-38
0.049899425 0.22664243 0.86900002 2.3326421e-38
0.054089457 0.22778516 0.86900008 2.295908e-38
0.057898574 0.22702335 0.86900002 2.3142751e-38
0.061707687 0.22626154 0.86900008 2.3234587e-38
0.065667585 0.2260187 0.87099999 2.3142758e-38
0.043523867 0.22983655 0.87099999 2.2959051e-38
0.046166494 0.22991827 0.86900008 2.2499883e-38
0.05028034 0.22930881 0.86900002 2.2224383e-38
0.054394186 0.22991829 0.86900008 2.2499893e-38
0.057898574 0.23007065 0.86900002 2.2499893e-38
0.062008008 0.23004621 0.87014294 2.2408049e-38
0.065667585 0.22983657 0.87099999 2.2408036e-38
0.045709401 0.23235612 0.86900002 2.0846848e-38
0.061803535 0.23423862 0.87033325 2.1581513e-38
0.065413058 0.23339993 0.87099999 2.1397839e-38
0.058727898 0.23796326 0.87 2.1122321e-38
0.061826628 0.23814504 0.87066668 2.0663142e-38
0.046792082 0.20327708 0.875 2.3427287e-38
0.049860414 0.20327708 0.875 2.3429085e-38
0.039121248 0.20787957 0.875 2.3425861e-38
0.042668246 0.20669842 0.87433338 2.3420474e-38
0.045829501 0.20584922 0.87420005 2.343126e-38
0.049803432 0.2053425 0.87400007 2.3434836e-38
0.054623123 0.20603484 0.87450004 2.3435561e-38
0.058298331 0.20711249 0.875 2.343232e-38
0.062133752 0.20787959 0.875 2.3422623e-38
0.034518749 0.2109479 0.875 2.3433354e-38
0.037287846 0.21019547 0.87400007 2.3424758e-38
0.041327819 0.2089351 0.87300003 2.342082e-38
0.055869088 0.2089351 0.87300003 2.3450663e-38
0.058165077 0.2089351 0.87300003 2.3444539e-38
0.062254507 0.21051419 0.87400007 2.3422613e-38
0.065969162 0.21018082 0.875 2.3418304e-38
0.034277227 0.21390097 0.87375003 2.3420435e-38
0.036052916 0.21248208 0.875 2.3422943e-38
0.063522384 0.21352707 0.87300003 2.3418651e-38
0.065894067 0.21377048 0.87400007 2.3418294e-38
0.068781808 0.21503901 0.875 2.3418286e-38
0.031450417 0.21785165 0.875 2.3418263e-38
0.033929627 0.21760884 0.87300009 2.3418993e-38
0.066583708 0.21658839 0.87300003 2.3418287e-38
0.069534346 0.21817666 0.87400007 2.3418272e-38
0.069933578 0.22183487 0.8738572 2.3418262e-38
0.072872914 0.22245416 0.875 2.3418252e-38
0.069717102 0.22600265 0.87388897 2.2867239e-38
0.072872922 0.22628957 0.875 2.2683557e-38
0.069518536 0.23022759 0.87414294 2.2132542e-38
0.072872914 0.230125 0.875 2.1765198e-38
0.066583708 0.23495631 0.87300003 2.1397833e-38
0.069957338 0.23401804 0.87450004 2.1214172e-38
0.072872914 0.2339604 0.875 2.0481647e-38
0.065726332 0.23792891 0.87379998 2.0754976e-38
0.069804579 0.23779583 0.875 1.836832e-38
0.072872914 0.23779583 0.875 1.6902884e-38
0.062900834 0.24163124 0.875 1.9744783e-38
0.066224858 0.24111986 0.875 1.8552009e-38
0.070571661 0.24009708 0.875 1.3967349e-38
0.042430665 0.19903839 0.88000005 2.3441658e-38
0.046261258 0.19892485 0.87950003 2.3446326e-38
0.050088353 0.19881134 0.87900007 2.3446694e-38
0.053663686 0.19899282 0.87866676 2.3442385e-38
0.057817336 0.19965848 0.87933338 2.3442734e-38
0.038401153 0.20280281 0.87960005 2.3431961e-38
0.042376701 0.20263839 0.87888896 2.3429083e-38
0.04602886 0.20212673 0.87800008 2.3433396e-38
0.050031364 0.20166489 0.87800014 2.3435184e-38
0.053879932 0.2024346 0.87800014 2.3431248e-38
0.057743505 0.20248543 0.87822235 2.343304e-38
0.061535336 0.20249422 0.87960005 2.342693e-38
0.065266088 0.20227854 0.88000005 2.3418671e-38
0.030858664 0.20752452 0.88 2.3418294e-38
0.034098826 0.20629017 0.88000005 2.3422265e-38
0.037554868 0.20588055 0.87875009 2.3424774e-38
0.041307949 0.2060266 0.87800002 2.3418315e-38
0.058498211 0.20551346 0.87800002 2.3421922e-38
0.06236707 0.20601968 0.87828588 2.3420473e-38
0.065951139 0.20555955 0.87914294 2.3418668e-38
0.069762632 0.20620202 0.88000011 2.3418301e-38
0.073289327 0.20752452 0.88 2.3418293e-38
0.030984206 0.21010964 0.8792001 2.3418291e-38
0.033728521 0.20991889 0.87840003 2.3422624e-38
0.036946241 0.20859231 0.87800002 2.3422258e-38
0.066195346 0.20859231 0.87800002 2.3418304e-38
0.070062034 0.21018453 0.87822235 2.3418295e-38
0.074004695 0.21044967 0.87933338 2.3418286e-38
0.076375201 0.20983893 0.88 2.34183e-38
0.029859265 0.21364541 0.87900007 2.3418267e-38
0.070351802 0.21382637 0.87800008 2.3418286e-38
0.073892482 0.2139803 0.87800002 2.3418273e-38
0.076922946 0.21380989 0.87919998 2.2684318e-38
0.029606789 0.21782161 0.87885725 2.3418256e-38
0.071583338 0.21628945 0.87800002 2.3418276e-38
0.073892489 0.21782887 0.87800014 2.341826e-38
0.076957658 0.21822512 0.87959999 2.2683938e-38
0.074277341 0.22206229 0.87800002 2.2959077e-38
0.077352308 0.22259144 0.87857157 2.149079e-38
0.074662194 0.22629571 0.87800002 2.2224372e-38
0.078088962 0.22633329 0.87942863 2.0027513e-38
0.081004001 0.22758266 0.88 1.2801891e-38
0.074662194 0.23014429 0.87800002 2.0295824e-38
0.077741042 0.23014426 0.87800014 1.7646931e-38
0.081004001 0.22989705 0.88 1.2621802e-38
0.074149057 0.23424941 0.87800002 1.8372985e-38
0.077741049 0.23399286 0.87800014 1.4258681e-38
0.074662194 0.23784143 0.87800002 1.251235e-38
0.07658647 0.23745658 0.87800002 1.2331914e-38
0.063886203 0.24399914 0.87800002 2.0302993e-38
0.066195346 0.24399914 0.87800002 1.5343834e-38
0.069659054 0.24207485 0.87800002 1.2769187e-38
0.073635913 0.24143341 0.87800002 9.6603807e-39
0.069431998 0.24455492 0.88 7.4405403e-39
0.039434221 0.19794431 0.88200003 2.3441655e-38
0.041753881 0.19717109 0.88200003 2.3443805e-38
0.04561998 0.19717109 0.88200009 2.3444544e-38
0.049486078 0.19717109 0.88200003 2.3446697e-38
0.05489862 0.19871753 0.88200003 2.3441313e-38
0.057218276 0.19871753 0.88200003 2.343663e-38
0.034794901 0.20335685 0.88200003 2.3429087e-38
0.037887782 0.2010372 0.88200003 2.343304e-38
0.061084379 0.20026398 0.88200003 2.3432668e-38
0.067270137 0.20181042 0.88200003 2.3418307e-38
0.06881658 0.20335685 0.88200003 2.3418301e-38
0.031186542 0.20593427 0.88200009 2.3418304e-38
0.033248462 0.2049033 0.88200003 2.3421216e-38
0.071909457 0.20567653 0.88200003 2.3418284e-38
0.074229121 0.20722295 0.88200003 2.3418294e-38
0.028609142 0.21108906 0.88200003 2.3418272e-38
0.07809522 0.21031584 0.88200003 2.0399908e-38
0.027062699 0.21418194 0.88200009 2.3418241e-38
0.07809522 0.21263549 0.88200003 2.1314326e-38
0.027062699 0.21804804 0.88200003 2.3418236e-38
0.07809522 0.21882126 0.88200003 2.1673391e-38
0.081188098 0.22655344 0.88200003 1.2797575e-38
0.034214549 0.19984405 0.88700002 2.3425867e-38
0.0372614 0.19872937 0.88550001 2.3439517e-38
0.0458786 0.19673364 0.88700002 2.3442026e-38
0.050485477 0.19728769 0.88600004 2.3442386e-38
0.054651108 0.19762143 0.88633341 2.3442395e-38
0.057931446 0.19828884 0.88700002 2.344094e-38
0.062985867 0.19984405 0.88700002 2.3418315e-38
0.065318681 0.19984405 0.88700002 2.3418315e-38
0.031363335 0.20243607 0.88700002 2.3418308e-38
0.03417597 0.20194805 0.88600004 2.3424436e-38
0.036464948 0.20094514 0.88499999 2.3438439e-38
0.062843844 0.20094514 0.88499999 2.3418318e-38
0.066047773 0.2012479 0.88633341 2.3418314e-38
0.0699054 0.20194805 0.88600004 2.3418302e-38
0.072317109 0.20295447 0.88700002 2.3418298e-38
0.030291462 0.20544463 0.88600004 2.341829e-38
0.03336155 0.20404854 0.88499999 2.3425181e-38
0.070602342 0.20404854 0.88499999 2.3418304e-38
0.07411743 0.2055687 0.88620007 2.3418297e-38
0.076982729 0.20684248 0.88700002 2.3422269e-38
0.02719566 0.21057096 0.88633341 2.3418246e-38
0.028706448 0.20947948 0.88499999 2.3418284e-38
0.077584997 0.20870364 0.88499999 2.1405802e-38
0.02566091 0.21384093 0.88700002 2.3418238e-38
0.021772895 0.21772893 0.88700002 2.3235268e-38
0.024883308 0.21772893 0.88700002 2.3418231e-38
0.046033766 0.19505745 0.88999999 2.3446334e-38
0.049154699 0.19505745 0.88999999 2.3439145e-38
0.054256022 0.19477691 0.89049995 2.3444893e-38
0.057737265 0.19505745 0.88999999 2.3442008e-38
0.060077965 0.19505745 0.88999999 2.3426224e-38
0.027338848 0.19840193 0.89099997 2.3423992e-38
0.03039491 0.19795659 0.88900006 2.3418302e-38
0.034330264 0.19817838 0.88999999 2.3424066e-38
0.038218282 0.19732508 0.88966668 2.3439518e-38
0.042179935 0.19762081 0.89099997 2.344704e-38
0.050715163 0.1966179 0.88999999 2.3438439e-38
0.053055864 0.19661792 0.88999999 2.3442026e-38
0.058451749 0.19717722 0.889 2.3445964e-38
0.06181214 0.19768544 0.88928574 2.3428018e-38
0.065842055 0.19752565 0.88957143 2.3425855e-38
0.069518782 0.19918303 0.89099997 2.3418315e-38
0.027338848 0.20230749 0.89099997 2.3418251e-38
0.029875338 0.20133381 0.88900006 2.3418302e-38
0.061569177 0.20029466 0.889 2.3425511e-38
0.067804031 0.20029466 0.889 2.3418315e-38
0.070142105 0.20029466 0.889 2.3418682e-38
0.073259525 0.20185338 0.889 2.3426204e-38
0.022652188 0.20699413 0.89099997 2.3418246e-38
0.026167184 0.20660357 0.89099997 2.3418258e-38
0.028836196 0.20575017 0.889 2.3418269e-38
0.075597592 0.20497081 0.889 2.2775468e-38
0.018992398 0.21100168 0.89033335 1.8651351e-38
0.021988027 0.2100523 0.88940001 2.2867218e-38
0.025289454 0.20955804 0.88957143 2.3418252e-38
0.018120043 0.21412824 0.889 1.8198635e-38
0.021821987 0.21432309 0.88900006 2.3050888e-38
0.024160055 0.21432309 0.88900006 2.3418243e-38
0.050943099 0.19515125 0.89399999 2.3437715e-38
0.053294316 0.19358377 0.89399999 2.3442378e-38
0.062699199 0.19515125 0.89399999 2.3430529e-38
0.065050416 0.19515125 0.89399999 2.3438801e-38
0.025863418 0.19985369 0.89399999 2.3418249e-38
0.035268299 0.19671872 0.89399999 2.3423704e-38
0.038403258 0.19671874 0.89399999 2.3442749e-38
0.042321958 0.19671872 0.89399999 2.3453146e-38
0.061915457 0.19671872 0.89399999 2.3425511e-38
0.025340926 0.20246617 0.89399999 2.3422551e-38
0.022205967 0.20612362 0.89399999 2.1768415e-38
0.025079679 0.20533988 0.89399999 2.3418259e-38
0.01880976 0.2100423 0.89399999 1.7008002e-38
0.021160979 0.20925857 0.89399999 2.0947981e-38
0.038489174 0.19558783 0.89600003 2.3432324e-38
0.041963931 0.19504605 0.89640009 2.3443449e-38
0.046344109 0.19401686 0.89600009 2.3445241e-38
0.050271571 0.19401686 0.89600003 2.3436629e-38
0.037000593 0.19602442 0.898 2.3427317e-38
0.022779306 0.20344277 0.89600003 2.2232264e-38
0.024350293 0.20187178 0.89600003 2.1232465e-38
