# .PCD v0.7 - Point Cloud Data file format
VERSION 0.7
FIELDS x y z rgb
SIZE 4 4 4 4
TYPE F F F F
COUNT 1 1 1 1
WIDTH 309
HEIGHT 1
VIEWPOINT 0 0 0 1 0 0 0
POINTS 309
DATA ascii
-0.15667084 0.15226996 1.0039999 2.1051216e-38
-0.15277293 0.15252146 1.0039999 1.9285862e-38
-0.14698893 0.15403032 1.0039999 1.965282e-38
-0.14258808 0.15403032 1.0039999 2.1136575e-38
-0.13793573 0.15277295 1.0039999 2.219683e-38
-0.13290617 0.15226997 1.0039998 2.2947697e-38
-0.12784515 0.15249 1.0039998 2.2669685e-38
-0.12269615 0.15332618 1.0039999 1.7490171e-38
-0.15637746 0.15637746 1.0039999 1.9497565e-38
-0.15226997 0.15755101 1.0039998 1.7174711e-38
-0.14698894 0.15755101 1.0039998 1.9193651e-38
-0.14258808 0.15755102 1.0039999 1.9931199e-38
-0.1381419 0.15749814 1.0036665 1.8738065e-38
-0.1326414 0.15723541 1.0020001 1.892316e-38
-0.127498 0.15739234 1.0029999 1.8757504e-38
-0.12230287 0.15749814 1.0036665 1.4714938e-38
-0.11882339 0.15931135 1.0039999 1.38949e-38
-0.1417079 0.16283205 1.0039999 1.3784696e-38
-0.13805133 0.16266985 1.0029999 1.3876888e-38
-0.13250904 0.16234553 1.001 1.3879404e-38
-0.12732795 0.1624548 1.0016667 1.4900402e-38
-0.12248961 0.16219084 1.0031428 1.9057851e-38
-0.11882339 0.1610717 1.0039999 2.1009057e-38
-0.1417079 0.16635275 1.0039999 1.2806946e-38
-0.13805133 0.16706637 1.003 1.5477735e-38
-0.13238826 0.16751829 1.00175 1.4003321e-38
-0.12860401 0.16766162 1.0034001 1.2062562e-38
-0.15684472 0.14860521 1.007 2.0020183e-38
-0.15272498 0.14831096 1.007 2.011201e-38
-0.14742815 0.14831096 1.007 2.0020163e-38
-0.14301413 0.14831094 1.007 2.0509924e-38
-0.1368345 0.14831096 1.007 2.0456987e-38
-0.13242048 0.14919375 1.007 2.3509886e-38
-0.12800649 0.14919375 1.007 2.3509886e-38
-0.12447526 0.14919375 1.007 9.0351717e-39
-0.1597874 0.15272497 1.007 2.2148247e-38
-0.15095936 0.15184216 1.007 1.9928325e-38
-0.14742815 0.15184218 1.007 1.9836492e-38
-0.14248446 0.15166561 1.007 2.1243871e-38
-0.13860011 0.15095936 1.007 2.3509809e-38
-0.12624086 0.15095936 1.007 2.3503263e-38
-0.12226825 0.15140076 1.007 1.6351431e-38
-0.11917844 0.15360777 1.007 1.8373269e-38
-0.15802178 0.15846319 1.007 1.4794944e-38
-0.11741283 0.15802179 1.007 1.7664106e-38
-0.15625618 0.161553 1.007 1.1504726e-38
-0.15237185 0.16225925 1.007 1.0746252e-38
-0.14742815 0.16243581 1.007 1.2856981e-38
-0.14389692 0.1624358 1.007 1.3775324e-38
-0.11741284 0.1624358 1.007 1.9168761e-38
-0.15166561 0.16720295 1.007 1.4094055e-38
-0.14742815 0.16684984 1.007 1.5107818e-38
-0.14345554 0.16729121 1.007 1.4830195e-38
-0.12624086 0.16773263 1.007 1.1605152e-38
-0.12270965 0.16567275 1.007 1.547816e-38
-0.14095426 0.17096958 1.007 1.0405541e-38
-0.1368345 0.17126384 1.007 7.1830111e-39
-0.13242048 0.17214663 1.007 1.0116338e-39
-0.12888928 0.17126384 1.007 3.5019892e-39
-0.14831094 0.17656066 1.007 1.1801057e-38
-0.15541108 0.13942593 1.013 2.0571168e-38
-0.15185884 0.13853787 1.013 2.0662998e-38
-0.14715412 0.13792245 1.0124 2.1603313e-38
-0.14292461 0.13782021 1.012625 2.2855497e-38
-0.1376498 0.1376498 1.0130001 1.9062876e-38
-0.13257518 0.13815728 1.013 2.3413736e-38
-0.16073945 0.14475432 1.013 1.9836506e-38
-0.15709411 0.14289246 1.0124 2.0295666e-38
-0.15301546 0.14282839 1.010375 2.066301e-38
-0.14786734 0.14255476 1.0100001 2.0295675e-38
-0.14269474 0.14269474 1.0110002 1.9116201e-38
-0.13742276 0.1427412 1.0113333 2.163685e-38
-0.13219081 0.14283529 1.012 2.2193937e-38
-0.12699306 0.14297819 1.0130001 1.8324304e-38
-0.12255274 0.14297819 1.013 2.0571534e-38
-0.11988855 0.14475432 1.013 2.0938556e-38
-0.16058078 0.14815843 1.0120001 1.9836504e-38
-0.15790227 0.14668678 1.01 2.0112011e-38
-0.15317997 0.1460965 1.01 2.0479344e-38
-0.14786737 0.1460965 1.01 2.0295659e-38
-0.14184642 0.14715903 1.0100001 2.2291535e-38
-0.13724217 0.1460965 1.01 2.3509886e-38
-0.13192956 0.14698192 1.0100001 1.9350655e-38
-0.12750238 0.14698192 1.01 2.3509865e-38
-0.12294461 0.14775449 1.0107501 1.6356442e-38
-0.11824633 0.14797345 1.0122499 2.075488e-38
-0.11278405 0.14741851 1.013 1.873445e-38
-0.16606784 0.15274689 1.013 1.5704268e-38
-0.1629315 0.15204206 1.0108572 1.8000154e-38
-0.11718469 0.15262766 1.0107501 1.7358737e-38
-0.11278404 0.15185882 1.0130001 1.7552132e-38
-0.10923179 0.15185884 1.013 2.1003024e-38
-0.16606784 0.15718719 1.013 1.8420828e-38
-0.16286784 0.15754475 1.0115 1.2695314e-38
-0.11599176 0.1567217 1.01 1.0562989e-38
-0.11270865 0.15708318 1.0123334 1.9985237e-38
-0.10923178 0.15541108 1.013 2.1935703e-38
-0.16224995 0.16224878 1.0113333 1.676521e-38
-0.15790227 0.16321488 1.01 1.5564553e-38
-0.15495083 0.16380516 1.01 1.2612465e-38
-0.11599176 0.16380516 1.01 7.9432043e-39
-0.11270865 0.1624092 1.0123334 6.0813172e-39
-0.16200812 0.16759023 1.013 4.3270835e-39
-0.15760714 0.16734689 1.0100001 1.132675e-38
-0.15450811 0.16690418 1.01 1.5016742e-38
-0.12272105 0.16840942 1.0100001 3.9655093e-39
-0.11783919 0.16745794 1.0106667 3.4137326e-39
-0.11367211 0.16606784 1.013 4.9792422e-39
-0.16118348 0.17272831 1.013 9.0344809e-39
-0.15735103 0.17333092 1.012625 6.3590056e-39
-0.152674 0.17240652 1.0100001 4.2345278e-39
-0.14786735 0.17265949 1.0100001 4.5103972e-39
-0.14314505 0.17324978 1.0100001 4.9674237e-39
-0.13724217 0.17443036 1.01 3.9608262e-39
-0.13192956 0.17443036 1.01 5.0657276e-39
-0.12697391 0.17333613 1.0105002 5.5281379e-39
-0.1229446 0.17256767 1.0107501 6.6341295e-39
-0.11811243 0.17317235 1.0130001 1.3823587e-38
-0.16073945 0.1767246 1.013 1.7326257e-38
-0.15317997 0.17797208 1.0100001 1.4381076e-38
-0.14715903 0.17868045 1.0100001 1.3920835e-38
-0.14255476 0.17797209 1.0100001 1.1247179e-38
-0.13724217 0.17797209 1.0100001 1.1247529e-38
-0.13215092 0.17775072 1.0100001 1.1799268e-38
-0.12680326 0.1773501 1.0115001 1.4287429e-38
-0.12255274 0.17761266 1.013 1.6406875e-38
-0.11846765 0.17743506 1.013 1.2167707e-38
-0.15633158 0.13489182 1.0190001 2.3462016e-38
-0.1527583 0.13489184 1.0190001 2.3466693e-38
-0.14673603 0.1342466 1.0175 2.3489002e-38
-0.14272133 0.13379994 1.0175 2.3507722e-38
-0.13812454 0.13366932 1.0165 2.1758164e-38
-0.13290924 0.13379994 1.0175002 2.3048156e-38
-0.12863857 0.13489182 1.0190001 2.1272025e-38
-0.15785375 0.1377217 1.0172858 2.2420862e-38
-0.15230857 0.13627607 1.016 2.3461654e-38
-0.14874579 0.13627607 1.016 2.3444715e-38
-0.14340162 0.13627607 1.016 2.3509886e-38
-0.13182262 0.13627607 1.016 2.3509886e-38
-0.12741035 0.13810217 1.0163332 1.6913602e-38
-0.12327862 0.13846512 1.0190001 2.296255e-38
-0.16526482 0.14382505 1.0190001 2.0203847e-38
-0.16201918 0.14237921 1.01825 2.075557e-38
-0.15959102 0.14175788 1.0170001 2.066302e-38
-0.12152862 0.14115542 1.0178 2.1856863e-38
-0.11717387 0.14250006 1.0172001 2.1673201e-38
-0.11302688 0.14302571 1.0184001 2.1215454e-38
-0.16615814 0.14739835 1.0190001 1.8826292e-38
-0.16380571 0.14740641 1.0166 1.9560982e-38
-0.11757152 0.14518301 1.016 2.1030376e-38
-0.11311805 0.14518301 1.016 2.0479367e-38
-0.10857984 0.14784837 1.0180001 1.9874674e-38
-0.10451883 0.14918499 1.0190001 9.2102247e-39
-0.17062476 0.15365161 1.0190001 2.0910785e-38
-0.16801995 0.15197432 1.0167501 1.2046687e-38
-0.1071988 0.1527583 1.0190001 1.9536462e-38
-0.10451883 0.1527583 1.0190001 3.8675109e-39
-0.17062478 0.15811823 1.0190001 1.6120879e-38
-0.16834104 0.15765272 1.016 1.9716502e-38
-0.10778791 0.15822452 1.01825 4.7905588e-39
-0.10451883 0.15722491 1.0190001 7.7515767e-39
-0.17062476 0.16258484 1.0190001 5.7031825e-39
-0.1672722 0.16264062 1.016 1.114268e-38
-0.10837704 0.16189887 1.0175 4.7030631e-39
-0.17062476 0.16526482 1.0190001 6.3658719e-39
-0.16792671 0.16721101 1.0178001 5.9945362e-39
-0.16477826 0.16834104 1.016 1.4848957e-39
-0.11267271 0.16789569 1.016 9.0344318e-39
-0.10987877 0.16615814 1.0190001 1.0876198e-38
-0.16433293 0.17234915 1.016 1.1521602e-38
-0.11315458 0.17196079 1.0163332 1.5392363e-38
-0.15768778 0.13349704 1.022 2.1489522e-38
-0.153208 0.13349704 1.0220001 2.1765046e-38
-0.1478323 0.13289975 1.0220001 2.0954307e-38
-0.14245658 0.13170514 1.0220001 2.3504081e-38
-0.13708085 0.13170514 1.0220001 2.3509886e-38
-0.13260108 0.13170514 1.022 2.3506653e-38
-0.12856929 0.13304907 1.022 1.9234361e-38
-0.1227456 0.13349704 1.0220001 2.205425e-38
-0.11916178 0.13349704 1.022 2.0020242e-38
-0.16575135 0.1379768 1.022 2.0571175e-38
-0.16267951 0.13682488 1.022 2.0938534e-38
-0.15858373 0.13528894 1.022 2.3444741e-38
-0.12632941 0.13528894 1.022 2.3463877e-38
-0.12248962 0.13656889 1.022 2.3461283e-38
-0.11762587 0.13759282 1.022 2.2629764e-38
-0.11289012 0.13708085 1.022 2.0576986e-38
-0.16575135 0.14156061 1.022 2.0663024e-38
-0.16395944 0.14156061 1.022 2.0846687e-38
-0.11736988 0.14066467 1.0220001 2.3461314e-38
-0.11127739 0.1417398 1.022 1.8834938e-38
-0.10841034 0.14424847 1.022 2.3460903e-38
-0.16814058 0.14783229 1.0220001 1.5890437e-38
-0.10721575 0.14663768 1.0220001 2.3493335e-38
-0.10482653 0.14783229 1.022 1.7692951e-38
-0.17112708 0.15141609 1.022 2.1368214e-38
-0.17351627 0.15798643 1.0220001 1.2248673e-38
-0.17336695 0.16171956 1.022 5.3441207e-39
-0.1075144 0.16395944 1.022 1.2995632e-38
-0.10482653 0.16037562 1.022 1.354883e-38
-0.11020225 0.16933516 1.022 1.5847963e-38
-0.10769358 0.16718487 1.022 1.6313604e-38
-0.16819726 0.12862277 1.026 1.7367727e-38
-0.16311961 0.1288735 1.0280001 2.1953742e-38
-0.15771233 0.1288735 1.0280001 2.1868386e-38
-0.15201049 0.12862277 1.026 2.2441658e-38
-0.14708573 0.1276416 1.0268 2.3047443e-38
-0.1446719 0.12849741 1.025 2.3509886e-38
-0.12797228 0.1288735 1.028 2.1948713e-38
-0.11896016 0.1288735 1.028 2.3062213e-38
-0.17153093 0.13367997 1.0280001 1.6736431e-38
-0.16793206 0.13196309 1.0257499 1.9290167e-38
-0.1628557 0.13226183 1.0263335 2.1307302e-38
-0.15725207 0.13119316 1.0250001 2.1490996e-38
-0.15186058 0.13119316 1.0250001 2.0946417e-38
-0.1476672 0.13089363 1.025 2.1821164e-38
-0.14287475 0.13029459 1.025 2.1013051e-38
-0.13748324 0.13029459 1.025 2.1918439e-38
-0.13234773 0.13054882 1.027 1.9684206e-38
-0.12728217 0.13124226 1.0268 2.2040589e-38
-0.12288956 0.13152543 1.0262001 2.2224238e-38
-0.11766137 0.13205843 1.0265 2.2410759e-38
-0.11279413 0.13260569 1.0272501 2.2234299e-38
-0.10904681 0.13428077 1.028 2.3456579e-38
-0.17168112 0.13833624 1.028 1.8838907e-38
-0.1683346 0.13688418 1.0250001 1.8276353e-38
-0.11681582 0.13568607 1.025 2.1491387e-38
-0.11052575 0.13748324 1.025 1.9193619e-38
-0.10814559 0.13788563 1.028 2.3184657e-38
-0.1703293 0.1423917 1.028 1.726515e-38
-0.16803508 0.14287475 1.025 2.029568e-38
-0.10710874 0.14259872 1.0267143 2.3017591e-38
-0.1703293 0.14509533 1.028 1.4603733e-38
-0.16983223 0.14736766 1.025 1.2401503e-38
-0.1052881 0.1457822 1.0265 2.2667565e-38
-0.17316416 0.15215513 1.027 2.3030514e-38
-0.10363953 0.15320626 1.028 2.3981626e-39
-0.17522374 0.15635349 1.025 1.0307823e-38
-0.17342657 0.1554549 1.025 2.265985e-38
-0.10363953 0.15861353 1.028 1.1244315e-38
-0.10513424 0.16354215 1.025 1.677744e-38
-0.12817533 0.11802284 1.034 2.2686281e-38
-0.16135225 0.12418684 1.034 2.2040554e-38
-0.15591341 0.12418684 1.034 1.855077e-38
-0.15198536 0.12358253 1.0340002 2.3501241e-38
-0.14775515 0.1223739 1.034 2.2302664e-38
-0.14283431 0.1226329 1.034 2.2309896e-38
-0.13687748 0.12328037 1.034 1.936106e-38
-0.13234511 0.12418684 1.034 2.3051434e-38
-0.12745015 0.12273649 1.034 2.2960365e-38
-0.12418684 0.12418684 1.034 2.2591581e-38
-0.16616632 0.12696122 1.0320001 1.9934436e-38
-0.16243196 0.12657665 1.0328001 2.1583535e-38
-0.15749624 0.12672086 1.0325 2.1036116e-38
-0.15238798 0.12671883 1.031 2.3015053e-38
-0.14732647 0.12563422 1.031 2.2767619e-38
-0.14203987 0.12756436 1.0320002 1.9720465e-38
-0.13716702 0.12734035 1.0322858 2.1289943e-38
-0.132735 0.12775926 1.0317501 1.865418e-38
-0.12718366 0.12692542 1.0310001 2.2776321e-38
-0.12237795 0.12735303 1.032125 2.3146553e-38
-0.1172298 0.12773752 1.0334001 2.3451495e-38
-0.11298041 0.1292496 1.031 2.346093e-38
-0.11117273 0.13105728 1.031 2.3460893e-38
-0.17263408 0.14280725 1.031 1.74499e-38
-0.10574967 0.14009571 1.031 2.3501196e-38
-0.17263409 0.14732647 1.031 1.8298415e-38
-0.10293499 0.15183896 1.033 1.0050326e-38
-0.10186614 0.15710053 1.0328749 1.3550975e-38
-0.15173917 0.1176149 1.038 2.350268e-38
-0.14741677 0.11738741 1.0380001 2.3508444e-38
-0.14309435 0.1176149 1.038 2.1569119e-38
-0.13717946 0.1176149 1.038 2.0544875e-38
-0.13285707 0.11829739 1.038 1.9049177e-38
-0.12375727 0.11920737 1.038 2.1958085e-38
-0.15742654 0.12254398 1.0380001 1.9747888e-38
-0.15317997 0.12163399 1.038 2.3495868e-38
-0.1410469 0.12193732 1.038 2.0535519e-38
-0.13740698 0.12102734 1.038 1.7359916e-38
-0.1319471 0.12193733 1.0380001 2.213348e-38
-0.12739719 0.1228473 1.038 2.277634e-38
-0.12330228 0.12330229 1.038 2.3056877e-38
-0.11738741 0.12466725 1.038 2.3178179e-38
-0.11374749 0.12466725 1.038 2.2536765e-38
-0.11647743 0.12648721 1.038 2.3449677e-38
-0.11314084 0.12770054 1.038 2.2722605e-38
-0.10646766 0.13922693 1.038 2.3502303e-38
-0.17562613 0.1446868 1.038 1.8331134e-38
-0.10404104 0.14408016 1.038 1.7601798e-38
-0.17562613 0.14741676 1.038 2.0083205e-38
-0.10373771 0.14741676 1.038 1.3640217e-38
-0.17562613 0.15196665 1.038 2.3496505e-38
-0.10282773 0.15136001 1.038 1.2348018e-38
-0.1560563 0.1195519 1.041 2.1160795e-38
-0.14145453 0.11590146 1.041 2.3509886e-38
-0.13962932 0.11590146 1.041 2.3509886e-38
-0.15970674 0.12137713 1.041 2.0846658e-38
-0.12228973 0.12228974 1.041 2.315049e-38
-0.11809172 0.12247226 1.041 2.14236e-38
-0.10403754 0.14236715 1.041 1.7140105e-38
-0.17847179 0.14826888 1.044 2.2941267e-38
-0.10159164 0.14735365 1.044 1.1524839e-38
-0.10129971 0.15149325 1.041 1.4193112e-38
-0.10217549 0.14359799 1.05 1.0875847e-38
-0.11118587 0.14159568 1.084 2.3500166e-38
-0.11530534 0.14008169 1.087 2.346931e-38
-0.11276416 0.14198756 1.0870001 2.3502656e-38
-0.1274077 0.12644249 1.101 1.9116947e-38
-0.12451208 0.12644249 1.101 1.7376751e-38
