# .PCD v0.7 - Point Cloud Data file format
VERSION 0.7
FIELDS x y z rgb
SIZE 4 4 4 4
TYPE F F F F
COUNT 1 1 1 1
WIDTH 343
HEIGHT 1
VIEWPOINT 0 0 0 1 0 0 0
POINTS 343
DATA ascii
-0.21649282 0.24483372 0.898 1.7265089e-38
-0.21302895 0.24420393 0.89799994 1.7361265e-38
-0.21649282 0.24640819 0.898 1.7266196e-38
-0.21302894 0.24703799 0.89799994 1.5061772e-38
-0.20783311 0.24719544 0.898 1.2856976e-38
-0.23511411 0.23353085 0.903 1.7632443e-38
-0.23204023 0.23283011 0.90233338 1.7999803e-38
-0.22802076 0.23291001 0.9022727 1.7999796e-38
-0.22403127 0.23353085 0.903 1.8183458e-38
-0.20899031 0.23353085 0.903 1.7907923e-38
-0.23543076 0.23796399 0.903 2.1810041e-38
-0.23224235 0.23769386 0.90277779 1.8853664e-38
-0.22688363 0.23765662 0.90118188 1.7724265e-38
-0.2220785 0.2370932 0.90149999 1.7907955e-38
-0.21741667 0.23718058 0.9018333 1.966039e-38
-0.21286957 0.23740044 0.90266669 2.1999458e-38
-0.20763324 0.23782828 0.903 2.2381944e-38
-0.20186564 0.23828061 0.903 2.0816816e-38
-0.19869912 0.23828062 0.90300006 1.9601398e-38
-0.23590574 0.24303041 0.903 1.7091895e-38
-0.23248237 0.24276125 0.90199995 1.7453841e-38
-0.22748449 0.24249214 0.90100002 1.7081785e-38
-0.22195533 0.24249209 0.90100002 1.7356935e-38
-0.21721609 0.24249212 0.90100002 1.8461131e-38
-0.21225116 0.24204077 0.90100008 1.8191745e-38
-0.20706117 0.24262671 0.90149999 1.9024751e-38
-0.20186563 0.24303041 0.903 1.7558259e-38
-0.19790749 0.24223879 0.903 1.7198128e-38
-0.23590575 0.2477802 0.903 1.2232893e-38
-0.23248236 0.24750578 0.90200007 1.2765927e-38
-0.22748446 0.24723141 0.90100002 1.4969227e-38
-0.22195533 0.24723138 0.90100002 1.5887555e-38
-0.21784797 0.24786329 0.90100002 1.5061035e-38
-0.21089706 0.24723139 0.90100002 1.4602951e-38
-0.20632809 0.24704224 0.90174997 1.3226128e-38
-0.2023934 0.24725243 0.903 1.1759978e-38
-0.23550992 0.25213414 0.903 1.5941589e-38
-0.23248236 0.25225031 0.90200007 1.4097327e-38
-0.22748446 0.25197071 0.90100002 1.3071637e-38
-0.22195533 0.25197068 0.90100002 1.195916e-38
-0.2172161 0.25197068 0.90100002 1.2326861e-38
-0.21247683 0.25197068 0.90100002 1.3344603e-38
-0.2071759 0.25225091 0.90199995 1.6024044e-38
-0.20344891 0.25173834 0.903 1.694962e-38
-0.23194759 0.25727975 0.903 5.2511894e-39
-0.22719781 0.25727978 0.903 9.671542e-39
-0.22211955 0.25690103 0.90166664 1.0136875e-38
-0.21748358 0.25702769 0.90211105 1.0322336e-38
-0.21294846 0.25727978 0.903 8.2050719e-39
-0.20800076 0.25668603 0.90299994 3.8729591e-39
-0.23141983 0.26150179 0.903 6.6388238e-39
-0.22719781 0.26202956 0.903 4.7970748e-39
-0.22244804 0.26202956 0.903 4.6894313e-40
-0.21769825 0.26202956 0.903 8.3555224e-40
-0.21314636 0.26183161 0.90299994 2.1241232e-39
-0.20978194 0.26123789 0.903 2.9538685e-39
-0.22199567 0.26655313 0.903 1.2998857e-38
-0.21848986 0.26519606 0.903 1.2814478e-38
-0.23093912 0.22881761 0.90733337 1.7265093e-38
-0.22707307 0.2284648 0.90724999 1.7356938e-38
-0.22208771 0.22765981 0.90799999 1.7540602e-38
-0.21685678 0.22709122 0.90800005 1.8183446e-38
-0.21285395 0.22781901 0.90799999 1.8550797e-38
-0.24119203 0.23482391 0.90799999 1.72651e-38
-0.23748176 0.23251237 0.90675008 1.7265093e-38
-0.23324208 0.23069692 0.90679997 1.7724286e-38
-0.22599998 0.23129855 0.9066667 1.8275303e-38
-0.22229727 0.23217854 0.90700012 1.8275293e-38
-0.21707229 0.23217818 0.90700006 1.8643008e-38
-0.21246718 0.23198466 0.90709102 1.855117e-38
-0.20740704 0.23198466 0.90709102 1.901181e-38
-0.20269005 0.23275833 0.90740007 1.836859e-38
-0.19828679 0.23311694 0.90755558 1.8092352e-38
-0.24119203 0.23800799 0.90799999 1.8657055e-38
-0.238278 0.23748374 0.90600008 2.0600719e-38
-0.20650759 0.23589522 0.90600002 1.7081512e-38
-0.20253628 0.23589522 0.90600002 1.7816198e-38
-0.19667211 0.23753424 0.90680009 1.7092635e-38
-0.19343123 0.23800799 0.90799999 1.5337982e-38
-0.24119203 0.24278407 0.90799999 1.9689565e-38
-0.23907225 0.2422493 0.90600002 1.9504097e-38
-0.19657934 0.24185216 0.90600002 1.4245731e-38
-0.19346915 0.24278252 0.90725005 1.5545436e-38
-0.24182884 0.24787855 0.90799999 1.5008851e-38
-0.23907225 0.24701487 0.90600002 1.1405691e-38
-0.20094778 0.24860337 0.90600002 1.1482675e-38
-0.1975393 0.24728346 0.90640002 1.5186376e-38
-0.19355337 0.24684829 0.90733337 1.8058138e-38
-0.24182883 0.25201783 0.90799999 1.5570943e-38
-0.23867513 0.25217757 0.90600002 1.5756821e-38
-0.20200679 0.25283942 0.90600002 1.308568e-38
-0.19803041 0.25198242 0.90799999 1.0781893e-38
-0.24119203 0.25552025 0.90799999 3.9636638e-39
-0.23820698 0.25731128 0.90799999 4.8838685e-39
-0.20690472 0.25932589 0.90600002 2.0311737e-39
-0.2028266 0.25776204 0.90628582 4.2402731e-39
-0.23800798 0.26188841 0.90799999 9.0359074e-39
-0.23377104 0.2639845 0.90700001 1.0419561e-38
-0.21127316 0.26448858 0.90600002 6.4558591e-39
-0.20750041 0.26270151 0.90600008 5.903037e-39
-0.20278439 0.2620874 0.90799999 9.9563937e-39
-0.23218021 0.26796222 0.90700006 1.1429366e-38
-0.22795258 0.26766559 0.90600002 1.2353133e-38
-0.2223928 0.26845986 0.90600002 1.3919727e-38
-0.21675363 0.26801276 0.9065001 1.4748774e-38
-0.21232708 0.26799503 0.90711117 1.4380021e-38
-0.20790084 0.26758605 0.90775001 1.382721e-38
-0.20298338 0.26586843 0.90799999 1.3828302e-38
-0.22216725 0.21782224 0.91300011 2.1475448e-38
-0.21743864 0.21843715 0.91187501 1.9987366e-38
-0.21210513 0.21850829 0.91299999 2.1556497e-38
-0.24091938 0.22491147 0.91299999 1.502755e-38
-0.23771781 0.22411108 0.91300005 2.1565412e-38
-0.23291543 0.22411108 0.91300005 1.9531095e-38
-0.22765367 0.22269545 0.91180003 2.175455e-38
-0.22276035 0.22195995 0.91075003 2.3137137e-38
-0.21754193 0.22233012 0.91029996 1.8229165e-38
-0.21277905 0.22195995 0.91074991 2.219933e-38
-0.20744109 0.22213189 0.91080004 1.9243714e-38
-0.20205675 0.22281976 0.91099995 1.8768274e-38
-0.19806179 0.22343376 0.91257155 2.3048893e-38
-0.24652216 0.22891343 0.91299999 2.089059e-38
-0.24194998 0.22824693 0.91171432 2.1649801e-38
-0.23728503 0.22769547 0.91133338 1.832282e-38
-0.23237805 0.22690764 0.91000003 1.4790955e-38
-0.22776239 0.22616684 0.91000003 1.5898067e-38
-0.2225769 0.22576796 0.91000003 1.4050851e-38
-0.21938582 0.22656572 0.91000003 1.7356912e-38
-0.21260482 0.22616684 0.91000003 1.7265075e-38
-0.20741932 0.22736351 0.90999997 1.8367131e-38
-0.20183496 0.22736351 0.90999997 2.0702641e-38
-0.19719155 0.22752948 0.9106667 1.8045505e-38
-0.19449638 0.22971384 0.91299999 1.7173246e-38
-0.24636208 0.23259528 0.91300005 1.3960831e-38
-0.24192275 0.23195064 0.90999997 1.5798609e-38
-0.23853222 0.23055458 0.91000003 1.5520199e-38
-0.20502603 0.23055458 0.91000003 1.9013616e-38
-0.20343049 0.23055458 0.91000003 1.8367154e-38
-0.19659251 0.23192216 0.91000003 1.7816118e-38
-0.19393641 0.23312297 0.91225004 1.8367119e-38
-0.24652216 0.23771784 0.91300005 1.1390523e-38
-0.24331884 0.23693669 0.91000003 1.634745e-38
-0.1920753 0.23704354 0.9112857 1.4601848e-38
-0.24612196 0.24211997 0.91299999 1.3700452e-38
-0.24331884 0.24252106 0.91000003 1.8861961e-38
-0.19119808 0.24198923 0.91000003 1.6196941e-38
-0.18858261 0.24291885 0.91149998 1.6030908e-38
-0.24692236 0.24692236 0.91299999 1.9900543e-38
-0.24451548 0.24770655 0.91000003 1.6769552e-38
-0.19130445 0.24842453 0.91000003 6.6359372e-39
-0.18778221 0.24771465 0.91149998 3.7800292e-39
-0.24732256 0.25212497 0.91299999 8.7488668e-39
-0.24438253 0.25289202 0.91000003 8.7480821e-39
-0.19598469 0.25395572 0.91000003 1.7582036e-39
-0.19246121 0.25269258 0.90999997 4.4257532e-39
-0.18815224 0.25184792 0.91200006 7.6511807e-39
-0.24652216 0.25692731 0.91300005 8.2043293e-39
-0.24268062 0.25799772 0.91000003 6.456592e-39
-0.20023945 0.25767863 0.91000003 3.3201371e-39
-0.1972478 0.25747919 0.90999997 5.256946e-39
-0.1924843 0.25714275 0.91214293 1.0969486e-38
-0.18916041 0.25586015 0.91299999 1.4564404e-38
-0.24604192 0.26204988 0.91300005 1.0046777e-38
-0.24252108 0.26246524 0.91000003 1.1613034e-38
-0.20023945 0.26246524 0.91000003 1.2168046e-38
-0.19714656 0.2624912 0.91119999 1.3366943e-38
-0.19342919 0.2622633 0.91299999 1.2903451e-38
-0.20119675 0.26789007 0.91000003 7.3839643e-39
-0.22175765 0.21452515 0.91649997 2.248604e-38
-0.21785605 0.2146422 0.917 2.2296273e-38
-0.23660532 0.21970493 0.91799998 1.8706396e-38
-0.23217903 0.21930254 0.91799998 2.0796254e-38
-0.22750551 0.21812519 0.917 2.2295515e-38
-0.22219555 0.21577835 0.91500008 2.2398147e-38
-0.21698159 0.21617943 0.91500002 2.2669301e-38
-0.21220057 0.21702334 0.916875 2.2031158e-38
-0.20729266 0.21854119 0.91649997 2.0460568e-38
-0.20283139 0.21923943 0.9174 2.2567323e-38
-0.25028655 0.22453362 0.91799998 1.4161002e-38
-0.24706535 0.22327438 0.91680002 2.3305683e-38
-0.24247399 0.22273545 0.91628569 2.0828313e-38
-0.23742512 0.22181794 0.91628581 2.0086427e-38
-0.23214221 0.22123297 0.91500008 2.1471847e-38
-0.22861274 0.22059125 0.91500002 1.6686333e-38
-0.20230553 0.22077206 0.91575003 2.2287247e-38
-0.19701001 0.223143 0.91724998 2.3508421e-38
-0.19314718 0.22453362 0.91799998 2.099217e-38
-0.25108767 0.2272809 0.9174 1.3803086e-38
-0.24754348 0.2266876 0.91500008 2.1546395e-38
-0.2438536 0.2262063 0.91500002 2.2310989e-38
-0.19343834 0.22769041 0.91710007 1.9396039e-38
-0.25162172 0.23232982 0.917 1.6859968e-38
-0.24946865 0.23182136 0.91500008 1.3873375e-38
-0.19220155 0.23241192 0.91733342 1.800013e-38
-0.18912329 0.23338619 0.91799998 1.3683495e-38
-0.25189611 0.2374101 0.91799998 1.9720165e-38
-0.24914777 0.23695509 0.91500008 1.5829268e-38
-0.19055507 0.23710923 0.9156 1.6538316e-38
-0.18855415 0.23806234 0.91679996 1.5372957e-38
-0.25189611 0.24223876 0.91799998 2.3127733e-38
-0.24882694 0.24337231 0.91500008 1.7872983e-38
-0.18632728 0.24254483 0.91612506 8.6638416e-39
-0.18389222 0.24264115 0.91799998 4.148411e-39
-0.25028655 0.24787222 0.91799998 1.870417e-38
-0.18529664 0.24786435 0.91500008 6.5451905e-39
-0.18389222 0.24666506 0.91799998 8.1153748e-39
-0.25028655 0.25189611 0.91799998 9.0218131e-39
-0.18593836 0.25299808 0.91500008 1.4103088e-38
-0.18429461 0.25109133 0.91799998 1.5023985e-38
-0.2510803 0.25654021 0.91619998 8.2968962e-39
-0.24946865 0.25749016 0.91500008 9.495417e-39
-0.19010955 0.25909445 0.91500002 1.6316108e-38
-0.18747383 0.25791228 0.91650009 1.3920821e-38
-0.2486665 0.26230305 0.91500002 8.3840654e-39
-0.22656572 0.21442828 0.92299998 2.3489379e-38
-0.22157288 0.21350099 0.92075002 1.7107361e-38
-0.21756411 0.21336277 0.92119998 2.1913113e-38
-0.21280997 0.21442828 0.92300004 2.3509886e-38
-0.20795497 0.21442828 0.92300004 1.962938e-38
-0.20390914 0.21442828 0.92299998 2.3509874e-38
-0.24699841 0.21794152 0.92075002 1.5263806e-38
-0.24210623 0.21816972 0.92239994 2.3384972e-38
-0.23759031 0.2182083 0.92119998 2.0075639e-38
-0.23289578 0.21770349 0.92179996 2.1267333e-38
-0.22775257 0.21613006 0.92060006 2.2122997e-38
-0.21534438 0.21534438 0.92000002 2.3509886e-38
-0.21234708 0.21557847 0.921 1.6771687e-38
-0.20739083 0.21626797 0.92049998 1.7481176e-38
-0.20256765 0.21710759 0.92149997 2.2680087e-38
-0.19786702 0.21862504 0.92250001 2.1847465e-38
-0.19339003 0.21928325 0.92299998 1.7458189e-38
-0.24737328 0.22108003 0.92085719 1.9155125e-38
-0.24276654 0.22072129 0.92000002 2.0737562e-38
-0.23954038 0.2201836 0.92000002 2.3507374e-38
-0.19676946 0.22120793 0.92042857 2.0836212e-38
-0.19257064 0.22237651 0.92166668 1.4054085e-38
-0.18838052 0.22355153 0.92225003 1.7269392e-38
-0.1911484 0.22663587 0.92000002 1.7372837e-38
-0.18758105 0.2272251 0.92138475 1.8480921e-38
-0.18719047 0.23231682 0.92218184 1.9136388e-38
-0.18368007 0.23384817 0.92299998 2.2207976e-38
-0.25488645 0.23708484 0.92300004 2.2392761e-38
-0.18671247 0.2369938 0.92085719 2.174306e-38
-0.18284124 0.23790979 0.92150009 8.2035922e-39
-0.1788251 0.237894 0.92299998 1.364316e-38
-0.25488645 0.24032149 0.92299998 2.0827222e-38
-0.18148828 0.24225488 0.92112499 8.1146728e-39
-0.25342155 0.24760501 0.92119998 1.4087542e-38
-0.18176411 0.24720025 0.92149997 1.327333e-38
-0.25372171 0.25233459 0.92128575 6.2667875e-39
-0.18393408 0.25346556 0.92224991 1.5392714e-38
-0.254058 0.25728413 0.92000002 7.5593256e-39
-0.1841881 0.2560879 0.92149997 1.0694703e-38
-0.20175955 0.20338665 0.92799997 1.8103127e-38
-0.19850537 0.20420019 0.92799997 1.6455483e-38
-0.19850537 0.2058273 0.92799997 1.9199775e-38
-0.24325044 0.21233568 0.92800003 1.5339416e-38
-0.23999624 0.21152212 0.92799997 1.7816109e-38
-0.23067246 0.21442783 0.92649996 2.1886509e-38
-0.22811393 0.21404228 0.926 2.2824966e-38
-0.22336239 0.21280338 0.92649996 1.7365618e-38
-0.2174433 0.21224819 0.92619991 2.0131455e-38
-0.21240683 0.21287021 0.9262858 2.1637563e-38
-0.20711908 0.21280339 0.92649996 1.9593765e-38
-0.20185475 0.21419649 0.92620003 1.8140913e-38
-0.19899675 0.21442783 0.92649996 2.3472722e-38
-0.24650462 0.21721694 0.92799997 1.4142666e-38
-0.24357586 0.21656612 0.92799997 1.8566274e-38
-0.23729965 0.21671084 0.92699999 1.4883519e-38
-0.23352531 0.21620646 0.926 2.1816203e-38
-0.20029642 0.21651475 0.92500001 1.8699461e-38
-0.19686176 0.21681419 0.9262858 2.3232932e-38
-0.19254343 0.21853936 0.9267143 1.7571169e-38
-0.18734685 0.21860328 0.92612505 2.2001976e-38
-0.18382187 0.21871758 0.92574996 2.0646437e-38
-0.19056541 0.22138025 0.92500001 1.8183428e-38
-0.18678114 0.22246146 0.92500007 2.0245199e-38
-0.18353747 0.22192085 0.92500007 2.0558191e-38
-0.18422733 0.22723879 0.92574996 2.3507726e-38
-0.18407808 0.23192216 0.92500001 2.3136061e-38
-0.18230836 0.2359446 0.92699999 3.4973019e-39
-0.25543875 0.243275 0.92500001 1.9348423e-38
-0.17879423 0.24310403 0.92620003 1.2997426e-38
-0.25543875 0.24570774 0.92500001 1.390711e-38
-0.18083441 0.24895141 0.92500001 1.3827533e-38
-0.17859453 0.24759871 0.92600006 8.0195681e-39
-0.18234533 0.25219858 0.92649996 1.1796748e-38
-0.1797938 0.2513859 0.92799997 4.5154153e-39
-0.20693628 0.20366456 0.93300003 1.9933384e-38
-0.2046403 0.203825 0.93000001 1.9199405e-38
-0.24051349 0.20953208 0.93000001 1.7632449e-38
-0.23773043 0.20868786 0.93059999 1.6622626e-38
-0.23289515 0.20837905 0.93214291 1.8551523e-38
-0.22781521 0.20819867 0.93224996 2.0209971e-38
-0.22278205 0.20889214 0.93200004 2.0030987e-38
-0.21675146 0.20857215 0.93300003 2.2801854e-38
-0.21184388 0.20775422 0.93300003 2.1702702e-38
-0.20759062 0.20726347 0.93300003 2.040407e-38
-0.20300969 0.20708619 0.93000001 1.9929082e-38
-0.19771025 0.20749384 0.93000001 2.0212131e-38
-0.1940414 0.20871679 0.93000001 2.1440864e-38
-0.24132878 0.21442389 0.93000001 1.7356909e-38
-0.23716521 0.21253477 0.93029994 1.7907936e-38
-0.23244317 0.21232486 0.93033326 2.0307175e-38
-0.22780722 0.21172515 0.93042856 2.2722289e-38
-0.22188257 0.21078081 0.93120003 1.9478878e-38
-0.21721828 0.21068536 0.93149996 2.1414967e-38
-0.21231857 0.21068536 0.93149996 2.0587757e-38
-0.20711628 0.21085086 0.9317143 1.9563867e-38
-0.2023557 0.21161504 0.93200004 1.8918547e-38
-0.19762003 0.21231751 0.93149996 2.0404041e-38
-0.19281933 0.21258231 0.93066663 2.0151936e-38
-0.24132878 0.21605448 0.93000001 1.7448792e-38
-0.23888288 0.21605448 0.93000001 1.6530455e-38
-0.19209181 0.21611874 0.93128568 2.015876e-38
-0.18848617 0.21622741 0.93075001 2.2751825e-38
-0.18292044 0.22456911 0.93150002 1.2904871e-38
-0.18321632 0.22820249 0.93300003 1.2350958e-38
-0.18403426 0.23311004 0.93300003 8.9357818e-39
-0.17802075 0.24335256 0.93150002 9.1255457e-39
-0.1774908 0.24783278 0.93300003 4.4231902e-39
-0.22541291 0.20410115 0.935 1.9288367e-38
-0.22194885 0.20357533 0.93559998 1.8466886e-38
-0.21733138 0.20338973 0.93550003 1.8099181e-38
-0.21275298 0.20371543 0.93700004 1.8560855e-38
-0.2096899 0.20393372 0.93800002 1.7915866e-38
-0.23033102 0.20574051 0.935 1.7450912e-38
-0.22664243 0.20615035 0.935 1.9286935e-38
-0.22213416 0.20656018 0.93500006 1.9377329e-38
-0.21721606 0.20656018 0.93500006 2.1319903e-38
-0.21252678 0.20596056 0.93600005 2.1516508e-38
-0.20901924 0.20574051 0.935 2.1608004e-38
-0.18278939 0.23279007 0.935 5.9858524e-39
-0.18263218 0.2373952 0.93700004 5.9908943e-39
-0.18008663 0.24258244 0.93800002 1.4286707e-38
-0.17787127 0.24344595 0.935 6.359681e-39
-0.22568817 0.20419407 0.94300002 1.6451901e-38
-0.22191152 0.20211111 0.94099998 1.4714215e-38
-0.21672952 0.20189634 0.94 1.5263412e-38
-0.21343327 0.20189632 0.94 1.4713117e-38
-0.18269995 0.23395516 0.94300002 1.1981469e-38
-0.18269996 0.23726194 0.94300002 1.2534222e-38
-0.18328118 0.23304078 0.94599998 1.235304e-38
