# .PCD v0.7 - Point Cloud Data file format
VERSION 0.7
FIELDS x y z rgb
SIZE 4 4 4 4
TYPE F F F F
COUNT 1 1 1 1
WIDTH 318
HEIGHT 1
VIEWPOINT 0 0 0 1 0 0 0
POINTS 318
DATA ascii
-0.061731353 0.17319074 0.97799999 2.0709464e-38
-0.058301836 0.17319074 0.97799999 2.1357364e-38
-0.061731353 0.17576288 0.97799999 1.9285454e-38
-0.058301836 0.17576288 0.97799999 1.9285454e-38
-0.071599118 0.1682148 0.98400009 2.1779791e-38
-0.06812606 0.16815723 0.98366672 2.1879239e-38
-0.062866643 0.16792813 0.98233342 2.1318902e-38
-0.057916738 0.16833918 0.98185718 2.0394429e-38
-0.053052358 0.16950876 0.98400003 1.8734539e-38
-0.072461762 0.172528 0.98400003 2.315883e-38
-0.067779042 0.1727785 0.98175001 2.2463727e-38
-0.063468724 0.17217401 0.98100007 2.2387699e-38
-0.056932658 0.17217401 0.98100007 2.2482057e-38
-0.05275517 0.17290933 0.98250008 2.3022297e-38
-0.076559298 0.17705686 0.98400009 1.8091614e-38
-0.072461762 0.17684123 0.98400009 1.9102162e-38
-0.068011791 0.17762847 0.98200005 1.8458935e-38
-0.063026443 0.1785135 0.98100007 1.7081402e-38
-0.057620667 0.17830876 0.98100007 1.616305e-38
-0.052932955 0.17707841 0.98340005 1.7823309e-38
-0.08022552 0.18374231 0.98400003 1.9158718e-38
-0.076716438 0.18230766 0.98325002 1.4354097e-38
-0.072845213 0.18288706 0.98220009 1.463068e-38
-0.068046644 0.18260023 0.98250002 1.3237313e-38
-0.063026443 0.18269069 0.98100007 1.3239475e-38
-0.057737261 0.18211959 0.98300004 1.3882312e-38
-0.05348368 0.1811544 0.98400003 1.5088355e-38
-0.08022552 0.1854676 0.98400003 1.7039886e-38
-0.076774955 0.18748043 0.98400009 1.1972489e-38
-0.072461754 0.18805552 0.98400003 1.0317643e-38
-0.068723649 0.18690532 0.98400009 1.658696e-38
-0.062627666 0.18650275 0.98400003 1.8982613e-38
-0.05865952 0.18633023 0.98400003 1.8522712e-38
-0.077165082 0.15866527 0.98900002 2.1305845e-38
-0.062425677 0.15866527 0.98900002 1.8275302e-38
-0.058957584 0.15866527 0.98900002 1.6989596e-38
-0.081066675 0.16256687 0.98900002 2.0938499e-38
-0.077165075 0.16213338 0.98900002 2.1030341e-38
-0.071947157 0.16209655 0.98877782 2.1305856e-38
-0.066960238 0.16187519 0.98874992 2.1030347e-38
-0.06272462 0.16219223 0.98785716 2.0479335e-38
-0.058037572 0.16198689 0.98811108 2.0766352e-38
-0.052888423 0.16300039 0.98900002 2.3500106e-38
-0.047686286 0.16300039 0.98900002 2.3509163e-38
-0.086528927 0.16768232 0.98900002 2.0020166e-38
-0.082367212 0.16733551 0.98900002 2.0387498e-38
-0.077009022 0.16699709 0.98699993 2.0571175e-38
-0.072509624 0.16630489 0.98699999 2.0938521e-38
-0.067491055 0.16526656 0.98699999 2.0938499e-38
-0.063164711 0.16526656 0.98699999 2.121404e-38
-0.057626981 0.16595879 0.98699999 2.0203853e-38
-0.05256515 0.16678075 0.98699999 2.0225752e-38
-0.047631931 0.16714671 0.98788887 1.9975484e-38
-0.042484142 0.1673355 0.98900002 1.6350335e-38
-0.091037445 0.17340466 0.98900002 1.296728e-38
-0.087530777 0.17245972 0.98855549 1.9657901e-38
-0.082219549 0.1722271 0.98722225 1.9836504e-38
-0.07700903 0.17218871 0.98699993 2.0020156e-38
-0.073547944 0.17045818 0.98699999 2.3427432e-38
-0.04758985 0.17218873 0.98699993 1.894949e-38
-0.042435244 0.17234343 0.98788887 1.4511824e-38
-0.039016049 0.17167062 0.98900002 2.1989376e-38
-0.091037445 0.17600572 0.98900002 1.2340232e-38
-0.087511495 0.17761998 0.98833328 1.3795191e-38
-0.082200646 0.17738032 0.98699993 1.5612051e-38
-0.078739569 0.17564979 0.98699999 1.9744646e-38
-0.051050927 0.1782456 0.98699999 1.4144497e-38
-0.04758985 0.17738032 0.98699993 1.6459782e-38
-0.042464271 0.17766029 0.98855549 1.9890889e-38
-0.039016049 0.17687276 0.98900002 2.0915847e-38
-0.086702332 0.18294191 0.98900002 1.6672281e-38
-0.082416959 0.18235564 0.98699999 1.5006357e-38
-0.078739569 0.18084143 0.98699999 1.1203931e-38
-0.056242548 0.18430251 0.98699999 1.7861848e-38
-0.052089252 0.18326418 0.98699999 1.7128283e-38
-0.047600172 0.18261345 0.98722225 1.759143e-38
-0.043351166 0.18294191 0.98900002 8.0196157e-39
-0.086702332 0.18814407 0.98900002 4.1491817e-39
-0.082480296 0.18812345 0.98774999 5.2497391e-39
-0.078739569 0.18949412 0.98699999 3.7663764e-39
-0.067491055 0.18949412 0.98699999 4.4131653e-39
-0.063164711 0.18949412 0.98699999 3.5816152e-39
-0.057280876 0.18845581 0.98699999 9.3027777e-39
-0.052781466 0.18776359 0.98699993 4.9804249e-39
-0.047652971 0.18801723 0.98833328 3.2239842e-39
-0.043351166 0.18727703 0.98900002 3.6892882e-39
-0.086413324 0.19219017 0.98900002 1.088166e-38
-0.082049608 0.19268319 0.98814285 8.3916366e-39
-0.07700903 0.19295523 0.98699993 5.7172333e-39
-0.071817413 0.19295523 0.98699993 4.7952756e-39
-0.067491055 0.1929552 0.98699999 4.0537617e-39
-0.063164711 0.19295521 0.98699993 4.0523211e-39
-0.057973087 0.19295523 0.98699993 4.5136468e-39
-0.05278147 0.19295521 0.98699993 8.292548e-39
-0.047652971 0.19234942 0.98833334 1.1335749e-38
-0.085835308 0.19594727 0.98900002 1.3362988e-38
-0.082563579 0.1969813 0.98874998 1.5206899e-38
-0.077035621 0.19734848 0.9873333 1.5855503e-38
-0.071817406 0.19728154 0.98699999 1.3827202e-38
-0.067491055 0.19728154 0.98699999 1.2997447e-38
-0.063228123 0.19748172 0.98800004 1.3181828e-38
-0.058031827 0.19748232 0.98800004 1.5024652e-38
-0.05283495 0.19748232 0.98800004 1.4565487e-38
-0.048181728 0.1965666 0.98900002 1.2535411e-38
-0.080633171 0.20028238 0.98900002 6.5371947e-39
-0.049420331 0.20028238 0.98900002 2.7690961e-39
-0.081457525 0.15856679 0.99199998 2.1214028e-38
-0.07739915 0.15740725 0.99199998 2.148951e-38
-0.072529092 0.15845084 0.99200004 2.1305844e-38
-0.066528477 0.15871173 0.99199998 2.0404052e-38
-0.061745387 0.15740725 0.99199998 2.3509527e-38
-0.057397112 0.1582769 0.99199998 2.2472266e-38
-0.053918503 0.15914655 0.99199998 2.3509886e-38
-0.08667545 0.16378471 0.99199998 2.0479316e-38
-0.08366064 0.16227731 0.99200004 2.084666e-38
-0.053048849 0.16088587 0.99199998 2.3509886e-38
-0.047830932 0.16088587 0.99199998 2.3508808e-38
-0.042613015 0.16262515 0.99200004 1.9990981e-38
-0.091313593 0.16871274 0.99199998 1.9193977e-38
-0.089139454 0.16740826 0.99199998 1.9928331e-38
-0.03739509 0.16871276 0.99200004 1.7564775e-38
-0.092618071 0.17262617 0.99199998 1.5624692e-38
-0.037974861 0.17306101 0.99199998 2.1739171e-38
-0.092473134 0.17769915 0.99199998 1.9627266e-38
-0.03739509 0.17740926 0.99199998 1.603517e-38
-0.091313593 0.18175754 0.99199998 1.4923773e-38
-0.089574285 0.1826272 0.99199998 1.6488558e-38
-0.040873706 0.1826272 0.99199998 4.0623671e-39
-0.039134398 0.18088788 0.99199998 4.5918168e-40
-0.091313593 0.18523614 0.99199998 1.2940165e-39
-0.089574292 0.18697546 0.99199998 4.5140041e-39
-0.040873706 0.18697546 0.99199998 6.4519018e-39
-0.091313593 0.19219339 0.99199998 1.4931333e-38
-0.089139454 0.1926282 0.99199998 1.3921223e-38
-0.043917492 0.19175854 0.99199998 1.3544864e-38
-0.091313593 0.19567199 0.99199998 1.4280151e-38
-0.088124864 0.1974113 0.99200004 9.7647872e-39
-0.046091624 0.19828095 0.99199998 3.8748004e-39
-0.044352319 0.1974113 0.99199998 7.7426449e-39
-0.073492721 0.14961018 0.99800003 2.3509886e-38
-0.066493407 0.14961018 0.99800003 2.3499826e-38
-0.062993757 0.14961018 0.99800003 2.3509886e-38
-0.082679309 0.15442221 0.99800003 2.3465969e-38
-0.077789262 0.15295467 0.99700004 2.032878e-38
-0.072617806 0.15310983 0.99800003 1.996361e-38
-0.067368321 0.15310985 0.99800003 2.3129221e-38
-0.062056601 0.15295467 0.99700004 2.1298277e-38
-0.057066068 0.15327038 0.99762505 2.3411932e-38
-0.052494798 0.15485966 0.99800003 2.1737308e-38
-0.086988784 0.15823898 0.99724996 2.1677203e-38
-0.083532594 0.15745869 0.99599999 2.1122551e-38
-0.077633217 0.1561387 0.99500006 2.1305841e-38
-0.071963377 0.15657485 0.995 2.0662987e-38
-0.067514732 0.15683654 0.995 2.2177322e-38
-0.061932113 0.1561387 0.99500006 2.3509886e-38
-0.057279937 0.15672022 0.99500006 1.5744173e-38
-0.053005144 0.15751934 0.99585712 2.2485967e-38
-0.048284713 0.15839756 0.99687499 2.101412e-38
-0.04280632 0.15899357 0.99650002 2.3504503e-38
-0.037576038 0.15886672 0.99680007 1.5900522e-38
-0.033146765 0.15962785 0.995 2.3492581e-38
-0.095365554 0.16360879 0.99800003 1.7724656e-38
-0.091826454 0.16253789 0.99757159 2.0387504e-38
-0.08843565 0.16232491 0.99550003 2.0571151e-38
-0.037519496 0.16281621 0.99529994 1.8932913e-38
-0.034019049 0.16311698 0.99500006 2.3494785e-38
-0.095659673 0.16729341 0.99650002 1.4520145e-38
-0.092968524 0.16673037 0.99575007 1.9377301e-38
-0.037508182 0.16660611 0.99500006 1.857274e-38
-0.034019049 0.1674784 0.995 2.3509886e-38
-0.095999822 0.17192529 0.99550003 1.5380517e-38
-0.093334317 0.17009524 0.995 1.6622225e-38
-0.035763618 0.17271209 0.995 2.294237e-38
-0.034019049 0.1718398 0.99500006 2.0926218e-38
-0.096097127 0.17734045 0.99650002 1.815274e-38
-0.036199756 0.17663738 0.995 9.2181253e-39
-0.034019049 0.17707352 0.99500006 2.3902368e-39
-0.096192688 0.18276614 0.99750012 4.7026974e-39
-0.093334317 0.18230721 0.99500006 9.853013e-39
-0.037025142 0.18263571 0.99542862 4.0573266e-39
-0.034121618 0.18285689 0.99800003 9.6780678e-39
-0.096065484 0.18810636 0.99800009 1.1154986e-38
-0.092636488 0.18788981 0.995 6.5495429e-39
-0.037520166 0.18760434 0.99533337 1.1524094e-38
-0.034121618 0.18635653 0.99800003 1.3277641e-38
-0.095950812 0.19277234 0.99680007 1.1425006e-38
-0.093334317 0.19277462 0.99500006 1.4747301e-38
-0.041695144 0.19312352 0.995 1.3730717e-38
-0.037820529 0.19260678 0.99671435 8.0206653e-39
-0.066534035 0.14391039 1.003 2.3499478e-38
-0.062768631 0.14399882 1.0028 1.8390233e-38
-0.086697064 0.14830919 1.0039999 2.1548589e-38
-0.082159266 0.14760418 1.0033998 2.1105235e-38
-0.077732161 0.14704993 1.0027142 2.1460311e-38
-0.072933704 0.14674316 1.0023333 2.2495728e-38
-0.067841507 0.1468776 1.00175 1.8876269e-38
-0.062080774 0.14711317 1.0014286 2.322538e-38
-0.057115708 0.14674318 1.0023333 2.2369031e-38
-0.052370306 0.1483092 1.0039999 1.7741637e-38
-0.091714047 0.15297411 1.0039999 2.0754849e-38
-0.086964741 0.15196547 1.002 2.0308231e-38
-0.082664587 0.15146397 1.001 2.1151364e-38
-0.078101359 0.15005991 1.0010002 2.3504505e-38
-0.071081005 0.15005991 1.001 2.3509886e-38
-0.069325924 0.15005991 1.001 2.3489406e-38
-0.060550489 0.15005991 1.001 1.4290323e-38
-0.056601547 0.15049869 1.001 2.3506538e-38
-0.051808961 0.15191491 1.0016667 2.0620932e-38
-0.047648586 0.15243796 1.0028 2.1615273e-38
-0.043453734 0.15323414 1.0034001 1.9571783e-38
-0.038727622 0.15403032 1.0039999 1.9560961e-38
-0.095938884 0.15843117 1.0039999 1.8826277e-38
-0.092235267 0.15723602 1.0020001 2.1952686e-38
-0.088046849 0.15591019 1.0010002 2.3452338e-38
-0.050019972 0.15532516 1.001 2.3504863e-38
-0.047094822 0.15591019 1.0010002 2.3228624e-38
-0.042999625 0.15620272 1.001 2.173301e-38
-0.037752334 0.15628028 1.0015 1.8280327e-38
-0.033446588 0.15755102 1.0039999 2.3315032e-38
-0.09731029 0.16267076 1.003 1.6536519e-38
-0.09301959 0.16059044 1.001 2.0479324e-38
-0.10121992 0.16899326 1.0039999 2.3319033e-38
-0.098519802 0.16735917 1.0016001 1.7119593e-38
-0.031823352 0.16826318 1.0028 1.7878713e-38
-0.1018067 0.17280734 1.0039999 1.3731678e-38
-0.0991624 0.17287605 1.0010002 2.2673167e-38
-0.032501541 0.17304699 1.0020001 4.2352537e-39
-0.10192406 0.17656274 1.0039999 5.2461265e-39
-0.0991624 0.1781413 1.0010002 8.7485053e-39
-0.032517757 0.17753069 1.0025001 8.8378143e-39
-0.10121992 0.18131569 1.0039999 7.1966808e-39
-0.0991624 0.18252902 1.001 5.3477319e-39
-0.03256641 0.18307602 1.0039999 1.2997466e-38
-0.098797925 0.18749686 1.00175 1.3455528e-38
-0.033395298 0.18719418 1.0025001 1.2075841e-38
-0.075921081 0.14389692 1.007 2.3509886e-38
-0.072389871 0.14389692 1.007 2.1850364e-38
-0.069741458 0.14389692 1.007 2.3508092e-38
-0.057382211 0.14389692 1.007 2.1581351e-38
-0.090928733 0.14919375 1.007 2.2258511e-38
-0.087397531 0.14683962 1.007 1.8602683e-38
-0.082100704 0.14566255 1.007 2.0910718e-38
-0.052085396 0.14683962 1.007 2.1581375e-38
-0.046788573 0.14831096 1.007 2.3156935e-38
-0.042374559 0.14831094 1.007 2.345337e-38
-0.038181242 0.14764886 1.007 2.2079044e-38
-0.034429327 0.14919375 1.007 2.2120874e-38
-0.09622556 0.15360777 1.007 1.7817178e-38
-0.093577147 0.15184216 1.007 2.0571158e-38
-0.045905769 0.15095936 1.007 2.1673177e-38
-0.042080294 0.15154789 1.007 2.2686955e-38
-0.037708312 0.15222052 1.007 2.3463039e-38
-0.033546522 0.15272498 1.007 2.1475838e-38
-0.10152237 0.15890458 1.007 2.3506657e-38
-0.098495632 0.15776956 1.007 1.5536064e-38
-0.10152237 0.1624358 1.007 2.3509886e-38
-0.09975677 0.1624358 1.007 1.0597475e-38
-0.032663722 0.1633186 1.007 2.3505581e-38
-0.10152237 0.16596702 1.007 2.3509886e-38
-0.032663722 0.16508421 1.007 2.3508809e-38
-0.10328799 0.17126384 1.007 1.6487542e-38
-0.030898115 0.17214663 1.007 2.3923864e-39
-0.10328799 0.17920905 1.007 7.1015648e-39
-0.030898115 0.17744347 1.007 8.9394e-39
-0.10269945 0.18274027 1.007 1.0787986e-38
-0.031780917 0.18274027 1.007 1.1708108e-38
-0.076373443 0.13942593 1.013 2.2308802e-38
-0.071045063 0.13942593 1.013 2.2805557e-38
-0.067492813 0.13942593 1.013 2.2697519e-38
-0.064828619 0.13942593 1.013 2.2965456e-38
-0.051507674 0.13853787 1.013 2.3344974e-38
-0.047406845 0.13867222 1.0107501 2.1420404e-38
-0.087225571 0.14292723 1.0108572 2.3509113e-38
-0.082480602 0.14278825 1.0116668 2.341549e-38
-0.077383742 0.14222804 1.0112858 2.1291648e-38
-0.07271336 0.14187841 1.0115 2.3509886e-38
-0.068178371 0.14166933 1.0100001 2.118269e-38
-0.062896013 0.14173903 1.0105002 2.1215531e-38
-0.057638641 0.14187841 1.0115001 2.3326257e-38
-0.052344013 0.1428353 1.012 2.3335633e-38
-0.046927966 0.14255476 1.0100001 2.3360454e-38
-0.042677887 0.14290893 1.0100001 2.188818e-38
-0.039844498 0.14432563 1.01 2.3178586e-38
-0.09297049 0.14875279 1.01 2.2722013e-38
-0.088543326 0.14609648 1.01 2.2394184e-38
-0.051355131 0.14609648 1.01 2.3429286e-38
-0.046927966 0.1460965 1.01 2.3458388e-38
-0.042500798 0.14609648 1.01 2.3272232e-38
-0.098283097 0.15495083 1.01 1.8458935e-38
-0.10390341 0.16429171 1.013 2.3508088e-38
-0.1035957 0.16734689 1.01 2.3131389e-38
-0.10547089 0.17282867 1.011 8.5634008e-39
-0.030990165 0.17443036 1.01 0
-0.10536657 0.17797211 1.01 9.8656429e-39
-0.030990165 0.18239926 1.01 1.1709583e-38
-0.070364773 0.13449469 1.016 2.1949777e-38
-0.06680201 0.13449469 1.016 2.269163e-38
-0.087287948 0.13983886 1.016 2.0853499e-38
-0.081172757 0.13915199 1.0175 2.3509886e-38
-0.078107268 0.13880856 1.01825 2.3047831e-38
-0.072232425 0.13822053 1.0172001 2.2435318e-38
-0.06680201 0.13716677 1.016 2.3163134e-38
-0.062378779 0.13812542 1.0165 2.2775273e-38
-0.058512677 0.13801846 1.0190001 2.323443e-38
-0.054332294 0.13894817 1.016 2.3427467e-38
-0.090225659 0.14025176 1.0190001 1.3871836e-38
-0.089960024 0.14251092 1.016 2.3469247e-38
-0.08307907 0.14025176 1.0190001 2.3508451e-38
-0.058066018 0.14025176 1.0190001 2.3326262e-38
-0.091876864 0.14628804 1.0175 2.3509879e-38
-0.10599251 0.16745034 1.016 8.7481508e-39
-0.10704231 0.17216024 1.0175 8.842496e-39
-0.083323658 0.13887276 1.022 2.3508779e-38
-0.076753333 0.13648355 1.0220001 2.153027e-38
-0.073468164 0.1361849 1.022 2.00292e-38
-0.092283189 0.14245656 1.0220001 1.5799011e-38
-0.085115559 0.14066467 1.022 2.3489746e-38
-0.079973914 0.13748324 1.025 2.344838e-38
