# .PCD v0.7 - Point Cloud Data file format
VERSION 0.7
FIELDS x y z rgb
SIZE 4 4 4 4
TYPE F F F F
COUNT 1 1 1 1
WIDTH 266
HEIGHT 1
VIEWPOINT 0 0 0 1 0 0 0
POINTS 266
DATA ascii
-0.12707108 0.1288735 1.0280001 2.1489551e-38
-0.12256502 0.12797228 1.028 2.1581389e-38
-0.11805894 0.12797228 1.028 2.1765052e-38
-0.11445409 0.1288735 1.028 2.158141e-38
-0.13721862 0.13301384 1.0275 2.0295691e-38
-0.1322857 0.13250838 1.0265 2.0754854e-38
-0.12737265 0.13199845 1.0262858 2.0938539e-38
-0.1229263 0.13236406 1.025375 2.0754875e-38
-0.11771441 0.13209175 1.025 2.0938905e-38
-0.11266952 0.13246137 1.026125 2.1030404e-38
-0.10760488 0.13355981 1.028 2.1770133e-38
-0.14239171 0.13788563 1.028 1.7087206e-38
-0.13761912 0.13761736 1.026 1.8460422e-38
-0.13209175 0.13748324 1.025 1.974467e-38
-0.12759882 0.13748324 1.0250001 2.1308011e-38
-0.12310591 0.13748322 1.025 2.3288056e-38
-0.11771441 0.13748324 1.025 2.3496919e-38
-0.11232291 0.13748324 1.025 2.1086175e-38
-0.10724439 0.13788563 1.028 1.7919848e-38
-0.10363953 0.13968806 1.028 1.4517553e-38
-0.1423917 0.1423917 1.028 1.3628438e-38
-0.1373605 0.14275397 1.02575 1.2965394e-38
-0.13209175 0.14287475 1.025 1.3500565e-38
-0.12759882 0.14287475 1.0250001 1.4970275e-38
-0.12310591 0.14287475 1.025 1.5435212e-38
-0.11771441 0.14287475 1.025 1.4795241e-38
-0.112588 0.14270236 1.025375 1.3410534e-38
-0.10724439 0.14239171 1.028 1.5820159e-38
-0.10363953 0.1423917 1.028 1.7860457e-38
-0.1423917 0.14509533 1.028 1.8980796e-38
-0.13781944 0.14712672 1.0274999 1.6309271e-38
-0.13209175 0.14736767 1.0250001 1.6768847e-38
-0.12759882 0.14736766 1.025 1.8326428e-38
-0.12310591 0.14736766 1.0250001 1.906471e-38
-0.11771441 0.14736767 1.0250001 1.8885355e-38
-0.11220482 0.14716628 1.0262858 1.7412779e-38
-0.10904681 0.14509533 1.028 2.034215e-38
-0.1360832 0.15050262 1.028 4.3277898e-39
-0.13243599 0.15225622 1.0276667 4.6980563e-39
-0.12759882 0.15186058 1.0250001 6.0777201e-39
-0.12310591 0.15186056 1.025 5.8011612e-39
-0.11771439 0.15186058 1.025 3.7775195e-39
-0.11307196 0.15192206 1.0271429 1.4765944e-39
-0.12707108 0.15771233 1.028 1.078691e-38
-0.12256502 0.15771233 1.028 9.129559e-39
-0.11828424 0.15748703 1.028 7.9324269e-39
-0.11355288 0.1559099 1.028 2.125149e-39
-0.12707107 0.16131717 1.0280001 1.6961139e-38
-0.12256502 0.16221839 1.028 1.7422833e-38
-0.11896016 0.16131717 1.028 1.8623166e-38
-0.12690628 0.11874801 1.034 1.4618082e-38
-0.12328038 0.11874801 1.034 1.8183438e-38
-0.13597101 0.12328038 1.034 1.6989635e-38
-0.13234511 0.1223739 1.034 2.0409827e-38
-0.12777212 0.12233386 1.0336667 1.9935163e-38
-0.12229441 0.12229383 1.0333334 2.1673202e-38
-0.11693507 0.12328037 1.034 2.2132385e-38
-0.11240269 0.12328038 1.034 2.2224205e-38
-0.10756817 0.12297821 1.034 2.2505113e-38
-0.10243148 0.1223739 1.034 2.307879e-38
-0.098352358 0.12282714 1.034 2.2542199e-38
-0.14775515 0.12781274 1.034 1.8562275e-38
-0.14159115 0.12853792 1.034 1.8734448e-38
-0.13705444 0.12753911 1.033625 2.0020149e-38
-0.13251343 0.12785758 1.0322858 2.1214016e-38
-0.12744191 0.12653807 1.0310001 2.1581378e-38
-0.12201884 0.12563422 1.031 2.1948726e-38
-0.11749963 0.12563422 1.031 2.1948724e-38
-0.11283598 0.12730733 1.0317501 2.1948723e-38
-0.10783497 0.12777096 1.0336667 2.1856906e-38
-0.10236602 0.12772916 1.0333334 2.1856868e-38
-0.096960798 0.12777096 1.0336667 2.0571167e-38
-0.093366757 0.12962568 1.034 1.4978556e-38
-0.14737518 0.13262238 1.0331429 1.8092352e-38
-0.14223325 0.13273434 1.0317501 2.0020177e-38
-0.13828802 0.13105728 1.031 2.0479358e-38
-0.13286497 0.13105728 1.031 2.1122178e-38
-0.11117273 0.13105728 1.031 2.1673228e-38
-0.10710543 0.1315092 1.031 2.1582117e-38
-0.10213429 0.13286497 1.031 1.9928336e-38
-0.097006232 0.132735 1.03175 1.6809164e-38
-0.09276244 0.13264728 1.0340002 1.943532e-38
-0.14782232 0.13695385 1.0328751 1.2688846e-38
-0.10213429 0.13738418 1.0310001 1.4601872e-38
-0.096571349 0.13716702 1.0322858 2.1543927e-38
-0.09246029 0.13687748 1.034 1.437426e-38
-0.14751874 0.14208752 1.0323334 1.722761e-38
-0.10137641 0.14210986 1.0325 1.8876743e-38
-0.096992649 0.14231631 1.034 1.068896e-38
-0.093366757 0.14140984 1.034 3.2196598e-39
-0.14639544 0.14730191 1.034 8.8435848e-39
-0.14243221 0.14858361 1.0322001 7.734338e-39
-0.10736986 0.14760667 1.0313751 1.0598236e-38
-0.10254534 0.14736909 1.0328751 7.1898326e-39
-0.098805591 0.1459422 1.034 4.7397379e-40
-0.14231631 0.15228753 1.034 4.7963588e-39
-0.13756494 0.15311106 1.031 3.6889392e-39
-0.11117273 0.15365335 1.031 1.8258919e-42
-0.10786025 0.15263402 1.03175 2.4017723e-39
-0.10333796 0.15228751 1.034 4.8899879e-39
-0.14140984 0.15681988 1.034 1.3829365e-38
-0.13758537 0.15749756 1.0325 1.3552067e-38
-0.13286497 0.15817259 1.031 1.2997088e-38
-0.11659579 0.15998027 1.031 1.724205e-38
-0.11272217 0.15868908 1.0310001 1.7974514e-38
-0.10743099 0.15707639 1.0322858 1.6040581e-38
-0.10333796 0.15681988 1.034 1.6964709e-38
-0.13619368 0.11860072 1.038 2.3492636e-38
-0.1317196 0.11761491 1.038 2.3508437e-38
-0.12739719 0.11647743 1.038 2.3509866e-38
-0.1228473 0.11738741 1.038 2.0906109e-38
-0.11738741 0.11847939 1.038 2.278822e-38
-0.11192753 0.11829739 1.0380001 2.3095047e-38
-0.10719564 0.11775141 1.038 2.3454494e-38
-0.10305522 0.11761491 1.038 2.3490074e-38
-0.099187814 0.11920737 1.038 1.4152352e-38
-0.15105668 0.12466725 1.038 2.0054349e-38
-0.14711343 0.1240606 1.038 2.3509886e-38
-0.14260687 0.12336728 1.0380001 2.3508809e-38
-0.13813496 0.12211932 1.038 1.9902034e-38
-0.11738741 0.12102734 1.038 2.2683384e-38
-0.11192753 0.12102734 1.038 2.3144028e-38
-0.10828761 0.12193732 1.038 2.3333085e-38
-0.096275881 0.12248331 1.038 1.966693e-38
-0.093727939 0.12375727 1.038 1.8367099e-38
-0.15196665 0.12648721 1.038 1.6989567e-38
-0.14377683 0.12739719 1.038 1.6351561e-38
-0.092817955 0.12739719 1.038 2.0042466e-38
-0.15287663 0.1319471 1.0380001 1.4067816e-38
-0.090997994 0.1319471 1.038 2.1653706e-38
-0.088268057 0.13376705 1.038 3.5948574e-39
-0.15196666 0.13740698 1.038 1.9620105e-38
-0.090088025 0.13740698 1.038 6.2688866e-39
-0.088268057 0.13649699 1.038 6.6376453e-39
-0.15196666 0.14286685 1.038 1.23419e-38
-0.092514627 0.14286685 1.038 5.8951351e-39
-0.15075335 0.14711343 1.038 2.217353e-39
-0.14832674 0.14832674 1.038 5.5249205e-39
-0.097003862 0.14759876 1.038 6.6384553e-39
-0.093727939 0.14741676 1.038 1.1706306e-38
-0.15014669 0.15014669 1.038 6.7306916e-39
-0.14759876 0.15233065 1.038 7.7448421e-39
-0.10100778 0.15196666 1.038 1.0599621e-38
-0.098277837 0.15196666 1.0380001 1.3918665e-38
-0.14003173 0.114405 1.044 9.5854742e-39
-0.13708875 0.11332539 1.0425 1.9867852e-38
-0.13217667 0.1128642 1.0418572 2.3409389e-38
-0.12697464 0.11235712 1.0420001 2.1665969e-38
-0.12246551 0.11241101 1.0425 2.2181017e-38
-0.11806595 0.11348976 1.0440001 2.323039e-38
-0.11246581 0.11338018 1.043 2.212693e-38
-0.10723343 0.11241102 1.0425 2.0227258e-38
-0.1036078 0.1134766 1.0422001 2.2850805e-38
-0.14598078 0.11852358 1.044 2.1286004e-38
-0.14232695 0.11775525 1.0435715 2.193821e-38
-0.13816915 0.11736164 1.041 2.0726282e-38
-0.13415366 0.11590146 1.041 2.3509886e-38
-0.12228973 0.11590146 1.041 2.2655731e-38
-0.11772668 0.11635777 1.041 2.3492061e-38
-0.11225103 0.11590146 1.0410001 1.9884003e-38
-0.10860059 0.11590146 1.041 2.223294e-38
-0.10129971 0.11590146 1.041 2.3509886e-38
-0.097836003 0.11825707 1.0430001 1.893864e-38
-0.15262547 0.12246463 1.0425 1.5638701e-38
-0.14749368 0.12192088 1.0417501 2.2769812e-38
-0.14327976 0.12137713 1.041 2.0919095e-38
-0.15620622 0.1269729 1.0420001 2.3489053e-38
-0.15377478 0.1273091 1.041 1.1027867e-38
-0.090608761 0.12904884 1.044 2.2027956e-38
-0.08877828 0.12904884 1.044 1.8708914e-38
-0.15696892 0.13232845 1.041 2.3033084e-38
-0.090348385 0.13050324 1.041 2.2211215e-38
-0.088650718 0.1316039 1.0425 7.9244857e-39
-0.15696838 0.13759686 1.0422 1.4181906e-38
-0.1542311 0.13780412 1.0410001 2.1647938e-38
-0.087735482 0.13891527 1.0425 9.7712752e-39
-0.1571964 0.14165705 1.0425 3.4987494e-39
-0.15423109 0.14236715 1.041 9.3016623e-39
-0.090348385 0.14236715 1.041 7.4650014e-39
-0.087799266 0.14176029 1.0432501 1.3640671e-38
-0.15399702 0.14759953 1.0425 5.6235929e-39
-0.091848798 0.14668562 1.0425 1.4656577e-38
-0.08877828 0.14552316 1.044 1.751428e-38
-0.095824048 0.15240586 1.0410001 1.7145154e-38
-0.093130492 0.15247819 1.0415001 1.4930326e-38
-0.11138049 0.098493494 1.05 2.3337044e-38
-0.1074916 0.098305896 1.0480001 1.9205172e-38
-0.12610848 0.10401649 1.05 2.3445377e-38
-0.12334699 0.10401649 1.05 2.3449061e-38
-0.11782399 0.10401649 1.05 2.3455979e-38
-0.11138049 0.1003345 1.05 2.3423802e-38
-0.1074916 0.10014339 1.0480001 2.1030411e-38
-0.1021755 0.1040165 1.05 2.3497284e-38
-0.1426775 0.108619 1.0500001 2.0846665e-38
-0.13715449 0.108619 1.0500001 2.2442445e-38
-0.132552 0.10861899 1.05 2.3497665e-38
-0.12753725 0.1077728 1.0484999 2.2383755e-38
-0.12219331 0.1074916 1.048 2.3319711e-38
-0.11723714 0.10725816 1.0482858 2.304819e-38
-0.11274874 0.10769586 1.04775 2.137824e-38
-0.10759593 0.10759417 1.049 2.313848e-38
-0.10217549 0.10769849 1.0500001 2.3509872e-38
-0.098033242 0.10723824 1.05 1.9969138e-38
-0.15166421 0.11397762 1.0484999 1.9565642e-38
-0.14730543 0.11361687 1.0480001 2.291497e-38
-0.14265218 0.11278786 1.048125 2.0704804e-38
-0.13807499 0.11138049 1.05 2.217049e-38
-0.13400903 0.11106227 1.0470001 2.3509886e-38
-0.12024098 0.11106227 1.0470001 2.3509886e-38
-0.11748736 0.11106227 1.0470001 2.3509883e-38
-0.11289801 0.11106227 1.0470002 2.0651821e-38
-0.10922652 0.11106227 1.0470001 1.6897731e-38
-0.10131943 0.11233913 1.0475 2.341769e-38
-0.097480074 0.11311191 1.0490001 2.227608e-38
-0.09297049 0.11230098 1.0500001 2.2830326e-38
-0.15512003 0.11840523 1.0470001 1.0108119e-38
-0.15236643 0.11748736 1.0470001 1.9505859e-38
-0.14869493 0.11748736 1.0470001 2.2585418e-38
-0.097294226 0.1165695 1.0470001 1.928559e-38
-0.09297049 0.11690349 1.0500001 2.2722276e-38
-0.089288495 0.1169035 1.05 2.3496556e-38
-0.15634386 0.12207671 1.0470002 1.813701e-38
-0.15236643 0.12024098 1.0470001 1.8772701e-38
-0.14961281 0.12024098 1.0470001 2.3509886e-38
-0.092855908 0.12174983 1.0487143 2.0862848e-38
-0.091787003 0.12666607 1.0470001 2.3276878e-38
-0.087279186 0.12893137 1.0480001 1.6493207e-38
-0.086561181 0.13287549 1.0482 9.3981304e-39
-0.16163979 0.13736489 1.0487999 8.8399596e-39
-0.086004287 0.13705653 1.04925 1.2907402e-38
-0.083765492 0.13715449 1.05 1.5025381e-38
-0.16093408 0.14254338 1.049 8.8500672e-39
-0.15879151 0.1441056 1.0470001 7.926306e-39
-0.085881986 0.14283201 1.04775 1.3456278e-38
-0.083765492 0.14267749 1.05 1.2622123e-38
-0.12658891 0.097020708 1.0540001 2.0677028e-38
-0.1240017 0.097390294 1.054 2.1410645e-38
-0.11365281 0.098868705 1.054 2.149349e-38
-0.14506903 0.10441276 1.054 2.1315222e-38
-0.14322104 0.10441276 1.054 2.148953e-38
-0.137677 0.10441276 1.0540001 2.2040549e-38
-0.13305695 0.10441276 1.054 2.3331664e-38
-0.12720492 0.10256474 1.0540001 2.3439653e-38
-0.12350889 0.10256474 1.0540001 2.3439714e-38
-0.11550083 0.10441276 1.054 1.9862166e-38
-0.1127288 0.10302674 1.054 2.2898688e-38
-0.10810878 0.10348874 1.054 1.857711e-38
-0.10379675 0.10194874 1.0540001 2.3457333e-38
-0.14691706 0.10810878 1.054 2.0755541e-38
-0.14229703 0.10626076 1.054 2.1489872e-38
-0.137677 0.10626076 1.0540001 2.2692424e-38
-0.13213295 0.10626076 1.0540001 2.3459868e-38
-0.096096694 0.10903278 1.054 1.9233268e-38
-0.093324669 0.10995679 1.054 2.3476783e-38
-0.15061308 0.11180481 1.054 2.0203809e-38
-0.14876507 0.11180481 1.054 2.0295645e-38
-0.12880249 0.099150121 1.057 2.2411493e-38
-0.1213894 0.099150121 1.057 2.3151935e-38
-0.11768286 0.099150121 1.057 2.2503701e-38
-0.14251673 0.10248601 1.057 1.9476709e-38
-0.13806887 0.10285667 1.057 2.1856876e-38
-0.132351 0.10240907 1.0578573 2.2970117e-38
-0.12880249 0.10193003 1.057 2.343463e-38
-0.12231603 0.10193004 1.057 2.3069103e-38
-0.11768286 0.10193002 1.0570002 2.1589288e-38
-0.11397631 0.10285667 1.057 2.0020193e-38
