# .PCD v0.7 - Point Cloud Data file format
VERSION 0.7
FIELDS x y z rgb
SIZE 4 4 4 4
TYPE F F F F
COUNT 1 1 1 1
WIDTH 326
HEIGHT 1
VIEWPOINT 0 0 0 1 0 0 0
POINTS 326
DATA ascii
-0.21691713 0.17404813 0.97800004 2.2723342e-38
-0.1969116 0.17347655 0.97800004 2.3474986e-38
-0.19266553 0.17282329 0.97800004 2.3492249e-38
-0.18776622 0.17233336 0.97799999 2.2656754e-38
-0.18433669 0.17319074 0.97799999 2.2284348e-38
-0.22034666 0.17747764 0.97800004 1.4544284e-38
-0.21740706 0.17723268 0.97800004 1.4158194e-38
-0.21243328 0.17780611 0.97666669 1.6071251e-38
-0.20086625 0.17693326 0.97500008 1.8826663e-38
-0.19744724 0.17693326 0.97499996 1.9196532e-38
-0.19231875 0.17693324 0.97499996 1.9109008e-38
-0.18731767 0.17705542 0.9756667 1.8012737e-38
-0.18433671 0.17747766 0.97800004 1.5627538e-38
-0.22103254 0.18227899 0.97799999 1.6766651e-38
-0.21691711 0.18240756 0.97800004 1.5012089e-38
-0.21177284 0.18262194 0.97799999 1.3154493e-38
-0.20748596 0.18262194 0.97800004 1.3054328e-38
-0.20148429 0.18347931 0.97799999 1.2963938e-38
-0.19792093 0.18249686 0.97733337 1.3602104e-38
-0.19238392 0.18212341 0.97533333 1.3974467e-38
-0.18845211 0.18193604 0.97799999 1.4155972e-38
-0.21091548 0.18690883 0.97799999 1.4094397e-38
-0.20777175 0.18662304 0.97800004 1.5756801e-38
-0.20234168 0.18690883 0.97799999 1.5572083e-38
-0.19780983 0.18727629 0.97800004 1.5295864e-38
-0.19315547 0.18727629 0.97800004 1.4833811e-38
-0.22169848 0.1639016 0.98400003 1.4605493e-38
-0.21824794 0.1639016 0.98400009 1.7999777e-38
-0.21307206 0.1639016 0.98400009 1.9285463e-38
-0.20789623 0.16476426 0.98400009 1.9744641e-38
-0.20203029 0.16372906 0.98400003 2.0111996e-38
-0.19803749 0.16328543 0.98400009 2.0203846e-38
-0.19236872 0.16476426 0.98400009 2.0387547e-38
-0.22238858 0.16855986 0.98400003 1.845897e-38
-0.21802731 0.16804266 0.9830001 1.8734482e-38
-0.2125674 0.16781473 0.98166668 1.9285482e-38
-0.2076128 0.16798626 0.98266679 1.974466e-38
-0.2027204 0.16821481 0.98400009 1.9744664e-38
-0.19754456 0.1682148 0.98400009 1.9285512e-38
-0.19223899 0.16809966 0.98333341 1.9469185e-38
-0.18712889 0.16815723 0.98366672 1.9561029e-38
-0.18223271 0.16843046 0.98400009 1.97447e-38
-0.22211824 0.17283309 0.98280001 2.1602975e-38
-0.21769431 0.17208922 0.98150003 2.3462369e-38
-0.21242245 0.17286201 0.98100007 1.7357991e-38
-0.20740207 0.17297891 0.98166668 1.9193647e-38
-0.2024463 0.17315395 0.98266679 2.0585216e-38
-0.19767474 0.17183368 0.98250002 2.3498042e-38
-0.19350225 0.17114198 0.98100001 2.349408e-38
-0.1854676 0.17166536 0.98400003 1.8920422e-38
-0.18219139 0.17284061 0.98228574 2.1156441e-38
-0.17974208 0.17372203 0.98100001 1.4984795e-38
-0.22514904 0.17770383 0.98400003 1.7136909e-38
-0.22291288 0.17729554 0.98175001 1.6562141e-38
-0.21156245 0.17630205 0.98100001 1.8734462e-38
-0.2072624 0.17802207 0.98100007 1.8458967e-38
-0.20382236 0.17802207 0.98100007 1.8275311e-38
-0.18232211 0.17802207 0.98100007 1.5170886e-38
-0.17974208 0.17716205 0.98100001 1.3137916e-38
-0.22514904 0.18201706 0.98400009 1.474152e-38
-0.22274257 0.18490215 0.98100001 6.4371658e-39
-0.21758252 0.18490215 0.98100001 1.7319828e-38
-0.20554239 0.18318212 0.98100007 1.3418435e-38
-0.20339236 0.18275212 0.98100001 1.3599222e-38
-0.18748218 0.18404213 0.98100001 1.592465e-38
-0.1825425 0.1825446 0.98220009 1.8507214e-38
-0.22514904 0.1854676 0.98400003 3.3168917e-39
-0.22256111 0.18805552 0.98400003 2.9520846e-39
-0.218027 0.18786529 0.98300004 8.2896781e-39
-0.21414247 0.18748218 0.98100001 1.1514018e-38
-0.20611572 0.18776886 0.98100007 1.5480223e-38
-0.1900622 0.18748218 0.98100001 1.3817886e-38
-0.18719339 0.18788455 0.98220009 9.9495736e-39
-0.18230556 0.1871358 0.9837001 6.6374183e-39
-0.22227357 0.19121854 0.98400009 7.7473476e-39
-0.21824792 0.19236872 0.98400009 6.6409916e-39
-0.21271177 0.19204463 0.98233342 4.610164e-39
-0.2074737 0.19197947 0.98200005 5.7110872e-39
-0.20230953 0.19197889 0.98200005 6.2635547e-39
-0.19735934 0.19244273 0.9818573 4.7001835e-39
-0.19217321 0.19217497 0.9830001 4.7009149e-39
-0.18719289 0.19236872 0.98400009 4.9771389e-39
-0.18226352 0.19187579 0.98400009 7.7433385e-39
-0.21738528 0.19581929 0.98400003 1.5394875e-38
-0.21249698 0.19696948 0.98400009 1.2998883e-38
-0.20789623 0.19754454 0.98400009 1.1801779e-38
-0.2027204 0.19754454 0.98400009 1.1524115e-38
-0.19754454 0.19754454 0.98400009 1.1892173e-38
-0.19236872 0.1958193 0.98400009 9.4032508e-39
-0.18805552 0.19581929 0.98400003 1.2537845e-38
-0.20185775 0.20099512 0.98400003 1.6683471e-38
-0.1984072 0.20099512 0.98400003 1.677638e-38
-0.18805552 0.20185776 0.98400003 7.1930794e-39
-0.20201644 0.15346313 0.98900002 2.2299455e-38
-0.1970012 0.1540312 0.98820001 2.0812446e-38
-0.19247918 0.15346313 0.98900002 2.3509886e-38
-0.18901108 0.15346313 0.98900002 2.3509886e-38
-0.22629307 0.15866527 0.98900002 2.3488276e-38
-0.22282499 0.15866527 0.98900002 2.2393084e-38
-0.21762286 0.15866527 0.98900002 2.3397196e-38
-0.2117271 0.15762484 0.98900002 1.8778804e-38
-0.20712584 0.15685992 0.98855561 2.0724216e-38
-0.20227744 0.15650116 0.98785716 1.6747216e-38
-0.19770876 0.15715313 0.98728579 1.8831676e-38
-0.1928362 0.15690863 0.98749995 1.837542e-38
-0.18793231 0.15675373 0.98788887 1.8921391e-38
-0.18308344 0.157335 0.98842859 2.1311994e-38
-0.22775316 0.16230871 0.98874992 1.9411528e-38
-0.22268647 0.16135739 0.98728573 1.9887657e-38
-0.21718276 0.16094021 0.98699999 1.8394489e-38
-0.21174394 0.16131106 0.98700005 1.7360524e-38
-0.20679951 0.1618055 0.98699993 1.928547e-38
-0.2029058 0.16137286 0.98699999 1.9744646e-38
-0.1974546 0.16111326 0.98699999 2.0387507e-38
-0.19295521 0.16180548 0.98699993 2.0295685e-38
-0.18776357 0.1618055 0.98699993 2.0479341e-38
-0.1826534 0.16187795 0.98744446 2.0203855e-38
-0.17860681 0.16386741 0.98900002 2.0020182e-38
-0.23149523 0.16733551 0.98900002 2.3301054e-38
-0.22782333 0.16718471 0.98811108 1.4054815e-38
-0.22410491 0.16613182 0.98699999 1.7632432e-38
-0.18776357 0.16526656 0.98699999 2.047937e-38
-0.18213934 0.16569918 0.98699999 2.0020196e-38
-0.17769945 0.16729751 0.98877782 1.9377332e-38
-0.17303309 0.16758324 0.98900002 1.7448761e-38
-0.23149523 0.17167062 0.98900002 2.2298781e-38
-0.2277721 0.17234418 0.98788887 1.3795206e-38
-0.17738034 0.17218871 0.98699993 1.6717334e-38
-0.17230424 0.17230423 0.98766667 1.6826083e-38
-0.16855057 0.17288305 0.98850006 1.8793568e-38
-0.22808614 0.17698321 0.98800004 1.8700607e-38
-0.17738034 0.17738032 0.98699993 1.526846e-38
-0.17226587 0.177461 0.98744434 1.7499579e-38
-0.16855055 0.17721729 0.98850006 7.0025463e-39
-0.22802714 0.18294191 0.98900002 9.2097987e-39
-0.17741987 0.18261348 0.98722225 1.4184148e-38
-0.17427169 0.18294191 0.98900002 6.5383732e-39
-0.22696601 0.18818508 0.98740005 6.9154247e-39
-0.17769946 0.18810219 0.98877782 5.6185272e-39
-0.17427169 0.18641001 0.98900002 5.7125123e-39
-0.22693129 0.19228455 0.98800004 1.235062e-38
-0.22352807 0.19410889 0.98699999 1.4193818e-38
-0.1817067 0.19468574 0.98699999 1.2260947e-38
-0.17860681 0.19247916 0.98900002 1.2076162e-38
-0.22629307 0.1968143 0.98900002 8.566244e-39
-0.22219206 0.19770974 0.98728579 1.1518302e-38
-0.19295523 0.1990121 0.98699999 1.4012334e-38
-0.18751636 0.19864126 0.98700005 1.4010897e-38
-0.18257196 0.19814681 0.98699993 1.2260961e-38
-0.17889582 0.19565827 0.98900002 1.5301266e-38
-0.21190552 0.15334886 0.99199998 2.1366702e-38
-0.20759866 0.15268627 0.9920001 2.2581469e-38
-0.20262921 0.15131967 0.99200004 1.9805161e-38
-0.19784613 0.1517545 0.99199998 2.3502326e-38
-0.19219339 0.15218931 0.99199998 2.3509886e-38
-0.18697546 0.15334886 0.99199998 2.0543093e-38
-0.18349685 0.15392864 0.99199998 2.3278984e-38
-0.23132777 0.15914655 0.99199998 1.490761e-38
-0.22741434 0.15784207 0.99199998 1.8590745e-38
-0.22176158 0.15740725 0.99199998 2.1929892e-38
-0.21712343 0.15682748 0.99199998 2.2680125e-38
-0.21393472 0.15653759 0.99199998 2.3311359e-38
-0.1826272 0.15566793 0.99199998 2.1966389e-38
-0.23269436 0.1623767 0.9920001 2.0535541e-38
-0.18001823 0.16175552 0.99199998 2.066301e-38
-0.17740926 0.16262516 0.99199998 2.0849204e-38
-0.17422053 0.16378471 0.99199998 1.965282e-38
-0.23393673 0.16784309 0.99199998 2.294483e-38
-0.17132169 0.16697343 0.99199998 1.6438573e-38
-0.1695824 0.1695824 0.99199998 1.4065402e-38
-0.23335695 0.173061 0.99199998 2.1193452e-38
-0.16784307 0.173061 0.99199998 1.8791055e-38
-0.23219742 0.17740926 0.99199998 1.5103817e-38
-0.16784307 0.17827892 0.99199998 4.6025788e-40
-0.23115385 0.18140967 0.99200004 9.1154325e-39
-0.17219135 0.1826272 0.99199998 2.7655032e-39
-0.1695824 0.1826272 0.99199998 2.945968e-39
-0.23045813 0.18697546 0.99199998 7.373526e-39
-0.173061 0.18654063 0.99199998 5.7110872e-39
-0.23045813 0.19045407 0.99199998 1.2995996e-38
-0.17653961 0.19306302 0.99199998 1.5021077e-38
-0.1741046 0.19254124 0.99200004 1.5022861e-38
-0.2301022 0.14961018 0.99800003 1.4785515e-38
-0.22747746 0.14961018 0.99800003 1.4786258e-38
-0.22485271 0.14961018 0.99800003 2.3498406e-38
-0.2161036 0.14961018 0.99800003 1.7007987e-38
-0.2123909 0.14771043 0.99700004 2.3406496e-38
-0.20791684 0.14763637 0.99650002 2.3227886e-38
-0.20261224 0.14759207 0.99620003 1.8975354e-38
-0.19778495 0.14917026 0.99739999 2.3507003e-38
-0.19190232 0.14916044 0.995 2.1376494e-38
-0.18791613 0.14946026 0.9970001 1.8872501e-38
-0.1846067 0.14961018 0.99800003 2.350988e-38
-0.23228949 0.15354729 0.99800003 1.2320414e-38
-0.22774161 0.15270014 0.99533337 1.7097648e-38
-0.22280423 0.15290353 0.99666673 2.3507733e-38
-0.21749075 0.15285298 0.99633336 1.5381173e-38
-0.21240099 0.15134114 0.995 2.3499428e-38
-0.20847571 0.150905 0.995 2.3509886e-38
-0.19713603 0.150905 0.995 2.3509886e-38
-0.19277462 0.150905 0.99500006 2.1107791e-38
-0.18719201 0.15160285 0.995 2.0339308e-38
-0.18278033 0.152803 0.99599999 2.3505878e-38
-0.23202735 0.15701099 0.995 1.4167897e-38
-0.22766595 0.1561387 0.99500006 1.9972254e-38
-0.22243224 0.1561387 0.99500006 2.3501911e-38
-0.2189431 0.1561387 0.995 2.3509886e-38
-0.18074411 0.15804021 0.99599999 2.1789517e-38
-0.17742944 0.15819889 0.99700004 2.0601449e-38
-0.17323282 0.1583593 0.99800003 1.8734555e-38
-0.23638876 0.16486154 0.995 1.4647959e-38
-0.17620122 0.16137241 0.995 2.2902746e-38
-0.17196286 0.16227125 0.99663639 1.7919456e-38
-0.16770118 0.16201556 0.99762511 2.0604679e-38
-0.23674513 0.16773218 0.99650002 1.4277726e-38
-0.17009524 0.1674784 0.995 1.4418211e-38
-0.16770685 0.16735795 0.9974001 2.3301783e-38
-0.23710153 0.17235792 0.99800003 1.049695e-38
-0.16885826 0.17148301 0.99800003 2.3487285e-38
-0.23710153 0.1776074 0.99800003 7.274813e-39
-0.23464422 0.17707352 0.99500006 9.4875081e-39
-0.16710845 0.17673248 0.99800003 2.5714009e-39
-0.23710153 0.18285689 0.99800003 8.0202911e-39
-0.23420808 0.18274334 0.995 5.9919901e-39
-0.16798335 0.18285689 0.99800009 8.1089078e-39
-0.23666404 0.18854381 0.99800003 7.0954566e-39
-0.23359747 0.18719199 0.995 9.9549854e-39
-0.17134377 0.18821757 0.99549997 1.3268633e-38
-0.16842082 0.1876689 0.99800003 1.5852622e-38
-0.17141463 0.19260769 0.99542862 1.272227e-38
-0.2066862 0.14379984 1.00325 1.873452e-38
-0.20446761 0.14479466 1.001 1.6897897e-38
-0.22674543 0.14764687 1.0025001 1.9312104e-38
-0.22233176 0.14804515 1.0039999 2.3508774e-38
-0.21736406 0.14707538 1.0022 1.6094972e-38
-0.21212177 0.14522859 1.0039999 2.2443908e-38
-0.20741187 0.14588916 1.0025001 2.1266983e-38
-0.20243984 0.14522858 1.0039999 2.0778951e-38
-0.19784263 0.14713417 1.003 2.1751335e-38
-0.19287859 0.14786737 1.0028 2.3508805e-38
-0.18747692 0.14874928 1.0039999 2.137467e-38
-0.18395621 0.14874928 1.0039999 2.3493743e-38
-0.17515448 0.14874928 1.0039999 2.3509886e-38
-0.17339413 0.14874928 1.0039999 1.0418106e-38
-0.22246382 0.15035972 1.003 2.2581775e-38
-0.21850829 0.15005991 1.001 6.6200478e-39
-0.18186818 0.15129285 1.0022 2.3140744e-38
-0.17747466 0.15199539 1.0022 2.3047831e-38
-0.17301354 0.15278004 1.0035 1.7864685e-38
-0.16846517 0.15297411 1.0039999 2.3388818e-38
-0.1781413 0.15532516 1.0010002 2.3509886e-38
-0.17262532 0.15657881 1.001 1.6270376e-38
-0.16783015 0.15729965 1.001 1.9504051e-38
-0.16585569 0.16322306 1.001 2.3501994e-38
-0.16410062 0.16234553 1.0010002 2.3133175e-38
-0.23956932 0.16936587 1.001 6.1763813e-39
-0.16602139 0.16777997 1.0020001 2.1002673e-38
-0.1641006 0.16673324 1.001 1.9349114e-38
-0.24204764 0.17251396 1.0039999 7.1905403e-39
-0.23956934 0.17287605 1.0010002 4.2402829e-39
-0.16777822 0.17304873 1.0020001 1.9167337e-38
-0.24204764 0.17691481 1.0039999 7.5586067e-39
-0.23956934 0.1781413 1.0010002 7.0050658e-39
-0.16761078 0.17989638 1.001 9.2337722e-40
-0.24204764 0.18219587 1.0039999 7.4656796e-39
-0.23956932 0.18252902 1.001 8.0188548e-39
-0.16602139 0.18183118 1.0020001 1.2996344e-38
-0.16400562 0.18336943 1.0039999 1.2994937e-38
-0.16629447 0.18735549 1.001 1.2903441e-38
-0.21098998 0.13771731 1.007 1.9840091e-38
-0.20922437 0.13771731 1.007 1.9747178e-38
-0.22217217 0.1433084 1.007 1.8734441e-38
-0.21780019 0.14263579 1.007 2.0486897e-38
-0.21275558 0.14213133 1.007 2.0486214e-38
-0.20790018 0.14168993 1.007 2.1125068e-38
-0.20216195 0.14389692 1.007 2.2344178e-38
-0.19774793 0.14389692 1.007 2.3472779e-38
-0.17656066 0.14389692 1.007 2.042961e-38
-0.22570336 0.14625108 1.007 1.8854661e-38
-0.22246642 0.14566255 1.007 2.2988472e-38
-0.21893521 0.14566255 1.007 1.9579718e-38
-0.19686514 0.14566255 1.007 2.3494726e-38
-0.19215685 0.14625108 1.007 2.3509886e-38
-0.1880371 0.1467219 1.007 2.2007121e-38
-0.1830934 0.14778127 1.007 2.0354419e-38
-0.17714921 0.14742815 1.007 2.3040299e-38
-0.17258805 0.14786956 1.007 1.7115653e-38
-0.17126384 0.15095936 1.007 2.1908015e-38
-0.2445365 0.17302944 1.007 8.1099714e-39
-0.16596702 0.17126384 1.007 7.824014e-39
-0.2445365 0.17832625 1.007 8.0177898e-39
-0.16596703 0.17744344 1.007 6.261031e-39
-0.1633186 0.17744347 1.007 1.5298015e-38
-0.16508421 0.18097468 1.007 1.3087503e-38
-0.19626199 0.13409756 1.013 1.7737919e-38
-0.19448586 0.13409756 1.013 1.6724176e-38
-0.21516028 0.13901302 1.01 2.0583033e-38
-0.21338943 0.1381276 1.01 1.9114724e-38
-0.20661105 0.13833141 1.0115 2.0203834e-38
-0.20276931 0.13855033 1.0118001 2.0662998e-38
-0.1977421 0.13824186 1.013 2.2515936e-38
-0.19293174 0.13787182 1.013 2.1594702e-38
-0.20719139 0.14078389 1.01 2.2230723e-38
-0.20276421 0.14166933 1.0100001 2.345982e-38
-0.19745 0.14222804 1.0112858 2.3001005e-38
-0.19232926 0.14269416 1.0110002 2.0588502e-38
-0.18701258 0.14269474 1.0110002 2.0674896e-38
-0.18232712 0.142543 1.0117143 2.0867194e-38
-0.17841481 0.14299747 1.01 2.1142409e-38
-0.18859729 0.14609648 1.01 1.9429585e-38
-0.18210411 0.14668678 1.01 2.1650154e-38
-0.17974296 0.14698192 1.01 2.3501621e-38
-0.16429171 0.16873203 1.013 8.8388386e-39
-0.16633026 0.17401102 1.011 1.2857068e-39
-0.16372603 0.17348684 1.0122499 1.1795255e-38
-0.24526501 0.17620122 1.01 7.741549e-39
-0.16161261 0.17793299 1.0118001 1.1705266e-38
-0.19862461 0.13449469 1.016 1.7737919e-38
-0.20753154 0.13686988 1.016 2.1131547e-38
-0.20218739 0.13627607 1.016 2.0486892e-38
-0.19862461 0.13716677 1.016 2.159469e-38
-0.18793631 0.13983886 1.016 2.1215135e-38
-0.17955799 0.14203842 1.0190001 2.0206732e-38
-0.1688381 0.15722491 1.0190001 2.3508734e-38
-0.16347817 0.1688381 1.0190001 9.4035787e-39
-0.16247475 0.17246418 1.0172001 1.2164445e-38
