# .PCD v0.7 - Point Cloud Data file format
VERSION 0.7
FIELDS x y z rgb
SIZE 4 4 4 4
TYPE F F F F
COUNT 1 1 1 1
WIDTH 293
HEIGHT 1
VIEWPOINT 0 0 0 1 0 0 0
POINTS 293
DATA ascii
-0.00093540334 0.097281948 1.067 2.3381347e-38
0.0018708067 0.09728194 1.067 2.2819551e-38
-0.0018813265 0.089363009 1.073 2.305071e-38
0.0028219901 0.089363009 1.073 2.3326244e-38
-0.010347296 0.093125664 1.073 2.24079e-38
-0.0075253057 0.092184998 1.073 2.2407889e-38
-0.002819068 0.093008198 1.0716666 2.2499716e-38
0.0028167302 0.092950329 1.071 2.2683415e-38
0.0073203417 0.093291536 1.0706 2.2775242e-38
0.011264946 0.093868427 1.0707501 2.2775265e-38
-0.022575919 0.097828977 1.073 1.4877748e-38
-0.01128796 0.096888319 1.073 2.2316065e-38
-0.0075191697 0.096797153 1.072 2.2986648e-38
-0.0037521333 0.097555473 1.0700001 2.3479306e-38
0.004690167 0.097555473 1.0700001 2.3451948e-38
0.0075042667 0.097555473 1.0700001 2.2982309e-38
0.012479349 0.09726955 1.0712858 2.11298e-38
0.015991276 0.096888326 1.073 1.8826298e-38
-0.02257592 0.1025323 1.073 1.6294167e-38
-0.015991276 0.10347296 1.073 1.4070338e-38
-0.011993457 0.10276745 1.073 1.5525619e-38
-0.0075253057 0.1025323 1.073 1.7736497e-38
-0.0028141001 0.10224563 1.0700001 1.8660247e-38
0.0028141001 0.10224563 1.0700001 1.7551389e-38
0.0075042672 0.10224563 1.0700002 1.6356441e-38
0.012198817 0.10227807 1.0703334 1.6364376e-38
0.015991276 0.10159163 1.073 1.7193447e-38
-0.022575919 0.10629494 1.073 1.5290767e-38
-0.011287959 0.10723561 1.073 1.6575447e-38
-0.0075253057 0.10723561 1.073 1.5925386e-38
-0.0028141001 0.10787383 1.0700001 1.6759101e-38
0.0028141001 0.10787383 1.0700001 1.74052e-38
0.0075101838 0.10701142 1.0707501 1.7219769e-38
0.011839734 0.1069286 1.0718001 1.7039327e-38
-0.011287959 0.1100576 1.073 1.4557933e-38
-0.0075253062 0.1100576 1.073 1.7415996e-38
-0.0024457246 0.11269146 1.073 2.30456e-39
0.0028219901 0.11287959 1.073 2.3031055e-39
0.0072117518 0.11068472 1.073 8.4838238e-39
0.010347296 0.1100576 1.073 3.8830891e-39
-0.0018813265 0.11570158 1.073 1.5698691e-39
0.0028219901 0.11570158 1.073 2.8574073e-39
-0.0018883399 0.084031127 1.077 2.305071e-38
-0.02549259 0.089696147 1.077 2.1765017e-38
-0.02266008 0.089696147 1.077 2.2040536e-38
-0.017183894 0.088563137 1.077 2.2316054e-38
-0.012274209 0.088043854 1.077 2.2867058e-38
-0.0075533595 0.087807804 1.0770001 2.3142572e-38
-0.003102273 0.087268285 1.0770001 2.3234402e-38
0.00283251 0.086863637 1.0770001 2.3418091e-38
0.0073645259 0.088185474 1.077 2.3326244e-38
0.012588933 0.088437252 1.0770001 2.2867072e-38
0.017183894 0.088563137 1.077 2.259155e-38
-0.026436761 0.092528656 1.077 1.9836471e-38
-0.02266008 0.092528656 1.077 2.2040534e-38
-0.01793923 0.092528664 1.0770001 2.2040558e-38
-0.012651878 0.092339829 1.077 2.2407883e-38
0.0084975297 0.091584489 1.077 2.3050754e-38
0.012746295 0.092056572 1.077 2.2683412e-38
0.01793923 0.092528664 1.0770001 2.167319e-38
0.021715909 0.093472824 1.077 1.818347e-38
-0.027144888 0.09748555 1.077 1.5452198e-38
-0.02266008 0.095361166 1.077 2.1214015e-38
-0.01793923 0.097249508 1.077 2.0846673e-38
-0.014162551 0.097249508 1.077 2.2040571e-38
0.0188834 0.097249508 1.0770001 1.6806284e-38
0.021715909 0.097249508 1.077 2.1423645e-38
-0.027144887 0.10267848 1.077 1.6674444e-38
-0.018478757 0.10264476 1.0770001 1.5263457e-38
-0.01416255 0.10102619 1.077 1.6989567e-38
0.018478757 0.10318429 1.0770001 1.9428853e-38
-0.026436761 0.10763538 1.077 4.789875e-39
-0.02266008 0.10857955 1.077 5.3387131e-39
-0.01793923 0.10763538 1.0770001 1.4275921e-38
-0.01416255 0.10763538 1.077 1.6761997e-38
0.01416255 0.10857955 1.077 8.3768585e-39
0.016680337 0.10732066 1.077 1.1336853e-38
-0.02549259 0.11141206 1.077 9.1281227e-39
-0.02266008 0.11235624 1.0770001 7.6537339e-39
-0.017703189 0.11235623 1.077 4.9767886e-39
-0.012543974 0.11289576 1.0770001 4.4200205e-39
-0.0075533595 0.1133004 1.077 2.8534164e-39
-0.0047208499 0.11424457 1.077 5.5895133e-40
0.0078680832 0.11361512 1.077 5.1661783e-39
0.012510251 0.11259227 1.077 6.2696784e-39
0.01605089 0.11141206 1.077 5.531749e-39
-0.02266008 0.11802125 1.0770001 1.7234127e-38
-0.017399706 0.11775149 1.0770001 1.7054426e-38
-0.01227421 0.11802125 1.077 9.9625791e-39
-0.0075533595 0.11802125 1.0770001 9.0380724e-39
-0.003102273 0.11856078 1.0770001 1.1984728e-38
0.00283251 0.11896542 1.0770001 1.5765094e-38
0.0075533595 0.11802125 1.0770001 1.6133183e-38
0.011141206 0.11764359 1.077 1.7605433e-38
-0.02266008 0.1227421 1.077 4.2348501e-39
-0.016995061 0.1227421 1.077 1.1700217e-38
-0.012274211 0.1227421 1.0770001 1.3821793e-38
-0.0075533595 0.1227421 1.077 1.7325221e-38
-0.0033045949 0.12227001 1.077 2.1016652e-38
0.0032101781 0.12255327 1.077 1.7607584e-38
0.0078680832 0.12242737 1.077 1.549032e-38
0.01038587 0.1227421 1.077 1.1803939e-38
-0.0076024523 0.073173612 1.084 2.3509886e-38
-0.0038012266 0.073173612 1.084 2.1273699e-38
-0.02280736 0.078875452 1.084 2.3508809e-38
-0.018055826 0.078875452 1.084 1.9131634e-38
-0.011878833 0.078400299 1.084 2.2556268e-38
-0.0075931018 0.076877825 1.0826668 2.3036655e-38
-0.0030845515 0.077103272 1.0825001 2.3306402e-38
0.0028485823 0.077828132 1.0826668 2.3218135e-38
0.0076024523 0.078875452 1.084 2.1900045e-38
0.01273411 0.07811521 1.084 2.0437855e-38
0.01710552 0.077925146 1.084 2.3509886e-38
-0.026380653 0.082933366 1.0824001 2.346664e-38
-0.022751255 0.082470953 1.0813334 2.0137193e-38
-0.018004784 0.082437836 1.0808889 2.1122908e-38
-0.012313466 0.08240471 1.0804445 2.3329859e-38
-0.0075743999 0.082371607 1.08 2.3249154e-38
-0.0031109145 0.081830576 1.08 2.3260669e-38
0.0028404 0.082371607 1.08 2.2977238e-38
0.00757966 0.08242128 1.0806667 2.3438576e-38
0.012312685 0.082404718 1.0804445 2.3090347e-38
0.018012965 0.082471743 1.0813334 2.2378326e-38
0.022583634 0.082931966 1.0824001 1.6629419e-38
0.02717877 0.083817042 1.084 2.0583759e-38
-0.027721075 0.087896362 1.081 2.0583065e-38
-0.0227232 0.087105602 1.08 2.213237e-38
-0.018936001 0.087105602 1.08 2.2499726e-38
-0.0123084 0.086158805 1.08 2.3418077e-38
0.0085212002 0.086158805 1.08 2.3418054e-38
0.011677201 0.08679001 1.0800002 2.2958891e-38
0.018936001 0.087105602 1.08 2.2499706e-38
0.022723202 0.088052407 1.08 2.278856e-38
0.027272224 0.087976128 1.082 2.032199e-38
-0.036111653 0.093130052 1.084 1.9715053e-38
-0.03136012 0.092179745 1.084 1.0569452e-38
-0.029350799 0.092786402 1.08 1.6805896e-38
0.023038801 0.092470795 1.0800002 1.8275264e-38
0.02710022 0.09228494 1.0807999 2.2644165e-38
-0.03136012 0.097881585 1.084 1.9990602e-38
-0.029350799 0.095626794 1.08 1.3136615e-38
0.023670001 0.097520404 1.0800002 1.905754e-38
0.026544299 0.097641967 1.0813334 2.0269021e-38
-0.03136012 0.10263311 1.084 8.8575123e-39
0.0227232 0.10225441 1.08 1.7972739e-38
0.026260257 0.10219128 1.0826668 3.7817907e-39
-0.03136012 0.10738464 1.084 7.7451868e-39
-0.029350799 0.1069884 1.0800002 6.8189299e-39
0.0192516 0.10825081 1.0800002 3.7814656e-39
0.022780476 0.10725373 1.0826668 5.6228782e-39
0.025658278 0.10643434 1.084 7.6525666e-39
-0.03136012 0.11213619 1.084 1.7971681e-38
-0.02801376 0.11300034 1.0805714 1.484389e-38
-0.0198828 0.1126692 1.08 3.6918735e-39
0.018530229 0.11293972 1.08 1.1336116e-38
0.02280736 0.11308648 1.0840001 1.6130291e-38
-0.027510386 0.11762121 1.082 1.6863456e-38
-0.0198828 0.11834999 1.08 2.0091482e-38
0.014202 0.11740319 1.08 1.9170225e-38
0.0179892 0.1174032 1.08 1.880255e-38
0.02280736 0.11783803 1.084 1.0693299e-38
-0.021917542 0.073376119 1.0870001 2.3509886e-38
-0.0076234927 0.071470246 1.087 2.3509886e-38
-0.0023823418 0.07194671 1.087 2.1547405e-38
0.0028588101 0.072423182 1.087 2.3321176e-38
0.0066705565 0.073376119 1.087 2.3509886e-38
-0.026205758 0.077664338 1.087 2.34155e-38
-0.021917542 0.076234937 1.087 2.1477982e-38
-0.016835213 0.076552585 1.0870001 2.3499031e-38
-0.012769351 0.076044343 1.087 2.3509886e-38
-0.00095293665 0.075281993 1.087 2.3509168e-38
0.0028588101 0.075281993 1.0870001 2.3509886e-38
0.0073058475 0.076552585 1.0870001 2.3509886e-38
0.011911708 0.075758465 1.087 1.7785047e-38
0.017152859 0.075281993 1.087 2.3509886e-38
0.021645274 0.077732414 1.087 1.9433094e-38
-0.031446911 0.083858423 1.087 1.8921712e-38
-0.029064566 0.082429022 1.087 2.3468762e-38
0.023823416 0.08099962 1.087 2.0203809e-38
0.028111629 0.081476092 1.087 2.3002456e-38
-0.035893951 0.087987825 1.0870001 1.5666794e-38
-0.032399848 0.08767017 1.087 2.1052738e-38
0.031446911 0.08767017 1.087 2.3507733e-38
-0.036211595 0.09052898 1.087 2.1099166e-38
-0.033352785 0.092434853 1.0870001 2.0895721e-38
0.029541034 0.09338779 1.087 2.1827418e-38
0.031446911 0.09052898 1.087 2.303988e-38
-0.036211595 0.097199537 1.087 1.3801593e-38
-0.033352785 0.097199537 1.087 2.091151e-38
0.029541034 0.097199537 1.087 8.2875342e-39
-0.036211595 0.10196423 1.087 5.9020099e-39
-0.033352785 0.10196422 1.0870001 7.4670459e-39
0.029064568 0.10244069 1.087 6.4565317e-39
-0.036021005 0.10730066 1.087 1.5023597e-38
-0.033352785 0.10768183 1.0870001 1.1064231e-38
0.027952805 0.10768184 1.087 1.3275491e-38
-0.035258658 0.11149359 1.087 1.8151326e-38
-0.033352785 0.11244652 1.087 1.6957888e-38
0.026682226 0.11244652 1.087 1.6779263e-38
0.023976833 0.063298836 1.094 1.9441826e-38
0.025894979 0.062339764 1.094 1.5945936e-38
-0.022058686 0.068094209 1.0940001 2.257961e-38
-0.010549806 0.068094201 1.094 2.3509886e-38
-0.0074695507 0.068375431 1.0924 2.3501629e-38
-0.0028733239 0.067981213 1.0922222 2.1357996e-38
0.0025981897 0.068496972 1.0917144 2.3502338e-38
0.007344713 0.068648264 1.0926666 2.3509886e-38
0.012831944 0.068759069 1.0924 2.3048517e-38
0.017263319 0.067135125 1.094 2.1076427e-38
0.022058684 0.067135125 1.094 2.1797495e-38
-0.031533699 0.072623067 1.09 2.3486697e-38
-0.027745331 0.071752824 1.0913334 2.3125274e-38
-0.022018362 0.070839927 1.0920001 2.3509886e-38
-0.017429886 0.072206125 1.0924 2.210644e-38
-0.012448472 0.071811274 1.0922222 2.3324407e-38
0.0081302067 0.071731493 1.0910001 2.3509886e-38
0.012154859 0.072250105 1.0905715 1.7785097e-38
0.01722124 0.071752831 1.0913334 2.3509886e-38
0.021779468 0.07203614 1.092 2.3505577e-38
0.025894979 0.073848642 1.094 1.4094432e-38
-0.035485711 0.078644007 1.094 1.5934798e-38
-0.03248927 0.0774009 1.0900002 2.032731e-38
-0.028858114 0.077018671 1.09 2.3509851e-38
-0.018155767 0.075489767 1.09 2.3482836e-38
0.0086000999 0.075489767 1.09 2.3509886e-38
0.022933599 0.075489767 1.09 2.3501507e-38
0.027074389 0.078037947 1.0900002 2.2454641e-38
-0.036379911 0.082329512 1.092 1.7511424e-38
-0.03280779 0.081860214 1.09 1.8374302e-38
-0.037301291 0.0865568 1.0910001 1.9724112e-38
-0.033444833 0.085045435 1.09 1.6989567e-38
-0.039178234 0.092689976 1.09 1.1332885e-38
0.032754019 0.093276277 1.0924 1.4003614e-38
0.035485711 0.091111965 1.094 1.0601421e-38
-0.041240152 0.097825475 1.094 1.189289e-38
-0.039178234 0.097467802 1.09 3.964066e-39
0.032550633 0.097646639 1.092 1.1143047e-38
-0.041240152 0.10262084 1.0940001 1.2535355e-38
-0.039178234 0.10224564 1.09 1.1982541e-38
0.032530181 0.10236954 1.0913334 1.1707795e-38
-0.041240152 0.10741621 1.094 6.5375786e-39
-0.03870045 0.10845682 1.09 1.3730636e-38
0.029622566 0.10989017 1.09 1.5764399e-38
0.03248927 0.10797904 1.0900002 1.1705967e-38
0.035485711 0.10741621 1.094 8.380408e-39
0.029622566 0.11275687 1.09 9.2192085e-39
0.032489266 0.11275687 1.09 5.2544124e-39
-0.021157473 0.064434119 1.097 2.232395e-38
0.01442555 0.06347242 1.097 2.3431808e-38
0.01731066 0.064434119 1.097 2.1308795e-38
-0.026607124 0.067639798 1.097 2.2440581e-38
-0.022119178 0.066357538 1.097 2.2779637e-38
-0.018272363 0.068280935 1.097 2.3478106e-38
-0.013463845 0.068280935 1.097 2.3508092e-38
0.0038468132 0.066357531 1.097 2.3476828e-38
0.0076936265 0.066357531 1.097 2.2166307e-38
0.012502143 0.066357538 1.097 2.3444437e-38
-0.016348956 0.07020434 1.097 2.3494006e-38
0.024042582 0.07020434 1.097 2.3477162e-38
0.025965989 0.072127745 1.097 9.5793674e-39
0.035583023 0.10386395 1.097 1.3824643e-38
-0.026060669 0.058877803 1.101 5.806978e-39
-0.024130249 0.058877803 1.101 1.8425659e-39
-0.026832838 0.063124731 1.101 1.9885468e-38
-0.022971997 0.06273865 1.101 1.9211304e-38
-0.0077216793 0.064669065 1.101 2.3435028e-38
-0.00096520991 0.064669065 1.101 2.2132355e-38
0.00096520991 0.064669065 1.101 2.3050794e-38
0.01158252 0.06370385 1.101 2.342533e-38
-0.027991088 0.066599481 1.101 1.4241001e-38
-0.017052043 0.067242958 1.1010001 2.3461528e-38
-0.01254773 0.066599481 1.1010001 2.345777e-38
-0.008686889 0.066599481 1.101 2.3471784e-38
-0.043434445 0.099416621 1.101 1.0970914e-38
0.035712767 0.10134704 1.101 1.401374e-38
-0.020343048 0.059091713 1.105 8.2652171e-39
-0.017436899 0.059091713 1.105 1.6715501e-38
-0.013562033 0.059091713 1.105 2.2697058e-38
-0.021311766 0.061029144 1.105 1.645157e-38
-0.017436899 0.062966585 1.105 2.2780312e-38
-0.012593316 0.062966585 1.105 2.343214e-38
-0.007749733 0.061997861 1.105 2.3440779e-38
-0.003148329 0.062724404 1.105 2.2319296e-38
0.0031539178 0.062829278 1.1068751 2.3327008e-38
0.0074469913 0.062489968 1.108 2.342136e-38
0.0077707735 0.065080225 1.108 2.2683452e-38
0.027521489 0.072851002 1.108 1.4434757e-38
0.035842516 0.093965515 1.105 1.1156064e-38
0.035842516 0.09590295 1.105 1.2352086e-38
0.028270746 0.071164295 1.112 9.8300064e-39
0.030410688 0.072593257 1.119 1.3975234e-38
0.030709632 0.077269398 1.13 2.135152e-38
0.035255149 0.092670679 1.149 1.3822523e-38
