# .PCD v0.7 - Point Cloud Data file format
VERSION 0.7
FIELDS x y z rgb
SIZE 4 4 4 4
TYPE F F F F
COUNT 1 1 1 1
WIDTH 337
HEIGHT 1
VIEWPOINT 0 0 0 1 0 0 0
POINTS 337
DATA ascii
-0.026405197 0.14874928 1.0039999 2.0846658e-38
-0.022004332 0.14874928 1.0039999 2.020389e-38
-0.027046259 0.15237561 1.0032499 2.0479316e-38
-0.021960497 0.15196489 1.0020001 2.3104385e-38
-0.017603464 0.15315014 1.0039999 2.3212792e-38
-0.014962945 0.15403032 1.0039999 2.2273943e-38
-0.027241832 0.15728889 1.0023333 1.5979385e-38
-0.021938583 0.15708025 1.001 1.8091594e-38
-0.017603466 0.15755102 1.0039999 1.9103599e-38
-0.014082773 0.15755102 1.0039999 1.92898e-38
-0.027232774 0.16250771 1.0020001 1.5286504e-38
-0.021959329 0.16250888 1.002 1.5089138e-38
-0.017603464 0.1610717 1.0039999 1.2856969e-38
-0.0035206929 0.1645924 1.0039999 1.7414595e-38
-0.026405197 0.16635275 1.0039999 1.5936207e-38
-0.022884503 0.16723293 1.0039999 1.0776467e-38
-0.0035206929 0.16635275 1.0039999 1.2724831e-38
-0.027808303 0.14786954 1.007 2.0938496e-38
-0.022423202 0.14672191 1.007 2.0479338e-38
-0.017126383 0.14848751 1.007 1.97447e-38
-0.031604357 0.15307809 1.007 1.9928305e-38
-0.029132508 0.15095936 1.007 2.0662987e-38
-0.016331861 0.15140076 1.007 2.3509886e-38
-0.012359246 0.15360777 1.007 2.3490825e-38
-0.0083866315 0.15404917 1.007 2.3491876e-38
-0.0035312129 0.15449058 1.007 2.3490487e-38
-0.031780917 0.15802181 1.007 1.3225794e-38
-0.011476442 0.15802179 1.007 1.9291237e-38
-0.0079452293 0.15802179 1.007 1.8377197e-38
-0.0026484099 0.15713899 1.007 1.9135304e-38
-0.031780917 0.1624358 1.007 1.7965933e-38
-0.016331861 0.1628772 1.007 1.1479473e-38
-0.013242049 0.1624358 1.007 1.2397824e-38
-0.0061796228 0.1624358 1.007 1.4898992e-38
-0.0026484099 0.16243581 1.007 1.8414278e-38
-0.031486653 0.16567275 1.007 8.1956552e-39
-0.027366903 0.16802689 1.007 6.9935513e-39
-0.020304475 0.16773263 1.007 1.059173e-38
-0.016773261 0.16508421 1.007 2.2205127e-38
-0.013242049 0.16508421 1.007 2.1283189e-38
-0.0061796228 0.16596702 1.007 1.8522335e-38
-0.0022070082 0.16729121 1.007 4.976804e-39
-0.026484098 0.17038104 1.007 2.4875248e-39
-0.022070084 0.17038104 1.007 2.578619e-39
-0.031082217 0.13942593 1.013 2.1122164e-38
-0.027529962 0.13853787 1.013 2.0846658e-38
-0.022201583 0.13853787 1.013 2.0754824e-38
-0.016429171 0.13898191 1.013 2.2132378e-38
-0.012432886 0.13853787 1.013 2.1581344e-38
-0.0079925703 0.13853787 1.013 2.1030329e-38
-0.0044403165 0.13942593 1.013 2.1673183e-38
-0.041738976 0.14475432 1.013 2.0387515e-38
-0.038186725 0.14475432 1.013 2.075485e-38
-0.032599833 0.14303945 1.011875 2.1305838e-38
-0.027475609 0.14269416 1.0110002 2.1581346e-38
-0.022157751 0.14269416 1.0110002 2.1856876e-38
-0.016867066 0.14293057 1.0126667 2.1765049e-38
-0.012432886 0.14297819 1.013 2.1856889e-38
-0.0079925703 0.14297818 1.0130001 2.1765039e-38
-0.0028862057 0.1432002 1.013 2.158137e-38
0.0017761267 0.14475432 1.013 2.1122195e-38
-0.041738976 0.14741851 1.013 1.9193643e-38
-0.038186722 0.14741853 1.013 2.0387498e-38
-0.03276103 0.14786735 1.0100001 2.0662998e-38
-0.027448434 0.1460965 1.01 2.1214005e-38
-0.020364966 0.14609648 1.01 2.1858689e-38
-0.016404185 0.14675619 1.0115 2.1030373e-38
-0.012408338 0.14801201 1.0110002 2.066304e-38
-0.00797679 0.14801201 1.0110002 2.0938546e-38
-0.0028835756 0.14797345 1.0122499 2.1214036e-38
0.0026641903 0.14741853 1.013 2.0846702e-38
-0.041738976 0.15185884 1.013 1.3600367e-38
-0.03799833 0.15216804 1.0127001 1.7634234e-38
-0.034089182 0.15273724 1.01 1.9744657e-38
-0.012396066 0.15140909 1.01 2.2303407e-38
-0.0076147257 0.15211743 1.0100001 2.1993755e-38
-0.0022142406 0.15240631 1.0107501 2.1512649e-38
0.0024863144 0.15216802 1.0127001 2.0120297e-38
0.0072821192 0.15256928 1.013 1.736051e-38
-0.041738976 0.15629914 1.013 2.0820411e-38
-0.03839526 0.15735103 1.012625 1.3623405e-38
-0.034531899 0.15760712 1.01 1.3040699e-38
0.0028855484 0.15729219 1.0122499 1.434398e-38
0.0079925703 0.15718719 1.0130001 1.9237952e-38
-0.036854628 0.16207156 1.013 1.8056283e-38
-0.034531899 0.16203429 1.01 1.7133668e-38
-0.011510633 0.16291973 1.01 1.3132519e-38
-0.0088543333 0.16291972 1.01 1.3229765e-38
-0.0026563001 0.16026342 1.01 1.0836589e-38
0.0026624363 0.16230109 1.0116667 1.786406e-38
0.0071045067 0.16251558 1.013 1.1422941e-38
-0.036410596 0.16606784 1.013 3.4054748e-39
-0.03313572 0.16780049 1.0106001 4.0533805e-39
-0.029219298 0.16911776 1.01 2.2109421e-39
-0.016829621 0.16792461 1.0104288 1.3356516e-38
-0.012233707 0.16790201 1.0112001 1.2991329e-38
-0.0084789945 0.16767165 1.0104288 1.1975755e-38
-0.00088543328 0.16911776 1.01 2.5821839e-39
0.00266156 0.16756842 1.0113332 3.0396083e-39
0.0069268937 0.16748874 1.013 4.7880561e-39
-0.031954937 0.17308775 1.0125 9.5916119e-39
-0.027701413 0.17316547 1.0100001 7.2860163e-39
-0.022135835 0.17354493 1.0100001 6.1782184e-39
-0.016873203 0.17317234 1.0130001 4.3339373e-39
-0.012432886 0.17317235 1.013 4.9767858e-39
-0.0079905242 0.17311595 1.0126667 5.5295854e-39
-0.00266156 0.17300314 1.012 8.2043082e-39
0.0026638978 0.17311594 1.0126667 1.3087454e-38
0.0062164431 0.17139623 1.013 1.0325555e-38
-0.031970277 0.17761266 1.013 1.6311428e-38
-0.027476486 0.17726287 1.0110002 1.6590914e-38
-0.022135833 0.17797208 1.0100001 1.4378204e-38
-0.016873203 0.17761266 1.013 1.3919037e-38
-0.012432886 0.17761266 1.013 1.4746622e-38
-0.0079925694 0.17761266 1.013 1.7419218e-38
-0.0026641898 0.17761266 1.013 1.714589e-38
0.0023089647 0.17743504 1.013 1.041924e-38
-0.015186498 0.12953188 1.0190001 2.3473518e-38
-0.013399851 0.12953188 1.0190001 2.3509886e-38
-0.0080399103 0.12953189 1.0190001 2.3139304e-38
-0.0035732933 0.12953188 1.0190001 2.1732521e-38
-0.031266317 0.13489182 1.0190001 2.3505903e-38
-0.027693024 0.13489184 1.0190001 1.8881579e-38
-0.022049671 0.13344544 1.0177144 2.2948458e-38
-0.01694655 0.13288629 1.0173334 2.072243e-38
-0.012475405 0.13277775 1.0165 2.2853307e-38
-0.0080241309 0.13284218 1.017 2.2769068e-38
-0.0028977119 0.13308161 1.017125 2.1357613e-38
0.0026799701 0.13489184 1.0190001 2.3507279e-38
0.0062532634 0.13489182 1.0190001 2.3509886e-38
-0.036626257 0.13846512 1.0190001 1.7907922e-38
-0.032997355 0.13823068 1.0172857 2.0587723e-38
-0.027611494 0.13627607 1.016 1.7174335e-38
-0.022267332 0.13627607 1.016 2.0205702e-38
-0.017279452 0.13698862 1.016 2.0479334e-38
-0.012469707 0.13627607 1.016 1.9744632e-38
-0.0080162399 0.13627607 1.016 2.2699994e-38
-0.0024494065 0.13783479 1.0159999 2.1775815e-38
0.00267471 0.1381916 1.0169998 2.1147001e-38
0.0069642402 0.13802521 1.0184001 2.2000551e-38
-0.040199552 0.14293173 1.0190001 2.0754828e-38
-0.03746479 0.14182757 1.0175002 2.0662999e-38
-0.034737039 0.14162023 1.016 2.1214029e-38
-0.00089069334 0.14162023 1.016 2.1765039e-38
0.00267208 0.14251092 1.016 2.1122184e-38
0.008249104 0.14199841 1.017125 2.1504339e-38
0.012208752 0.14322951 1.0190001 1.8942975e-38
-0.045559488 0.14739835 1.0190001 1.6263211e-38
-0.043643974 0.1469644 1.016 1.5429503e-38
0.0044534663 0.14518301 1.016 2.0754825e-38
0.0080162399 0.14696439 1.0159999 2.0020148e-38
0.012327862 0.14704102 1.0190001 1.8740943e-38
-0.045559488 0.1527583 1.0190001 2.1556225e-38
-0.043198623 0.15230855 1.016 1.2326558e-38
0.0089069335 0.15141787 1.016 1.7356909e-38
0.012314187 0.15293467 1.0178001 1.8407894e-38
0.015186498 0.15454493 1.0190001 2.2492137e-38
-0.045559488 0.15811823 1.0190001 1.418654e-38
-0.043198623 0.15809806 1.016 1.9441336e-38
0.012489432 0.15788549 1.0175002 1.4924587e-38
0.015186499 0.15811823 1.0190001 5.3372726e-39
-0.045559488 0.16169153 1.0190001 8.2508454e-42
-0.041680243 0.16276143 1.0177144 7.7390337e-39
-0.03829981 0.16388758 1.016 1.0310387e-38
0.0097976271 0.16299689 1.016 4.3288842e-39
0.012497979 0.16246584 1.01825 3.31184e-39
0.015186498 0.16169153 1.0190001 3.4105349e-39
-0.041969292 0.16698121 1.0185715 5.5393637e-39
-0.037743714 0.16791293 1.0170001 3.8718857e-39
0.0098265568 0.16794479 1.0190001 7.6453919e-39
0.012059865 0.16660482 1.0190001 8.6598928e-39
-0.040199555 0.17241141 1.0190001 1.5668942e-38
-0.037501611 0.17232594 1.0185001 1.152668e-38
-0.034737043 0.17190382 1.016 8.3037514e-39
0.0085376063 0.17237584 1.0172858 1.3916158e-38
0.011613203 0.17151809 1.0190001 1.5022151e-38
-0.034737043 0.17724799 1.016 1.4284551e-38
-0.031358361 0.12991321 1.022 1.9342004e-38
-0.02777455 0.12991321 1.0220001 2.0635642e-38
-0.021950852 0.12946524 1.022 2.3509527e-38
-0.01747109 0.12901726 1.022 2.0905764e-38
-0.012244694 0.12871861 1.0220001 2.3509886e-38
-0.0080635799 0.12812132 1.0220001 2.3509886e-38
-0.0035838131 0.12812132 1.022 2.3502687e-38
-0.032254316 0.13260108 1.022 2.350594e-38
-0.027774554 0.1326011 1.022 2.1380407e-38
-0.023294784 0.13170514 1.022 2.3509804e-38
-0.00089595327 0.13170514 1.022 2.3498891e-38
0.0026878598 0.13349704 1.0220001 2.3509886e-38
0.0062716729 0.13349704 1.022 2.3509886e-38
-0.041213848 0.13887276 1.022 1.9115463e-38
-0.037630036 0.13708085 1.022 1.9881852e-38
-0.034344878 0.13588625 1.0220001 2.3497906e-38
0.0092581837 0.13708085 1.0220001 2.0822208e-38
0.011647392 0.13887276 1.022 1.7448744e-38
-0.045693617 0.14424847 1.022 1.8091593e-38
-0.04262178 0.14220059 1.022 2.0762037e-38
0.012543345 0.14156061 1.022 1.5887567e-38
0.015231205 0.14424847 1.022 1.5173448e-38
-0.047485523 0.1478323 1.0220001 1.2711506e-38
0.013439299 0.1496242 1.022 2.345732e-38
0.015231205 0.14783229 1.0220001 2.0533043e-38
-0.047485523 0.15320802 1.0220001 2.294082e-38
0.013439299 0.15141609 1.022 2.3480062e-38
0.016127158 0.153208 1.022 1.474555e-38
-0.047485523 0.15768778 1.022 7.4714446e-39
0.017023113 0.15768778 1.022 3.9539654e-39
-0.047037549 0.16261551 1.022 6.1764514e-39
0.015231205 0.16395944 1.022 9.9517709e-39
-0.046589576 0.16754326 1.022 1.5211582e-38
-0.043901712 0.16933516 1.022 1.4748452e-38
0.013439299 0.16843921 1.022 1.4925985e-38
0.015231205 0.16754326 1.0220001 1.3453767e-38
0.012991321 0.17336695 1.022 6.63271e-39
0.015231205 0.17112708 1.022 7.001868e-39
-0.027036399 0.11986136 1.028 2.3434217e-38
-0.02433276 0.11986136 1.028 2.34408e-38
-0.027577126 0.12274525 1.028 2.2917482e-38
-0.022530332 0.12274525 1.028 2.3394328e-38
-0.018925479 0.12256501 1.028 1.6742236e-38
-0.0089858323 0.12490307 1.025 2.3509886e-38
-0.045961879 0.1288735 1.028 2.0120302e-38
-0.042357028 0.12797229 1.028 1.8577084e-38
-0.036932647 0.1279096 1.0275 2.3509886e-38
-0.032207157 0.12720697 1.0262001 1.9427263e-38
-0.027883258 0.1268221 1.0259999 2.3500826e-38
-0.022713885 0.12661268 1.026125 2.3415898e-38
-0.0170945 0.12634344 1.0262858 2.2468418e-38
-0.012892844 0.12622306 1.026 2.3509886e-38
-0.0076425602 0.12634234 1.02575 2.3509886e-38
-0.003150959 0.12697837 1.0272499 2.2030795e-38
0.0027036401 0.1288735 1.0280001 2.3481798e-38
0.0063084932 0.1288735 1.028 2.3497491e-38
-0.04711879 0.13294941 1.027 1.4622751e-38
-0.042233415 0.13209173 1.025 2.0891014e-38
-0.036841918 0.13209175 1.025 2.2772321e-38
-0.033247583 0.13029458 1.025 2.3509886e-38
-0.00089858327 0.13029458 1.025 2.347047e-38
0.0026996951 0.13138384 1.0265 2.2851568e-38
0.008100776 0.13231117 1.0267143 2.3506999e-38
0.012616986 0.13337956 1.028 1.6132442e-38
0.015921436 0.13367997 1.0280001 1.9882854e-38
-0.051369157 0.13968806 1.028 2.3506657e-38
-0.047704108 0.13770622 1.0266665 1.6379874e-38
-0.042490151 0.13696976 1.0250001 2.3491538e-38
-0.038639084 0.13568607 1.025 2.3509872e-38
0.0098844161 0.13568607 1.025 2.3509886e-38
0.012759882 0.13712381 1.025 1.5282477e-38
0.016880983 0.13796005 1.026875 2.0714508e-38
-0.051369157 0.14149049 1.028 2.3509886e-38
-0.047666244 0.14248 1.0258572 1.7023098e-38
0.013478749 0.14107758 1.025 1.7632415e-38
0.017324029 0.14285786 1.0265 2.1552927e-38
-0.051369157 0.14870019 1.028 2.3498678e-38
-0.049470298 0.14661023 1.026 2.3408715e-38
0.017971667 0.14736766 1.025 2.3221804e-38
0.02117851 0.14644715 1.028 9.3041958e-39
-0.051369157 0.15230504 1.0280001 1.2802972e-38
-0.049422082 0.15186058 1.025 1.9901988e-38
0.018184518 0.15176784 1.0268 1.612519e-38
0.020727905 0.15410747 1.028 1.0595215e-38
-0.051369157 0.15951474 1.028 8.2069132e-39
-0.049422082 0.15725207 1.025 4.5989817e-39
0.018870249 0.15725207 1.025 4.5147174e-39
0.020727906 0.15771233 1.0280001 1.0877291e-38
-0.051369157 0.1631196 1.0280001 1.6311452e-38
-0.049422082 0.16264358 1.025 1.3182596e-38
0.017971665 0.16264358 1.0250001 1.1796739e-38
0.020727906 0.1631196 1.0280001 7.9252368e-39
-0.051707335 0.16815802 1.02575 1.1418898e-38
-0.049422082 0.16803508 1.025 1.5852608e-38
0.017802997 0.16777401 1.0256001 9.0287145e-39
0.020727905 0.16762567 1.028 6.1709779e-39
-0.02772283 0.11795393 1.0334001 2.324448e-38
-0.022639919 0.1177267 1.033 2.3442916e-38
-0.017662421 0.11820863 1.03325 2.2967182e-38
-0.00815826 0.11874801 1.034 2.3419922e-38
-0.041395616 0.12358253 1.0340002 1.910575e-38
-0.037165407 0.12328037 1.034 2.2846172e-38
-0.032395463 0.12252136 1.0322001 2.3485081e-38
-0.029826827 0.121115 1.031 2.1057452e-38
-0.021993522 0.12081373 1.031 2.3446202e-38
-0.016670069 0.12186054 1.0318573 2.1492034e-38
-0.012857193 0.12259237 1.0328001 2.270505e-38
-0.0086687319 0.12252995 1.0331429 2.2517727e-38
-0.0036258933 0.12418684 1.034 2.3074909e-38
-0.041576795 0.12563422 1.031 2.0050389e-38
-0.037057579 0.12563422 1.031 2.3509886e-38
-0.033442203 0.12563422 1.031 1.1247867e-38
-0.011749962 0.12563422 1.031 2.3509886e-38
-0.0015072821 0.12635864 1.0320001 2.1291056e-38
0.0027176663 0.12678266 1.033 2.3498734e-38
0.0081494935 0.12798953 1.033 2.2855539e-38
0.012662353 0.12843846 1.0317501 1.8396699e-38
0.015967898 0.12864703 1.031 1.4363505e-38
0.0099422764 0.13105728 1.031 2.3509886e-38
0.012653805 0.13105728 1.031 1.9808064e-38
0.016570462 0.13165985 1.031 2.017178e-38
-0.05151907 0.14371109 1.031 2.350594e-38
0.02124032 0.14235532 1.031 9.8613381e-39
-0.051594026 0.14663696 1.0325 2.3504477e-38
0.022661833 0.14866161 1.034 8.2010867e-39
-0.053481925 0.153194 1.034 8.8349626e-39
0.021725114 0.15206659 1.0325 9.3059628e-39
-0.052756745 0.15718247 1.034 7.5582928e-39
0.022628957 0.15749492 1.0325 1.0692161e-38
0.022596082 0.1626918 1.031 8.7535065e-39
-0.035489216 0.11829739 1.038 2.0390721e-38
-0.032213289 0.11811539 1.038 2.2319645e-38
-0.011602245 0.1176149 1.038 2.3142584e-38
-0.0072798394 0.11738741 1.038 2.3239827e-38
-0.0045499001 0.11920737 1.038 2.3435744e-38
-0.037309177 0.12102734 1.038 2.2501934e-38
-0.033669256 0.12102734 1.038 2.3429804e-38
-0.011829739 0.12102734 1.038 2.3142584e-38
-0.0063698594 0.12193732 1.038 2.2408614e-38
-0.00318493 0.12284729 1.038 2.2412229e-38
0.0029899343 0.12336729 1.0380001 2.2976201e-38
0.0070978436 0.12321128 1.038 2.1691241e-38
0.011465748 0.12393927 1.038 1.5168006e-38
0.0081898198 0.12648721 1.038 2.3470344e-38
0.01182974 0.12648723 1.038 1.608102e-38
-0.053688817 0.1446868 1.038 1.638639e-38
-0.053688817 0.14650677 1.038 1.3625526e-38
-0.053688817 0.15105668 1.038 8.4654108e-39
-0.037417009 0.1195519 1.041 1.7265073e-38
-0.0027378299 0.1195519 1.041 2.3440776e-38
-0.0015218933 0.12210213 1.0420001 2.3434294e-38
0.001826535 0.12155202 1.0425 2.2707145e-38
-0.053843986 0.14327976 1.041 1.5109326e-38
-0.053843986 0.14875542 1.041 1.1137271e-38
0.02471148 0.14918412 1.044 1.0136112e-38
-0.055722684 0.15255052 1.0420001 8.2021839e-39
0.024640469 0.15240586 1.0410001 9.585833e-39
-0.056070283 0.14339155 1.0485001 7.740833e-39
-0.054309495 0.1426775 1.05 1.6295641e-38
-0.05599007 0.14777708 1.0470002 6.5430311e-39
