# .PCD v0.7 - Point Cloud Data file format
VERSION 0.7
FIELDS x y z rgb
SIZE 4 4 4 4
TYPE F F F F
COUNT 1 1 1 1
WIDTH 318
HEIGHT 1
VIEWPOINT 0 0 0 1 0 0 0
POINTS 318
DATA ascii
-0.23372108 0.17823334 0.95899999 1.46188e-38
-0.24296904 0.18411842 0.95899999 2.3509886e-38
-0.23725212 0.18310954 0.95900005 1.8527006e-38
-0.23355293 0.18310954 0.95900005 1.8562342e-38
-0.22783601 0.18411842 0.95899999 2.0396486e-38
-0.24296904 0.18748128 0.95900005 2.1646554e-38
-0.23751061 0.18715371 0.95733327 1.5634388e-38
-0.23288035 0.18748128 0.95900005 1.7999781e-38
-0.22783603 0.18748128 0.95900005 2.2996767e-38
-0.22300185 0.18769147 0.95900005 2.2940175e-38
-0.21858805 0.18916273 0.95899999 2.3509886e-38
-0.2478032 0.19273581 0.95900005 1.3133228e-38
-0.24288517 0.19245812 0.95866668 1.561206e-38
-0.2371804 0.19192336 0.95599991 1.6989588e-38
-0.23288035 0.19252563 0.95900005 1.8091608e-38
-0.22783603 0.19252563 0.95900005 1.8458954e-38
-0.22209473 0.19192336 0.95599991 1.809451e-38
-0.21751852 0.19232488 0.958 1.6633777e-38
-0.21438444 0.1916849 0.95899999 1.543131e-38
-0.2478032 0.19735979 0.95900005 1.2523151e-38
-0.24280129 0.1974332 0.95833331 1.120938e-38
-0.2371804 0.1969519 0.95599991 1.2305975e-38
-0.23255774 0.19729468 0.95766664 1.2765144e-38
-0.22728051 0.19708869 0.95666653 1.2489632e-38
-0.22225019 0.19709042 0.95666665 1.2587229e-38
-0.21751852 0.19736394 0.95800006 1.5001571e-38
-0.21371186 0.19790626 0.95900005 1.6399685e-38
-0.24717265 0.2017736 0.95899999 1.3542332e-38
-0.24296904 0.20177361 0.95900005 1.6034861e-38
-0.2374285 0.20219351 0.9569999 1.409514e-38
-0.23263809 0.20240422 0.958 1.5014225e-38
-0.22720189 0.20205149 0.95633328 1.4833774e-38
-0.2229154 0.20232557 0.95862502 1.3730692e-38
-0.21794634 0.20147975 0.95839995 1.1615982e-38
-0.21438444 0.20093288 0.95899999 5.3484157e-39
-0.23826098 0.20664978 0.95900005 3.9622499e-39
-0.23288035 0.20597722 0.95899999 5.3441095e-39
-0.22783601 0.20681792 0.95900005 4.8842104e-39
-0.22447313 0.20597722 0.95899999 3.871513e-39
-0.24212305 0.17451452 0.96399999 1.8878909e-38
-0.23747496 0.17409198 0.96399993 2.1094371e-38
-0.23240432 0.17409198 0.96399993 2.0743655e-38
-0.22733369 0.17493707 0.96399999 1.8091625e-38
-0.24696779 0.17797355 0.96366662 2.1929634e-38
-0.2420987 0.17798825 0.96222222 2.1563359e-38
-0.23746419 0.17770658 0.96200001 2.1274225e-38
-0.23150864 0.17775895 0.96228576 1.8114654e-38
-0.22736722 0.17796662 0.96324992 1.9101804e-38
-0.21719241 0.17831749 0.96399999 1.9561004e-38
-0.21212177 0.17831749 0.96399999 1.9836508e-38
-0.20874134 0.17831749 0.96399999 1.9836516e-38
-0.25192243 0.18286961 0.9634999 2.1084381e-38
-0.24764608 0.18231443 0.96279997 2.2401751e-38
-0.24204241 0.18216431 0.96200001 1.8709289e-38
-0.23866898 0.18216431 0.96200001 2.3509886e-38
-0.23192215 0.18216431 0.96200001 1.7357688e-38
-0.22655742 0.18225811 0.96249998 1.965429e-38
-0.22210905 0.18241534 0.96333325 1.9656458e-38
-0.2171924 0.18169792 0.96399987 1.9653582e-38
-0.21212177 0.18169792 0.96399987 1.9561027e-38
-0.20753404 0.18193939 0.96399993 1.9194024e-38
-0.25663993 0.18713929 0.96342856 1.2033749e-38
-0.25243685 0.18780759 0.96239996 2.0709095e-38
-0.24794589 0.18806779 0.96200001 2.229656e-38
-0.22067747 0.18694332 0.96200007 2.0981404e-38
-0.21671136 0.18709916 0.96254539 2.0883823e-38
-0.21211478 0.18724036 0.96327263 1.8383367e-38
-0.20734552 0.18706717 0.96379989 1.4603298e-38
-0.25758043 0.19226876 0.96333325 1.9071225e-38
-0.2526446 0.19288693 0.96200001 1.3239873e-38
-0.21505509 0.19481461 0.96200001 1.1387602e-38
-0.21252504 0.19312792 0.96200001 1.3417347e-38
-0.20800766 0.192037 0.96345443 1.6282996e-38
-0.25719413 0.19634645 0.96399999 2.1829079e-38
-0.25253174 0.1982567 0.96233338 1.8797821e-38
-0.21210335 0.19776636 0.96200001 1.4738392e-38
-0.2077871 0.19722942 0.9634999 9.7698893e-39
-0.25121292 0.20226336 0.96266669 7.4534687e-39
-0.24710253 0.20493487 0.96200007 4.0458331e-39
-0.24288575 0.20493485 0.96200001 7.0890008e-39
-0.22095856 0.20493485 0.96200001 2.9506679e-39
-0.2167418 0.2040915 0.96200001 2.3095809e-39
-0.21210633 0.20265797 0.96239996 1.841742e-39
-0.20819607 0.20192061 0.96371424 3.22721e-39
-0.25099665 0.20705113 0.96399999 4.8867481e-39
-0.24693546 0.20788823 0.96228576 4.7909624e-39
-0.24252433 0.20854922 0.96200001 4.792756e-39
-0.23664494 0.20932031 0.96200001 4.6083311e-39
-0.23248439 0.20887053 0.96200001 4.9767605e-39
-0.22644037 0.2095733 0.96200001 5.9016021e-39
-0.22210827 0.20788822 0.96228576 4.4246896e-39
-0.21719241 0.20705111 0.96399993 5.2529901e-39
-0.2124598 0.206037 0.96399993 6.1767345e-39
-0.24769998 0.21222258 0.9634999 1.262829e-38
-0.24204241 0.21252505 0.96200001 1.2445694e-38
-0.23698227 0.21252504 0.96200001 1.0880182e-38
-0.23192218 0.21252505 0.96200001 1.097202e-38
-0.22709787 0.21274684 0.963 1.2630447e-38
-0.2224673 0.21204841 0.96366662 1.2628992e-38
-0.24634857 0.21676986 0.96399999 7.0936587e-39
-0.24249011 0.21714272 0.96377766 9.6758412e-39
-0.23741981 0.21714272 0.96377766 1.0417389e-38
-0.23240431 0.2171924 0.96399987 1.115639e-38
-0.22733369 0.21617828 0.96399993 1.5671475e-38
-0.22338985 0.21606562 0.96399999 1.4748812e-38
-0.24669136 0.17378601 0.96700001 1.7173308e-38
-0.24363951 0.17276873 0.96700001 1.8192544e-38
-0.23821399 0.17209053 0.96700001 2.146433e-38
-0.23278849 0.17141235 0.96700001 2.1841022e-38
-0.22804114 0.17293829 0.96700001 1.691791e-38
-0.22253086 0.17336214 0.96700001 1.9928333e-38
-0.21899864 0.17322086 0.96700001 2.0203847e-38
-0.25177777 0.17830728 0.96700001 2.1346583e-38
-0.2475391 0.17548148 0.96700001 2.349835e-38
-0.22295472 0.17717694 0.96700001 2.0020184e-38
-0.21786831 0.17632923 0.96700001 1.9928359e-38
-0.21278191 0.17632923 0.96700001 1.983652e-38
-0.20854321 0.17717695 0.96700001 1.9836506e-38
-0.25644034 0.18268725 0.96700001 1.5428739e-38
-0.25347325 0.18056791 0.96700001 1.8113981e-38
-0.206 0.18141565 0.96700001 1.8826313e-38
-0.20430455 0.18226337 0.96700001 1.6805906e-38
-0.26025516 0.1873498 0.96700001 1.841439e-38
-0.20430455 0.1873498 0.96700001 1.7372382e-38
-0.206 0.1941317 0.96700001 2.0180798e-38
-0.20430453 0.19158848 0.96700001 2.0351174e-38
-0.26025513 0.19582716 0.96700001 1.4733569e-38
-0.25686422 0.19921811 0.96700001 1.5567582e-38
-0.20430453 0.1966749 0.96700001 1.3829863e-39
-0.25347325 0.20430453 0.96700001 2.6653818e-39
-0.20600002 0.20260906 0.96700001 3.4144655e-39
-0.25347325 0.20769548 0.96700001 7.4682258e-39
-0.21702057 0.20939095 0.96700001 9.4024983e-39
-0.21235803 0.20896707 0.96700001 1.336724e-38
-0.20769548 0.20684773 0.96700001 1.5207575e-38
-0.25177783 0.21278191 0.96700001 1.3270389e-38
-0.22125927 0.21362963 0.96700001 1.6867465e-38
-0.21786833 0.21278191 0.96700001 1.539381e-38
-0.21299383 0.21299385 0.96700001 1.2170937e-38
-0.20939095 0.21362963 0.96700001 4.3382393e-39
-0.24822202 0.16974632 0.97299999 2.3084866e-38
-0.24267754 0.16931984 0.97299999 2.3502684e-38
-0.23759004 0.16812274 0.97225004 2.3138221e-38
-0.23262875 0.16786589 0.972 2.2677245e-38
-0.22759345 0.167924 0.97233337 1.9891631e-38
-0.22297333 0.16906393 0.97299999 2.2891962e-38
-0.21836713 0.16974632 0.97299999 2.3460211e-38
-0.25589898 0.17401132 0.97299999 1.8183465e-38
-0.252487 0.17315832 0.97299999 2.0486577e-38
-0.24840628 0.17232183 0.97150004 2.1601913e-38
-0.24235451 0.17092369 0.97000003 2.2577837e-38
-0.2372523 0.17092369 0.97000003 2.2031498e-38
-0.23044935 0.17092369 0.97000003 2.3509886e-38
-0.22662272 0.17134888 0.97000003 1.8219121e-38
-0.22237088 0.17134887 0.97000003 2.0479374e-38
-0.21696557 0.17267682 0.97150004 2.1220156e-38
-0.21206872 0.17374174 0.9715001 2.0756997e-38
-0.20770468 0.17443781 0.97299999 2.3453726e-38
-0.26186997 0.17998229 0.97299999 1.6082794e-38
-0.25712633 0.1779533 0.97257149 1.8192835e-38
-0.25255889 0.17687628 0.97000003 1.9761203e-38
-0.20677996 0.17752442 0.97200006 2.0572275e-38
-0.20370774 0.17941706 0.97225004 1.7999799e-38
-0.2618807 0.18303835 0.97224998 1.5633348e-38
-0.2576611 0.18197846 0.97000003 1.6897731e-38
-0.20216021 0.18254128 0.97299999 1.5346647e-38
-0.26276332 0.18793105 0.97000003 1.9903112e-38
-0.20214224 0.18697309 0.97209996 1.8870984e-38
-0.26276329 0.19133249 0.97000003 2.1099788e-38
-0.20224945 0.1925379 0.97179997 1.0872968e-38
-0.26106256 0.19813544 0.97000003 9.4662308e-39
-0.20301886 0.19790989 0.97128582 9.2628491e-40
-0.26016396 0.20216021 0.97299999 5.4301997e-39
-0.25664064 0.2028975 0.97000009 7.0896748e-39
-0.20354995 0.20269959 0.97150004 8.9444082e-39
-0.26016396 0.20557219 0.97299999 6.732467e-39
-0.25745896 0.2073627 0.97179997 7.0987356e-39
-0.20368512 0.20709482 0.97214293 1.6866786e-38
-0.25425962 0.21259166 0.97000003 1.2902683e-38
-0.2106075 0.2111744 0.97000003 1.7237339e-38
-0.20721556 0.21159114 0.97042871 9.4050473e-39
-0.24116769 0.16363268 0.97724998 2.0681358e-38
-0.23725142 0.16359037 0.97700006 2.0895662e-38
-0.23243113 0.16347104 0.97628582 2.0261122e-38
-0.22737105 0.16378358 0.97687507 2.3128093e-38
-0.2238884 0.16456436 0.97600001 2.2956712e-38
-0.2615009 0.16804647 0.97799999 1.4330334e-38
-0.25807136 0.16804647 0.97800004 1.8275283e-38
-0.25232616 0.16714571 0.97649997 1.9101799e-38
-0.24744442 0.16695942 0.97666669 1.8739857e-38
-0.24271306 0.16656052 0.97600001 2.2744963e-38
-0.22217625 0.16656053 0.97600001 2.0247402e-38
-0.21778338 0.16729528 0.976125 2.1890034e-38
-0.21207494 0.16802093 0.97714293 2.0210708e-38
-0.20777175 0.16833226 0.97800004 2.0571214e-38
-0.26226512 0.17227402 0.9762857 1.5798278e-38
-0.25752395 0.17131631 0.97500002 1.8458959e-38
-0.25300598 0.17009525 0.97500002 1.9378383e-38
-0.21625175 0.17009525 0.97500002 2.346344e-38
-0.21283273 0.17095 0.97500002 2.3462363e-38
-0.20764902 0.17172258 0.97575003 2.2260977e-38
-0.20434222 0.17347655 0.97800004 2.1153248e-38
-0.26664516 0.17919241 0.97799999 1.9619761e-38
-0.26240823 0.17693324 0.97499996 1.6449393e-38
-0.25898924 0.17522374 0.97500002 1.855087e-38
-0.20251659 0.176855 0.97575003 1.8842148e-38
-0.19956528 0.17729443 0.977 2.2633976e-38
-0.26582724 0.18206173 0.97500008 2.1927127e-38
-0.20086624 0.18035224 0.97500002 1.4515813e-38
-0.19828209 0.18262681 0.97671437 1.9438885e-38
-0.26582724 0.18719026 0.97500008 2.1839953e-38
-0.19785053 0.18757422 0.97700006 9.1144222e-39
-0.19828209 0.19241193 0.97671431 2.120868e-39
-0.26438865 0.19764802 0.97600001 8.6562858e-39
-0.20086625 0.19744727 0.97500008 2.3084907e-39
-0.19860576 0.19775102 0.97650003 1.0049336e-38
-0.26324496 0.20284289 0.97628576 5.5299539e-39
-0.20086625 0.20257574 0.97500008 1.594375e-38
-0.19881003 0.20309603 0.97749996 1.5760436e-38
-0.20129362 0.20813161 0.97500002 9.0341194e-39
-0.19871597 0.20761693 0.97620004 4.4243098e-39
-0.2317051 0.15889829 0.98400003 2.2118682e-38
-0.22730564 0.15915708 0.98400003 2.2114002e-38
-0.22256112 0.1595884 0.98400003 1.463258e-38
-0.25792938 0.16476426 0.98400009 1.7265094e-38
-0.25193557 0.16408175 0.98250002 1.9101797e-38
-0.24720028 0.16365044 0.98250008 1.9840808e-38
-0.2420297 0.16192779 0.98250002 1.9841178e-38
-0.23722599 0.16131368 0.98400009 2.3499841e-38
-0.23187329 0.16162074 0.98325002 2.3509886e-38
-0.22813496 0.16155915 0.98200005 2.3509886e-38
-0.22269721 0.16244984 0.98175001 1.7605381e-38
-0.21821274 0.16306691 0.98287505 1.9292654e-38
-0.21285641 0.16325463 0.98400009 1.8577043e-38
-0.20832755 0.16433293 0.98400003 2.0942481e-38
-0.20444568 0.16476424 0.98400003 2.3459858e-38
-0.25714299 0.16598193 0.98100007 1.8183451e-38
-0.21672252 0.16598193 0.98100001 2.0020151e-38
-0.21242246 0.16598193 0.98100007 2.0479316e-38
-0.20689949 0.16729781 0.98200005 2.0939253e-38
-0.20308772 0.16861807 0.98300004 2.039578e-38
-0.20554239 0.17114198 0.98100001 1.9469167e-38
-0.20245402 0.17267115 0.98271435 1.8740226e-38
-0.20099512 0.17511591 0.98400003 2.0958627e-38
-0.19810432 0.17829251 0.98250002 2.0730364e-38
-0.19599462 0.1825062 0.98200005 8.4754903e-39
-0.19389676 0.18355384 0.98300004 1.0869687e-38
-0.19522226 0.18748218 0.98100001 5.8057897e-39
-0.19350225 0.18748218 0.98100001 1.3642778e-38
-0.19565226 0.19221222 0.98100001 9.8645961e-39
-0.19350225 0.1900622 0.98100001 1.6130998e-38
-0.19608228 0.19694227 0.98100007 1.5854427e-38
-0.19608228 0.20210235 0.98100007 1.0504912e-38
-0.23621869 0.14882642 0.98699999 1.7189095e-38
-0.23275761 0.14882642 0.98699999 1.7369512e-38
-0.22889414 0.14999503 0.98900002 1.8183428e-38
-0.22109094 0.14999503 0.98900002 2.1079832e-38
-0.21762286 0.14999503 0.98900002 1.3509669e-38
-0.25006303 0.15228751 0.98699999 1.2054573e-38
-0.24833247 0.15228751 0.98699999 1.5719002e-38
-0.23669736 0.1525961 0.98900002 1.8550794e-38
-0.23271817 0.15305284 0.98774999 1.9942725e-38
-0.22897463 0.15305355 0.98860008 2.2825983e-38
-0.22109094 0.1525961 0.98900002 2.3509886e-38
-0.21732946 0.15325508 0.98766667 1.8794631e-38
-0.21242224 0.1535234 0.98799998 1.5528525e-38
-0.20853007 0.15401806 0.98699999 1.7373462e-38
-0.25143674 0.1560642 0.98900002 1.690316e-38
-0.24173644 0.15798031 0.9883334 2.216004e-38
-0.23761231 0.15734881 0.98800004 2.1984642e-38
-0.23354487 0.15667664 0.98740005 2.17222e-38
-0.22720282 0.15670355 0.98757148 2.2395626e-38
-0.2226748 0.15682425 0.98833328 2.1288544e-38
-0.21732888 0.1575861 0.98766673 2.3507733e-38
-0.21206217 0.15753262 0.98733342 1.7854308e-38
-0.20715922 0.15738082 0.98871428 2.0328778e-38
-0.25663909 0.16284381 0.98699999 1.7999773e-38
-0.25235376 0.16232009 0.98750001 1.9009969e-38
-0.24724789 0.16096179 0.98820001 2.2339485e-38
-0.24326402 0.16102131 0.98750001 2.1422918e-38
-0.23794924 0.16007495 0.98699999 2.3499079e-38
-0.22064383 0.16007495 0.98699999 1.570387e-38
-0.21683665 0.16076717 0.98699999 2.3491792e-38
-0.21155852 0.16050759 0.98699999 1.8493508e-38
-0.20684569 0.16184193 0.98722225 2.2706046e-38
-0.20354445 0.1628347 0.98800004 2.1170013e-38
-0.20230012 0.166651 0.98699999 2.3473502e-38
-0.19954509 0.16751522 0.98750001 2.2758998e-38
-0.19814681 0.17218873 0.98699993 2.1467175e-38
-0.19468574 0.17305398 0.98699999 1.1702367e-38
-0.19677623 0.17674087 0.98757148 1.6769868e-38
-0.19468574 0.17911087 0.98699999 8.2935836e-39
-0.19401598 0.18275869 0.98800004 1.0599231e-38
-0.19249618 0.18833797 0.98820001 1.3734289e-38
-0.1932147 0.19292629 0.98833334 1.3180403e-38
-0.19401598 0.19748056 0.98800004 1.1796356e-38
-0.24147373 0.15334886 0.99199998 1.8830615e-38
-0.23915467 0.15218933 0.99199998 1.9013217e-38
-0.22610986 0.15218933 0.99200004 2.3204879e-38
-0.22350089 0.15218933 0.99199998 2.3499828e-38
-0.25219944 0.15914655 0.99199998 1.8734489e-38
-0.24854691 0.15810297 0.99200004 2.02153e-38
-0.24263327 0.15653759 0.99199998 1.9377301e-38
-0.23915465 0.15566793 0.99199998 1.9009948e-38
-0.2530691 0.16088587 0.99199998 1.9101815e-38
-0.19393268 0.17480031 0.99199998 1.1710293e-38
-0.19393268 0.17653961 0.99199998 1.0142611e-38
-0.23115507 0.14916044 0.995 1.4061967e-38
-0.2294105 0.14916044 0.995 1.4053357e-38
-0.24642003 0.15395801 0.995 1.8188853e-38
-0.24278554 0.15148653 0.99500006 1.6820312e-38
-0.25645128 0.15875557 0.995 1.5708574e-38
-0.24720509 0.15683654 0.995 1.8459303e-38
-0.25732356 0.16137241 0.995 1.8458956e-38
-0.19451918 0.17881808 0.995 1.1155303e-38
-0.19393753 0.18258205 0.99650002 1.2904132e-38
-0.19335584 0.18635653 0.99800003 1.4836304e-38
-0.19393708 0.17989638 1.001 1.2999215e-38
