# .PCD v0.7 - Point Cloud Data file format
VERSION 0.7
FIELDS x y z rgb
SIZE 4 4 4 4
TYPE F F F F
COUNT 1 1 1 1
WIDTH 430
HEIGHT 1
VIEWPOINT 0 0 0 1 0 0 0
POINTS 430
DATA ascii
-0.073135033 0.12964848 0.94800001 3.4176591e-39
-0.069737956 0.13034104 0.94699997 1.5719738e-39
-0.066346131 0.13103361 0.94599998 2.3106024e-39
-0.063162073 0.13047956 0.94800001 1.0132767e-38
-0.046276428 0.13053602 0.94600004 3.8876756e-39
-0.043169692 0.12951171 0.94699997 2.5915516e-39
-0.073135033 0.13214171 0.94800001 5.1701145e-39
-0.070641801 0.13214171 0.94800001 5.1704536e-39
-0.061998565 0.13280658 0.94800007 1.4812061e-39
-0.045709401 0.13324982 0.94800007 3.6128025e-39
-0.040851787 0.12755762 0.95099998 2.3509886e-38
-0.039184365 0.12755762 0.95099998 1.1275566e-38
-0.075867608 0.13005875 0.95099998 5.0797013e-39
-0.040851787 0.13005875 0.95099998 1.0977212e-40
-0.039184365 0.12922505 0.95099998 2.5470001e-41
-0.072532766 0.13422729 0.95099998 5.3537729e-39
-0.070031635 0.13422729 0.95099998 5.354119e-39
-0.065863088 0.13422731 0.95099998 4.7101677e-39
-0.058359694 0.13339359 0.95099998 7.5333805e-42
-0.052523725 0.13506101 0.95099998 2.6890805e-39
-0.050189342 0.13389382 0.95100003 1.7664082e-39
-0.045854047 0.13533893 0.95099998 5.8186789e-39
-0.041685499 0.13255988 0.95099998 5.3623628e-39
-0.037129171 0.1270214 0.95533335 5.7243673e-39
-0.078699239 0.1306058 0.95499992 6.6412957e-39
-0.037115436 0.13032615 0.95500004 2.6897798e-39
-0.076106936 0.13297805 0.954 5.4460035e-39
-0.074434258 0.13465072 0.954 6.1785365e-39
-0.056034777 0.13381439 0.954 6.4571833e-42
-0.053804539 0.13353562 0.954 7.5333805e-42
-0.041816995 0.13465072 0.954 6.5526468e-39
-0.037673581 0.13395494 0.95499992 5.4502509e-39
-0.072863273 0.13819014 0.95533335 4.8920983e-39
-0.070350744 0.13819014 0.95533323 4.8002404e-39
-0.066148199 0.13815799 0.95511097 4.8023774e-39
-0.061932407 0.1380937 0.95466661 5.1711557e-39
-0.057774279 0.13815798 0.95511109 4.71306e-39
-0.054028526 0.13821393 0.95550001 4.8978142e-39
-0.049971752 0.1376314 0.95533335 5.4499062e-39
-0.046064153 0.1376314 0.95533335 5.8176083e-39
-0.04186083 0.1373044 0.95499998 5.90729e-39
-0.038531691 0.13737585 0.95550001 4.7116279e-39
-0.033348694 0.12638873 0.95899999 4.8106016e-40
-0.030266037 0.1261085 0.95899999 3.792917e-39
-0.033628937 0.13031211 0.95900005 4.7116167e-39
-0.030266037 0.13031211 0.95900005 7.2870071e-39
-0.033628933 0.13451573 0.95899999 5.9991325e-39
-0.031106761 0.13451573 0.95899999 8.2082487e-39
-0.044558335 0.13871935 0.95899999 5.9076473e-39
-0.0361511 0.13787863 0.95899999 5.0767838e-39
-0.033628933 0.13787863 0.95899999 7.4706766e-39
-0.031106761 0.13787863 0.95899999 8.6667493e-39
-0.069780037 0.14208224 0.95899999 4.9781548e-39
-0.065576419 0.14208223 0.95899999 4.1591603e-39
-0.062213525 0.14208223 0.95899999 4.4343207e-39
-0.058009908 0.14208224 0.95899999 4.7105489e-39
-0.053526051 0.14152175 0.95899999 4.7127055e-39
-0.050723642 0.14096129 0.95899999 4.9896553e-39
-0.047921225 0.1404008 0.95899999 5.2651646e-39
-0.037272066 0.14152175 0.95900005 5.8122371e-39
-0.034049295 0.14166188 0.95899999 8.297929e-39
-0.031106761 0.1404008 0.95899999 9.3110327e-39
-0.033734135 0.12397294 0.96200001 1.6689557e-38
-0.031204073 0.12397294 0.96200001 1.4349296e-42
-0.034577485 0.12565964 0.96200001 1.5027885e-38
-0.02957873 0.12423067 0.96399999 1.1174514e-39
-0.048914492 0.14252672 0.96200001 4.8049109e-39
-0.045564309 0.14175744 0.96250004 5.4477636e-39
-0.042167664 0.14168337 0.96200001 5.0786251e-39
-0.039637607 0.14252672 0.96200001 4.0630551e-39
-0.069298744 0.14535834 0.96399999 3.9690448e-39
-0.06584993 0.14520842 0.96299994 3.8800609e-39
-0.061978925 0.14540744 0.96320003 4.248849e-39
-0.057901729 0.14500943 0.96280003 4.5272366e-39
-0.054030716 0.14520842 0.96299994 4.8956646e-39
-0.050283846 0.14493579 0.96399999 5.0789741e-39
-0.04563576 0.14535834 0.96399999 3.9712238e-39
-0.042255335 0.14620346 0.96399993 5.5345796e-39
-0.038432818 0.14590013 0.96200001 6.3614844e-39
-0.042255331 0.15042898 0.96399999 7.2791065e-39
-0.039156608 0.15014727 0.96399999 7.0929328e-39
-0.025432101 0.10596709 0.96700001 1.3552042e-38
-0.089012347 0.1110535 0.96700001 5.9162625e-39
-0.086469136 0.1110535 0.96700001 1.5308678e-38
-0.083925925 0.1110535 0.96700001 2.3509886e-38
-0.089012347 0.11274898 0.96700001 2.67722e-39
-0.086186558 0.11331414 0.96700001 1.6769084e-38
-0.083360776 0.11331414 0.96700001 2.3509877e-38
-0.049168725 0.14665844 0.96700001 5.2604983e-39
-0.069090538 0.14962551 0.96700001 1.1999865e-39
-0.066123456 0.15004939 0.96700001 1.7538483e-39
-0.062096715 0.14983745 0.96700001 2.956332e-39
-0.057646088 0.14920165 0.96700001 3.513463e-39
-0.054255143 0.14920165 0.96700001 3.6960634e-39
-0.050016459 0.14920166 0.96700001 3.9704937e-39
-0.045777783 0.15004939 0.96700001 2.9524055e-39
-0.065840885 0.1540055 0.96700001 1.4012985e-45
-0.061884776 0.15428808 0.96700001 1.8402972e-40
-0.090138867 0.10799656 0.97000003 1.7345261e-38
-0.08540111 0.1065388 0.97000015 2.2129743e-38
-0.082485564 0.10799656 0.97000003 2.3509886e-38
-0.028912468 0.10629584 0.97000015 2.3509886e-38
-0.090422325 0.1102642 0.97000003 1.1725679e-38
-0.085887037 0.1096973 0.97000003 2.0286479e-38
-0.082485564 0.1096973 0.97000003 2.3509886e-38
-0.028912466 0.1096973 0.97000003 2.3509886e-38
-0.025511 0.11054767 0.97000003 1.4197763e-38
-0.090138867 0.11394913 0.97000003 5.0746861e-39
-0.087587766 0.11479949 0.97000003 4.8766083e-39
-0.060376033 0.15221563 0.97000003 1.1109985e-39
-0.058250114 0.15349118 0.97000003 1.3847113e-39
-0.054423466 0.15221563 0.97000003 2.493549e-39
-0.050171636 0.15221563 0.97000003 8.3262913e-40
-0.045919798 0.15391637 0.97000003 0
-0.03333525 0.10342475 0.97500002 2.3509886e-38
-0.029854884 0.10321259 0.97299999 2.3509886e-38
-0.087858655 0.10577159 0.97299999 1.8447586e-38
-0.082740672 0.10577159 0.97299999 2.3509886e-38
-0.03333525 0.10598899 0.97500002 2.3509886e-38
-0.031560875 0.10577159 0.97299999 2.3509886e-38
-0.1008605 0.11197225 0.97500002 8.6774819e-39
-0.097441494 0.11026274 0.97500002 1.1632407e-38
-0.093926936 0.11014965 0.97399998 1.2186252e-38
-0.081714392 0.11018618 0.97433329 2.3509886e-38
-0.03333525 0.10855325 0.97500002 2.3509886e-38
-0.030313816 0.11057527 0.97399998 2.3509886e-38
-0.10513425 0.11539125 0.97500002 8.115358e-39
-0.10171525 0.11453649 0.97500002 6.8310413e-39
-0.097441494 0.11368175 0.97500002 6.8266791e-39
-0.093974717 0.1144782 0.97450006 7.3781405e-39
-0.091458254 0.11539125 0.97500002 7.2877736e-39
-0.10513425 0.11710075 0.97500002 8.115358e-39
-0.10342475 0.11710075 0.97500002 7.6547386e-39
-0.094022498 0.11710075 0.97500002 9.5965879e-39
-0.091458254 0.11710075 0.97500002 8.9486794e-39
-0.057150777 0.15439238 0.97299999 1.1074069e-39
-0.053738788 0.15439239 0.97299999 1.5669432e-39
-0.0494738 0.15439238 0.97299999 1.4391335e-42
-0.057268251 0.15641925 0.97500002 0
-0.055558749 0.15641925 0.97500002 0
-0.082136996 0.10237116 0.97799999 2.341805e-38
-0.079736337 0.10117084 0.97799999 2.3509886e-38
-0.081451096 0.10631511 0.97799999 2.3509886e-38
-0.097741321 0.1157463 0.97799999 7.4785309e-39
-0.081451096 0.11231677 0.97799999 2.3509886e-38
-0.10545773 0.11917581 0.97799999 8.1168056e-39
-0.10202821 0.11803263 0.97800004 5.8176209e-39
-0.096883938 0.11746105 0.97799999 1.0703538e-38
-0.053157557 0.15690053 0.97799999 0
-0.049728036 0.15690053 0.97799999 2.8025969e-45
-0.047155898 0.15690053 0.97799999 0
-0.077637598 0.099203601 0.98400003 2.3509886e-38
-0.034505598 0.099203601 0.98400003 2.3509886e-38
-0.031055041 0.099203601 0.98400003 2.3509886e-38
-0.077517942 0.10163634 0.98250002 2.3509886e-38
-0.034218054 0.10150397 0.98400009 2.3509886e-38
-0.031055041 0.10179152 0.98400003 2.3509886e-38
-0.085140988 0.10406121 0.98100001 1.8526658e-38
-0.07904359 0.10522051 0.98220009 2.3509886e-38
-0.079980925 0.11008128 0.98100001 2.3509886e-38
-0.033540387 0.11094129 0.98100001 2.3509886e-38
-0.080800615 0.11415603 0.98400009 2.3509886e-38
-0.033642959 0.11300584 0.98400003 2.3509886e-38
-0.030599393 0.11421368 0.98325002 2.3509886e-38
-0.02674184 0.11473113 0.98400003 2.3509872e-38
-0.10163503 0.11972417 0.98250002 7.2945502e-39
-0.098527692 0.11921176 0.98300004 9.1398011e-39
-0.094890401 0.11990695 0.98400003 1.4298206e-38
-0.030192399 0.11818168 0.98400009 2.1758169e-38
-0.10492121 0.12212142 0.98100001 8.9451201e-39
-0.10207906 0.12220734 0.98400009 8.0306958e-39
-0.10508165 0.12575476 0.98250002 8.759647e-39
-0.10265416 0.12594545 0.98400003 8.0246057e-39
-0.10437944 0.12853335 0.98400003 8.5723817e-39
-0.10265416 0.12853335 0.98400003 8.5720286e-39
-0.056934237 0.1595884 0.98400003 0
-0.041532956 0.094314426 0.98699999 2.3509886e-38
-0.07424017 0.098121606 0.98699999 2.3509886e-38
-0.071817413 0.097775511 0.98699999 2.3509886e-38
-0.041532956 0.096044965 0.98699999 2.3509886e-38
-0.037206605 0.09864077 0.98699999 2.3509886e-38
-0.034610797 0.097775504 0.98699999 2.3509886e-38
-0.07441321 0.10210185 0.98699999 2.3509886e-38
-0.071817406 0.10210185 0.98699999 2.3509884e-38
-0.037206605 0.10210185 0.98699999 2.3509886e-38
-0.035476066 0.10296712 0.98699999 2.3509886e-38
-0.077874303 0.10642821 0.98699999 2.3509886e-38
-0.074701637 0.10527452 0.98699999 2.3509886e-38
-0.035476066 0.10556294 0.98699999 2.3509886e-38
-0.078306936 0.10945664 0.98699999 2.3509886e-38
-0.035476066 0.10988928 0.98699999 2.3509886e-38
-0.078739569 0.11335036 0.98699999 2.3509886e-38
-0.033745527 0.1150809 0.98699999 2.3509886e-38
-0.033745527 0.11767671 0.98699999 2.3509886e-38
-0.10123658 0.1237336 0.98699999 9.0434086e-39
-0.097775504 0.12269527 0.98699999 1.0984856e-38
-0.093737587 0.12315675 0.98699999 1.310286e-38
-0.033745527 0.12027252 0.98699999 2.3509886e-38
-0.10123658 0.12632942 0.98699999 8.3930281e-39
-0.099506043 0.12632942 0.98699999 7.9349072e-39
-0.10123658 0.1297905 0.98699999 8.2961619e-39
-0.097775511 0.12979051 0.98699999 7.8351824e-39
-0.094314426 0.1297905 0.98699999 7.5582368e-39
-0.096910238 0.13238631 0.98699999 8.2961605e-39
-0.094314426 0.13238631 0.98699999 8.0202939e-39
-0.061745383 0.087834984 0.99199998 2.2572811e-38
-0.058090564 0.087569356 0.98900002 2.2673287e-38
-0.053755447 0.086702332 0.98900002 1.7237372e-38
-0.050287351 0.086702332 0.98900002 1.3644268e-38
-0.046385746 0.087135844 0.98900002 6.1857868e-39
-0.065026753 0.091037445 0.98900002 2.3509886e-38
-0.062136672 0.090459429 0.98900002 2.3509886e-38
-0.058090564 0.090170428 0.98900002 2.3509886e-38
-0.053755447 0.090170428 0.98900002 2.3509886e-38
-0.050287351 0.090170428 0.98900002 2.3509886e-38
-0.045952238 0.090170428 0.98900002 2.3509886e-38
-0.04190613 0.090459436 0.98900002 2.2404973e-38
-0.039134398 0.091313593 0.99199998 1.5311334e-38
-0.069361866 0.094505541 0.98900002 2.3509886e-38
-0.065893769 0.093638517 0.98900002 2.3509886e-38
-0.062425677 0.093638524 0.98900002 2.3509886e-38
-0.058090564 0.093638524 0.98900002 2.3509886e-38
-0.053755447 0.093638524 0.98900002 2.3509886e-38
-0.050287351 0.093638517 0.98900002 2.3509886e-38
-0.045952238 0.093638524 0.98900002 2.3509886e-38
-0.041617118 0.0927715 0.98900002 2.3509886e-38
-0.038477484 0.094021335 0.99000001 2.3509886e-38
-0.069361866 0.09797363 0.98900002 2.3509886e-38
-0.066067174 0.09762682 0.98900002 2.3509886e-38
-0.06242568 0.097106606 0.98900002 2.3509886e-38
-0.058148425 0.097205669 0.99000001 2.3509886e-38
-0.053836975 0.0972552 0.99050003 2.3509886e-38
-0.050326146 0.097180903 0.98975003 2.3509886e-38
-0.045735478 0.097756878 0.98899996 2.3509886e-38
-0.041617122 0.098840661 0.98900002 2.3509886e-38
-0.038582537 0.097540125 0.98900002 2.3509886e-38
-0.035547953 0.096239582 0.98900002 2.3509886e-38
-0.069361866 0.10230876 0.98900002 2.3509886e-38
-0.065879218 0.10203576 0.99140006 2.3509886e-38
-0.061962798 0.10153203 0.99200004 2.3509886e-38
-0.057397112 0.10087978 0.99199998 2.3509886e-38
-0.053918503 0.10087979 0.99199998 2.3509886e-38
-0.05043989 0.10087979 0.99199998 2.3509886e-38
-0.046069272 0.10198803 0.99150002 2.3509886e-38
-0.041649338 0.102387 0.98975003 2.3509886e-38
-0.039016049 0.10230875 0.98900002 2.3509886e-38
-0.073696986 0.10664387 0.98900002 2.3509886e-38
-0.07026352 0.10583076 0.98949999 2.3509886e-38
-0.066383533 0.10580781 0.99199998 2.3509886e-38
-0.045221969 0.10522804 0.99199998 2.3509886e-38
-0.041453477 0.10580781 0.99199998 2.3509886e-38
-0.038149025 0.10577685 0.98900002 2.3509886e-38
-0.077165075 0.11097898 0.98900002 2.3509886e-38
-0.074177921 0.10961875 0.99080002 2.3509886e-38
-0.071202427 0.10854229 0.99049997 2.3509886e-38
-0.040873706 0.10957631 0.99199998 2.3509886e-38
-0.03797562 0.10976515 0.98900002 2.3509886e-38
-0.077821121 0.11485269 0.99000001 2.3509886e-38
-0.07479018 0.11305492 0.99199998 2.3509886e-38
-0.037974861 0.11392459 0.99199998 2.3509886e-38
-0.035547953 0.11444708 0.98900002 2.3509886e-38
-0.087569356 0.11878219 0.98900002 1.3644524e-38
-0.080877751 0.11740319 0.99199998 2.3509886e-38
-0.079138443 0.11740319 0.99199998 2.3509886e-38
-0.03739509 0.11740319 0.99199998 2.3509886e-38
-0.035547953 0.11791517 0.98900002 2.3509886e-38
-0.097973637 0.12398433 0.98900002 1.3196805e-38
-0.0927715 0.12138326 0.98900002 1.4942815e-38
-0.033813909 0.12167227 0.98900002 2.3509886e-38
-0.029478792 0.12225029 0.98900002 1.558106e-38
-0.097106606 0.12658539 0.98900002 1.0241603e-38
-0.093708873 0.12668073 0.98975003 7.8502646e-39
-0.091313593 0.12696938 0.99199998 6.7475001e-39
-0.0927715 0.13005349 0.98900002 7.5582214e-39
-0.091037445 0.13005349 0.98900002 7.9270039e-39
-0.0927715 0.13265456 0.98900002 8.3876317e-39
-0.091037445 0.13265456 0.98900002 8.3876317e-39
-0.060187545 0.10380171 0.995 2.3509886e-38
-0.057570696 0.10380171 0.995 2.3509886e-38
-0.054081567 0.10380171 0.995 2.3509886e-38
-0.050592434 0.10380171 0.995 2.3509886e-38
-0.047975581 0.10380171 0.995 2.3509886e-38
-0.065421246 0.10729085 0.995 2.3509886e-38
-0.062281031 0.10624411 0.995 2.3509886e-38
-0.057570696 0.10554628 0.995 2.3509886e-38
-0.054081567 0.10554628 0.995 2.3509886e-38
-0.050301671 0.1061278 0.99500006 2.3509886e-38
-0.046667159 0.10685471 0.995 2.3509886e-38
-0.042741884 0.10729085 0.995 2.3509886e-38
-0.069782667 0.10990769 0.995 2.3509886e-38
-0.06629353 0.10903541 0.995 2.3509886e-38
-0.045358732 0.10990769 0.995 2.3509886e-38
-0.042741884 0.10990769 0.995 2.3509886e-38
-0.072399512 0.11339682 0.995 2.3509886e-38
-0.041869599 0.11252454 0.995 2.3509886e-38
-0.039252751 0.11426912 0.995 2.3509886e-38
-0.077633217 0.11775824 0.995 2.3509886e-38
-0.075016364 0.11601368 0.995 2.3509886e-38
-0.038671229 0.11775824 0.99500006 2.3509886e-38
-0.037508182 0.12124739 0.995 2.3509886e-38
-0.035763618 0.12299194 0.995 2.3509886e-38
-0.033146765 0.12473652 0.995 2.2311342e-38
-0.060369018 0.10761434 0.99800003 2.3509886e-38
-0.05774428 0.10761434 0.99800003 2.3509886e-38
-0.054244623 0.10761434 0.99800003 2.3509886e-38
-0.051619884 0.10761434 0.99800003 2.3509886e-38
-0.06911815 0.11111399 0.99800003 2.3509886e-38
-0.067368321 0.11111399 0.99800003 2.3509886e-38
-0.062118851 0.10936417 0.99800003 2.3509886e-38
-0.058619194 0.10936416 0.99800003 2.3509886e-38
-0.053952988 0.10994744 0.99800003 2.3509886e-38
-0.049870059 0.11023907 0.99800009 2.3509886e-38
-0.069993064 0.11373873 0.99800003 2.3509886e-38
-0.048120234 0.11286382 0.99800003 2.3509886e-38
-0.045495495 0.11286382 0.99800003 2.3509886e-38
-0.041995838 0.11461364 0.99800003 2.3509886e-38
-0.081366941 0.11986312 0.99800003 2.3509886e-38
-0.077429831 0.11942567 0.99800003 2.3509886e-38
-0.073317736 0.11846327 0.99800009 2.3509886e-38
-0.070867978 0.11636347 0.99800003 2.3509886e-38
-0.041558385 0.11767584 0.99800003 2.3509886e-38
-0.039371099 0.11986312 0.99800003 2.3509886e-38
-0.077867292 0.12161295 0.99800003 2.3509886e-38
-0.074367635 0.12161295 0.99800003 2.3509886e-38
-0.041120928 0.12161295 0.99800003 2.3509886e-38
-0.038496189 0.12248787 0.99800003 2.3509886e-38
-0.037621275 0.12511261 0.99800003 2.3509886e-38
-0.034559075 0.12642498 0.99800003 2.1020604e-38
-0.030621966 0.12686244 0.99800003 5.8089539e-39
-0.06493821 0.111448 1.001 2.3509886e-38
-0.061428033 0.111448 1.001 2.3509886e-38
-0.057625346 0.11086297 1.0010002 2.3509886e-38
-0.05528523 0.111448 1.001 2.3509886e-38
-0.06624461 0.11404188 1.0022 2.3509886e-38
-0.061612125 0.11354235 1.0039999 2.3509886e-38
-0.058048699 0.11433771 1.00325 2.3509886e-38
-0.054449107 0.11416677 1.00175 2.3509886e-38
-0.050370991 0.11425614 1.001 2.3509886e-38
-0.045632251 0.11495818 1.001 2.3509886e-38
-0.069980204 0.11800167 1.0020001 2.3509886e-38
-0.067570835 0.11671327 1.001 2.3509886e-38
-0.054570742 0.11706305 1.0039999 2.3509886e-38
-0.050145768 0.11788492 1.0034999 2.3509886e-38
-0.045632251 0.11759081 1.001 2.3509886e-38
-0.042999625 0.11846835 1.001 2.3509886e-38
-0.081611529 0.12285607 1.001 2.3509886e-38
-0.078101359 0.12373361 1.0010002 2.3509886e-38
-0.073421128 0.12314858 1.0010002 2.3509886e-38
-0.070636243 0.12105042 1.003 2.3509886e-38
-0.048409529 0.12146391 1.0039999 2.3509886e-38
-0.045667101 0.12119237 1.00175 2.3509886e-38
-0.042414598 0.12197852 1.0010002 2.3509886e-38
-0.039489452 0.12373361 1.001 2.3509886e-38
-0.077842914 0.12634327 1.0022 2.3509886e-38
-0.073878668 0.12665093 1.0032499 2.3509886e-38
-0.071294032 0.12410443 1.0039999 2.3509886e-38
-0.044888835 0.12586477 1.0039999 2.3509886e-38
-0.042374909 0.12606536 1.0028 2.3509886e-38
-0.038904425 0.12665877 1.0010002 2.3509886e-38
-0.077455245 0.13026565 1.0039999 2.3509856e-38
-0.073934555 0.13026565 1.0039999 2.3509886e-38
-0.048409529 0.13114582 1.0039999 2.3509886e-38
-0.045475617 0.13055906 1.0039999 2.3509886e-38
-0.042217415 0.130169 1.0032499 2.3509886e-38
-0.038669765 0.13007234 1.0025001 2.3509886e-38
-0.077455245 0.13378634 1.0039999 1.1789422e-38
-0.073934555 0.13378634 1.0039999 2.3506572e-38
-0.050169878 0.13378634 1.0039999 2.3509886e-38
-0.04576901 0.13378634 1.0039999 2.3509886e-38
-0.042248316 0.13290615 1.0039999 2.203513e-38
-0.060731951 0.1381872 1.0039999 2.2579976e-38
-0.05897161 0.1381872 1.0039999 2.1296815e-38
-0.054570742 0.13730702 1.0039999 2.092875e-38
-0.05119003 0.13660425 1.0010002 1.7890261e-38
-0.064444639 0.11564723 1.007 2.3509886e-38
-0.061796229 0.11564723 1.007 2.3509886e-38
-0.066210248 0.11800137 1.007 2.3509886e-38
-0.060913429 0.11741284 1.007 2.3509886e-38
-0.057970747 0.11800137 1.007 2.3509886e-38
-0.054733805 0.11917844 1.007 2.3509886e-38
-0.069741458 0.12270965 1.007 2.3509886e-38
-0.067975856 0.12182686 1.007 2.3509886e-38
-0.052673928 0.12153259 1.007 2.3509886e-38
-0.050319787 0.12182686 1.007 2.3509886e-38
-0.070624262 0.12535806 1.007 2.3509886e-38
-0.067975856 0.12447526 1.007 2.3509886e-38
-0.048554178 0.12535806 1.007 2.3509886e-38
-0.046788573 0.12535806 1.007 2.3509886e-38
-0.071507066 0.12977208 1.007 2.3509886e-38
-0.049142715 0.1297721 1.007 2.3509886e-38
-0.046788573 0.12888928 1.007 2.3509886e-38
-0.071507066 0.13330328 1.007 2.3509886e-38
-0.057382215 0.13506891 1.007 2.3509886e-38
-0.054733805 0.13418609 1.007 2.3509886e-38
-0.057970747 0.13742304 1.007 2.2403532e-38
-0.06552206 0.1195335 1.01 2.3509886e-38
-0.062275477 0.11894321 1.01 2.3509886e-38
-0.05932403 0.1195335 1.01 2.3509886e-38
-0.06552206 0.12218979 1.01 2.3509886e-38
-0.061980329 0.12218979 1.01 2.3509886e-38
-0.058438599 0.12218979 1.01 2.3509886e-38
-0.055192009 0.12248494 1.01 2.3509886e-38
-0.069063798 0.12661695 1.01 2.3509886e-38
-0.06552206 0.12573153 1.01 2.3509886e-38
-0.061980329 0.1248461 1.01 2.3509886e-38
-0.058438599 0.1248461 1.01 2.3509886e-38
-0.053568717 0.12528881 1.01 2.3509886e-38
-0.050469697 0.12573153 1.01 2.3509886e-38
-0.069443271 0.13015869 1.0100001 2.3509886e-38
-0.065964773 0.13060142 1.01 2.3509886e-38
-0.058438599 0.13192956 1.01 2.3509886e-38
-0.052240565 0.13015869 1.01 2.3509886e-38
-0.050469697 0.12927327 1.01 2.3509886e-38
-0.069595061 0.13476294 1.0100001 2.3509886e-38
-0.06552206 0.13458586 1.01 2.3509886e-38
-0.061980329 0.13458586 1.01 2.3509886e-38
-0.058733743 0.13429072 1.01 2.3509886e-38
-0.073490962 0.13724217 1.01 7.8221601e-39
-0.069949232 0.13724217 1.01 1.4742964e-38
-0.065226912 0.13783246 1.01 2.2397632e-38
-0.062275477 0.13783246 1.01 2.2585038e-38
-0.062164433 0.12699306 1.013 2.3509886e-38
-0.058612179 0.12699306 1.013 2.3509886e-38
-0.055059925 0.12699306 1.013 2.3509886e-38
-0.064828619 0.12965724 1.013 2.3509886e-38
-0.062164433 0.12965724 1.013 2.3509886e-38
-0.058612179 0.12965724 1.013 2.3509886e-38
-0.055059925 0.12965724 1.013 2.3509886e-38
-0.062164433 0.13232143 1.013 2.3509886e-38
-0.055059925 0.13232143 1.013 2.3509886e-38
