# .PCD v0.7 - Point Cloud Data file format
VERSION 0.7
FIELDS x y z rgb
SIZE 4 4 4 4
TYPE F F F F
COUNT 1 1 1 1
WIDTH 447
HEIGHT 1
VIEWPOINT 0 0 0 1 0 0 0
POINTS 447
DATA ascii
-0.080614761 0.12964848 0.94800001 1.9095166e-38
-0.078121513 0.12964848 0.94800001 1.753109e-38
-0.074797198 0.12964848 0.94800001 1.5135111e-38
-0.049864799 0.13047956 0.94800001 2.3509886e-38
-0.046442293 0.13103361 0.94599998 1.1708845e-38
-0.074797198 0.13214171 0.94800001 8.7714754e-39
-0.052358039 0.13297279 0.94800001 0
-0.050141826 0.13269576 0.94800007 0
-0.084204704 0.13089246 0.95099998 1.5315566e-38
-0.082537279 0.13089246 0.95099998 1.7160161e-38
-0.072532766 0.13005875 0.95099998 1.3198975e-38
-0.061694533 0.13005875 0.95099998 8.6645045e-39
-0.058359694 0.13089246 0.95099998 1.9897872e-38
-0.055024855 0.13089246 0.95099998 2.3508079e-38
-0.041685499 0.13089246 0.95099998 1.8537805e-38
-0.039184365 0.13089246 0.95099998 3.8163915e-39
-0.084204704 0.13255988 0.95099998 1.5409956e-38
-0.081703573 0.13422731 0.95100009 1.4581898e-38
-0.078535482 0.13389382 0.95100003 1.531484e-38
-0.074200191 0.13367149 0.95099998 5.9170276e-39
-0.058359694 0.13339359 0.95099998 1.0162889e-39
-0.05452463 0.13389382 0.95100003 1.7506212e-39
-0.050022595 0.13506101 0.95099998 2.5861201e-39
-0.046687756 0.13506101 0.95099998 2.2198544e-39
-0.041685499 0.13255988 0.95099998 1.0761972e-41
-0.039184365 0.13255988 0.95099998 2.3317606e-41
-0.080869861 0.13756214 0.95099998 1.070682e-38
-0.079202451 0.13756214 0.95099998 8.4051283e-39
-0.089206964 0.1425644 0.95099998 7.9316772e-39
-0.085872129 0.1425644 0.95099998 6.1864006e-39
-0.089206964 0.14423183 0.95099998 8.3905058e-39
-0.085538641 0.1448988 0.95100003 5.6324757e-39
-0.022581179 0.11959662 0.954 0
-0.032685637 0.12319972 0.95599997 2.3509886e-38
-0.029891994 0.12264099 0.95600003 2.3509886e-38
-0.025926542 0.12210564 0.954 1.1617721e-38
-0.022581179 0.12210564 0.954 2.8630924e-39
-0.077110551 0.12695642 0.954 1.688791e-38
-0.073597923 0.12628734 0.954 1.3196113e-38
-0.070252553 0.12712368 0.954 7.7522241e-39
-0.066907197 0.12796003 0.954 1.4842667e-38
-0.036038011 0.12655209 0.95599997 2.3509886e-38
-0.033523731 0.125714 0.95599997 2.2956353e-38
-0.03012928 0.12637442 0.95466661 1.0051466e-38
-0.025944656 0.12637442 0.95466667 3.7853752e-39
-0.022581179 0.12796003 0.954 9.3106796e-39
-0.086143017 0.13130538 0.954 7.8477212e-39
-0.070252553 0.13046904 0.954 5.2737742e-39
-0.066070855 0.13046905 0.954 2.6804499e-39
-0.037102871 0.12972212 0.95466661 1.1529543e-38
-0.034124464 0.1300112 0.95524997 5.1758752e-39
-0.03010824 0.13046904 0.954 2.5968723e-39
-0.025963359 0.13065198 0.95533335 6.8281869e-39
-0.022604849 0.13060668 0.95499998 9.4014305e-39
-0.086551189 0.13409387 0.95480007 1.1902902e-38
-0.07276158 0.13465072 0.954 3.9460565e-40
-0.070288941 0.13388497 0.95449996 9.4240545e-40
-0.066140115 0.13395554 0.95500004 3.9772956e-39
-0.061889157 0.13381439 0.954 2.3149002e-39
-0.044326019 0.13381439 0.954 3.2285917e-42
-0.041816995 0.13465072 0.954 4.792693e-40
-0.038192861 0.13409317 0.954 2.600824e-39
-0.034312736 0.1339079 0.95466661 4.3471529e-39
-0.03010824 0.13381439 0.954 4.8027501e-39
-0.02598089 0.13409492 0.95599997 7.6554533e-39
-0.090157449 0.13833062 0.954 8.3930295e-39
-0.086143017 0.13799606 0.95400006 1.1164548e-38
-0.082240097 0.13911121 0.954 1.0614603e-38
-0.077500843 0.13799609 0.954 9.5086284e-39
-0.073674187 0.13646629 0.95499998 5.3649566e-39
-0.070399836 0.1366092 0.95599997 2.047688e-39
-0.066209368 0.1366092 0.95600003 3.8836665e-39
-0.062018897 0.1374473 0.95599997 4.157015e-39
-0.057788108 0.13819012 0.95533329 4.8020046e-39
-0.053737916 0.13844775 0.95479995 5.2629926e-39
-0.050055213 0.13844776 0.95479995 4.9871316e-39
-0.045814347 0.13864082 0.95514286 5.3555567e-39
-0.041846216 0.1380937 0.95466661 4.8978184e-39
-0.037893258 0.13838729 0.95524997 4.8041864e-39
-0.033872142 0.13800511 0.95571429 4.3407028e-39
-0.030171357 0.1382854 0.95599997 6.9185973e-39
-0.08948838 0.14134145 0.954 7.9316772e-39
-0.086143017 0.14134145 0.954 7.8477086e-39
-0.082003832 0.14225274 0.95449996 1.0246562e-38
-0.079618864 0.14163776 0.95599997 1.3104294e-38
-0.052799877 0.14163776 0.95599997 4.8030976e-39
-0.05112369 0.14163776 0.95599997 4.9874889e-39
-0.08235465 0.14544776 0.95533335 9.4099462e-39
-0.068939313 0.13871935 0.95899999 3.3366374e-39
-0.065576419 0.13871935 0.95899999 3.7885744e-39
-0.027183387 0.1375984 0.95899999 8.2071977e-39
-0.078187265 0.14208223 0.95899999 1.3104294e-38
-0.062213525 0.1404008 0.95899999 3.8789889e-39
-0.058009908 0.14208224 0.95899999 4.2502854e-39
-0.054647014 0.14208223 0.95899999 4.8027473e-39
-0.049602676 0.14208223 0.95899999 4.8952961e-39
-0.046239778 0.14208224 0.95899999 5.3548547e-39
-0.042036165 0.14208223 0.95899999 4.2524644e-39
-0.037832551 0.14208224 0.95899999 4.4332571e-39
-0.033628933 0.14292295 0.95899999 4.7055434e-39
-0.031106761 0.14292295 0.95899999 7.5618143e-39
-0.033628933 0.14544512 0.95899999 4.2402423e-39
-0.031106761 0.14544512 0.95899999 7.3734475e-39
-0.084913053 0.14880802 0.95899999 6.1845859e-39
-0.083231606 0.14880802 0.95899999 5.8197733e-39
-0.075058445 0.13915329 0.96200001 8.2183044e-39
-0.071685031 0.13915329 0.96200001 5.7314985e-39
-0.070143849 0.1411328 0.96399999 7.6643781e-39
-0.065849937 0.14183152 0.963 2.864837e-39
-0.062408142 0.14252672 0.96200001 3.6031125e-39
-0.080665171 0.14654928 0.96350002 1.1440429e-38
-0.078594916 0.14451323 0.96399999 1.2270554e-38
-0.065073207 0.14451323 0.96399999 3.4151788e-39
-0.061692782 0.14451323 0.96399999 3.5087645e-39
-0.057348028 0.14421341 0.96200001 4.0640977e-39
-0.05403072 0.14520843 0.963 4.2474113e-39
-0.049826808 0.1461035 0.96333325 4.7091083e-39
-0.045604199 0.1461035 0.96333331 4.0648502e-39
-0.042226113 0.1461035 0.96333331 3.7875346e-39
-0.037986744 0.1460357 0.96288884 2.9545565e-39
-0.033734135 0.14758684 0.96200001 3.3183238e-39
-0.085355766 0.15127409 0.96399999 7.1934101e-39
-0.081975341 0.15042898 0.96399999 8.3983853e-39
-0.045354061 0.15014727 0.96399999 1.941855e-39
-0.042255331 0.15042898 0.96399999 1.2936171e-39
-0.038004667 0.14948043 0.96333331 1.5655194e-39
-0.034577485 0.14927353 0.96200001 4.0504938e-39
-0.085355766 0.15296429 0.96399999 8.0188562e-39
-0.082820445 0.1538094 0.96399999 8.2054111e-39
-0.073753081 0.13987654 0.96700001 7.2988256e-39
-0.077144034 0.1432675 0.96700001 1.1539525e-38
-0.073753089 0.14213717 0.96700001 1.0524594e-38
-0.069514409 0.1432675 0.96700001 5.4513985e-39
-0.077991769 0.14581069 0.96700001 1.2548971e-38
-0.069514409 0.14496297 0.96700001 6.0848849e-39
-0.066123456 0.14581069 0.96700001 5.5317238e-40
-0.061884776 0.14665845 0.96700001 4.0583411e-39
-0.057646088 0.14665844 0.96700001 3.7846437e-39
-0.08053498 0.15174486 0.96700001 7.472843e-39
-0.078161322 0.15038848 0.96700001 7.5686022e-39
-0.07409218 0.15106666 0.96700001 2.7658549e-40
-0.053972568 0.14891908 0.96700001 3.693897e-39
-0.049677365 0.15072757 0.96700001 2.5872117e-39
-0.046625517 0.15174486 0.96700001 2.8964839e-42
-0.038995884 0.15174486 0.96700001 9.1982632e-40
-0.08053498 0.15428807 0.96700001 8.6649277e-39
-0.077991769 0.15428807 0.96700001 7.2823603e-39
-0.073753089 0.15344034 0.96700001 1.8438986e-40
-0.045777779 0.15344034 0.96700001 0
-0.04238683 0.15344034 0.96700001 0
-0.038995884 0.15344034 0.96700001 8.2832154e-40
-0.018708067 0.11054767 0.97000003 9.3089e-39
-0.018708067 0.11309877 0.97000003 1.2692369e-38
-0.074832261 0.14371197 0.97000003 1.1171451e-38
-0.077383369 0.14711343 0.97000003 1.5034327e-38
-0.073556714 0.14668824 0.97000003 1.2358784e-38
-0.069730058 0.14711343 0.97000003 7.2798618e-39
-0.067178965 0.14711343 0.97000003 0
-0.077383369 0.14881416 0.97000003 7.0165719e-39
-0.073556714 0.14923933 0.97000003 6.8152711e-39
-0.07058043 0.14966452 0.97000003 1.271615e-38
-0.065478235 0.14881416 0.97000003 0
-0.06207677 0.14881417 0.97000003 3.1381911e-39
-0.057824932 0.14881416 0.97000003 3.6938872e-39
-0.055273835 0.1505149 0.97000003 3.6013749e-39
-0.074832261 0.1556171 0.97000003 0
-0.04974645 0.15391636 0.97000003 7.3791676e-40
-0.046770167 0.1556171 0.97000003 0
-0.022201583 0.11100353 0.97399998 2.2034756e-38
-0.022201583 0.11356515 0.97399998 1.7332778e-38
-0.077622689 0.14245044 0.97299999 1.2274171e-38
-0.075063705 0.14586242 0.97299999 1.3007805e-38
-0.069234744 0.15043598 0.97500002 9.1835496e-41
-0.066910408 0.15061747 0.97433341 0
-0.062268756 0.1509804 0.97299999 3.0449235e-39
-0.058003772 0.1509804 0.97299999 3.2336503e-39
-0.060687248 0.15300025 0.97500002 2.4932056e-39
-0.058123 0.15300025 0.97500002 8.3334379e-40
-0.054102778 0.15377346 0.97340006 9.3631961e-41
-0.050430249 0.15641925 0.97500002 0
-0.028293537 0.094311789 0.97799999 1.9178492e-38
-0.025721397 0.094311796 0.97799999 5.1813571e-39
-0.023149259 0.095169172 0.97799999 1.6552137e-41
-0.081451103 0.10202821 0.97800004 4.4325691e-39
-0.078021578 0.10202821 0.97799999 2.1022039e-38
-0.074592054 0.10288559 0.97799999 2.3509886e-38
-0.081451096 0.10631511 0.97799999 8.4787932e-39
-0.078021578 0.10631512 0.97800004 2.3509886e-38
-0.074592054 0.10545773 0.97799999 2.3509886e-38
-0.081451096 0.10974464 0.97799999 1.170492e-38
-0.078021578 0.10974464 0.97800004 2.3509886e-38
-0.024864018 0.10974464 0.97799999 2.3509886e-38
-0.02229188 0.10888726 0.97799999 2.2495734e-38
-0.019719739 0.10888726 0.97799999 9.7709795e-39
-0.078021586 0.11317416 0.97800004 2.3509886e-38
-0.024864018 0.11231677 0.97799999 2.3509886e-38
-0.064303495 0.15347101 0.97799999 3.8743268e-39
-0.062588736 0.15347101 0.97799999 3.8743268e-39
-0.058301836 0.15518576 0.97799999 3.5873241e-43
-0.054014936 0.15690053 0.97800004 0
-0.070736483 0.095753044 0.98400003 2.3509886e-38
-0.030960359 0.094601095 0.98100001 2.3509886e-38
-0.076540887 0.098901145 0.98100001 2.3509886e-38
-0.073960856 0.098041132 0.98100001 2.3509886e-38
-0.070736483 0.098340958 0.98400003 2.3509886e-38
-0.030163473 0.098241016 0.98300004 2.3509886e-38
-0.025800299 0.098041132 0.98100001 2.0099366e-38
-0.023220269 0.098041132 0.98100001 6.0946954e-39
-0.073674187 0.1011945 0.98100007 2.3509881e-38
-0.070627332 0.10163634 0.98250002 2.3509883e-38
-0.030177936 0.10174024 0.98350012 2.3509884e-38
-0.025820682 0.10155942 0.98175001 2.3509886e-38
-0.022668846 0.10187217 0.98200005 1.6042774e-38
-0.073530853 0.10621123 0.98100001 2.3509884e-38
-0.070778035 0.10556557 0.98220009 2.3509886e-38
-0.029955043 0.10580884 0.98325008 2.3509884e-38
-0.025800299 0.10578123 0.98100007 2.3509886e-38
-0.022360258 0.10578122 0.98100007 1.8900104e-38
-0.01978023 0.10750125 0.98100001 7.8327035e-39
-0.074072629 0.11024959 0.98250002 2.3509886e-38
-0.071599118 0.11041792 0.98400003 2.3509886e-38
-0.02932976 0.11041792 0.98400003 2.3509886e-38
-0.026660308 0.11008128 0.98100001 2.3509881e-38
-0.07418704 0.11386848 0.98400003 2.3509886e-38
-0.071599118 0.11386848 0.98400003 2.3509886e-38
-0.028467119 0.11300584 0.98400003 2.3509886e-38
-0.02613957 0.11404119 0.98300004 2.3509886e-38
-0.07418704 0.11645639 0.98400003 2.3509886e-38
-0.061060708 0.15566181 0.98100001 1.3861714e-39
-0.05848068 0.15738182 0.98100001 2.8025969e-45
-0.049880579 0.15910184 0.98100001 9.1835496e-41
-0.068356328 0.094314426 0.98699999 2.3509886e-38
-0.065760523 0.09344916 0.98699999 2.3509886e-38
-0.033745527 0.093737587 0.98699999 2.3509886e-38
-0.030284448 0.092583887 0.98699999 1.798536e-38
-0.068356328 0.097775511 0.98699999 2.3509886e-38
-0.06604895 0.096621811 0.98699999 2.3509886e-38
-0.03417816 0.097342864 0.98699999 2.3509886e-38
-0.068356328 0.10210185 0.98699999 2.3509886e-38
-0.066625789 0.10210185 0.98699999 2.3509886e-38
-0.033745527 0.10210185 0.98699999 2.3509886e-38
-0.068356328 0.10556294 0.98699999 2.3509886e-38
-0.066625789 0.10469767 0.98699999 2.3509886e-38
-0.033745527 0.10556294 0.98699999 2.3509886e-38
-0.083931185 0.10902402 0.98699999 5.1604259e-39
-0.070086867 0.10988929 0.98699999 2.3509886e-38
-0.032447621 0.10945664 0.98699999 2.3509886e-38
-0.029419178 0.11421563 0.98699999 2.3509886e-38
-0.077874303 0.11681144 0.98699999 2.3509886e-38
-0.071817406 0.11681144 0.98699999 2.3509886e-38
-0.025958098 0.11767671 0.98699999 2.3509886e-38
-0.022497017 0.11767671 0.98699999 1.548922e-38
-0.061558656 0.087569356 0.98900002 1.3174951e-38
-0.057657052 0.087135844 0.98900002 1.9995997e-38
-0.053755447 0.086702332 0.98900002 2.1201731e-38
-0.05043989 0.086965337 0.99199998 2.1110996e-38
-0.045221969 0.087834984 0.99199998 2.1665986e-38
-0.065026753 0.091037445 0.98900002 2.3509886e-38
-0.06242568 0.090170428 0.98900002 2.3509859e-38
-0.058090564 0.090170428 0.98900002 2.3509886e-38
-0.053755447 0.090170428 0.98900002 2.3509886e-38
-0.05043989 0.090443939 0.99199998 2.3509886e-38
-0.046091627 0.090443939 0.99200004 2.3509886e-38
-0.042613011 0.090443939 0.99199998 2.3509886e-38
-0.038208202 0.091175519 0.99049997 2.3509886e-38
-0.035547953 0.091037445 0.98900002 2.2956712e-38
-0.06242568 0.093638517 0.98900002 2.3509886e-38
-0.058206283 0.093827873 0.99100006 2.3509886e-38
-0.053755447 0.093638524 0.98900002 2.3509886e-38
-0.05043989 0.093922555 0.99199998 2.3509886e-38
-0.045221969 0.09479221 0.99199998 2.3509886e-38
-0.04174336 0.09479221 0.99199998 2.3509886e-38
-0.038178615 0.093708873 0.98975003 2.3509886e-38
-0.034680933 0.0927715 0.98900002 2.3509886e-38
-0.065604769 0.099129662 0.98900002 2.3509886e-38
-0.062425673 0.097973637 0.98900002 2.3509886e-38
-0.058206283 0.097302988 0.99100006 2.3509886e-38
-0.053918503 0.097401172 0.99199998 2.3509886e-38
-0.05043989 0.096531518 0.99199998 2.3509886e-38
-0.045221973 0.097401172 0.99199998 2.3509886e-38
-0.04174336 0.097401172 0.99199998 2.3509886e-38
-0.03797562 0.097626828 0.98900002 2.3509886e-38
-0.035547953 0.098840654 0.98900002 2.3509886e-38
-0.065026753 0.10230875 0.98900002 2.3509886e-38
-0.061681386 0.10193588 0.99100006 2.3509884e-38
-0.057397112 0.10001013 0.99199998 2.3509886e-38
-0.053918503 0.10001013 0.99199998 2.3509886e-38
-0.040873706 0.10001013 0.99199998 2.3509886e-38
-0.038416058 0.10203576 0.99139994 2.3509886e-38
-0.035547953 0.10230875 0.98900002 2.3509886e-38
-0.065604769 0.10606585 0.98900002 2.3509886e-38
-0.062519044 0.10593727 0.99050003 2.3509886e-38
-0.03739509 0.1060977 0.99199998 2.3509886e-38
-0.035547953 0.10577685 0.98900002 2.3509886e-38
-0.068494841 0.11011197 0.98900002 2.3509886e-38
-0.066250287 0.10906726 0.99000001 2.3509886e-38
-0.063484691 0.10870666 0.99199998 2.3509886e-38
-0.03739509 0.10870666 0.99199998 2.3509886e-38
-0.034707889 0.11019546 0.98975003 2.3509886e-38
-0.069519006 0.1147081 0.99125004 2.3509886e-38
-0.0669633 0.11218527 0.99199998 2.3509886e-38
-0.033431683 0.11375231 0.99050003 2.3509886e-38
-0.030345816 0.1153141 0.98900002 2.3509886e-38
-0.029501805 0.11800525 0.98975003 2.3509886e-38
-0.047975581 0.086356044 0.995 1.7421049e-38
-0.047975581 0.088100612 0.995 2.2401387e-38
-0.040997315 0.091589741 0.995 2.3509886e-38
-0.046667159 0.093770459 0.995 2.3509886e-38
-0.041869599 0.093334317 0.995 2.3509886e-38
-0.050592434 0.098568007 0.995 2.3509886e-38
-0.047975581 0.097695723 0.995 2.3509886e-38
-0.060187545 0.10380171 0.995 2.3509886e-38
-0.057570696 0.10292943 0.995 2.3509886e-38
-0.054081567 0.10292943 0.995 2.3509886e-38
-0.050592434 0.10205715 0.995 2.3509886e-38
-0.046231017 0.10205715 0.995 2.3509886e-38
-0.042044055 0.10240606 0.995 2.3509886e-38
-0.060187545 0.10641856 0.995 2.3509886e-38
-0.05844298 0.10641856 0.995 2.3509886e-38
-0.045358732 0.10641856 0.995 2.3509886e-38
-0.041869599 0.10641856 0.995 2.3509886e-38
-0.039252751 0.10641856 0.995 2.3509886e-38
-0.065421246 0.11077998 0.995 2.3509886e-38
-0.062804401 0.10990769 0.995 2.3509886e-38
-0.045358732 0.10903541 0.995 2.3509886e-38
-0.041869599 0.10903541 0.995 2.3509886e-38
-0.038671229 0.11019846 0.99500006 2.3509886e-38
-0.06629353 0.11339682 0.995 2.3509886e-38
-0.037508182 0.11252454 0.995 2.3509886e-38
-0.032274481 0.11775824 0.995 2.3509886e-38
-0.028785348 0.12124739 0.995 2.3509886e-38
-0.026168499 0.12124739 0.995 2.3509886e-38
-0.023551648 0.12124739 0.995 2.3509653e-38
-0.046370406 0.086616419 0.99800003 1.4747017e-38
-0.041120928 0.089241162 0.99800003 1.5677242e-38
-0.039371099 0.089241162 0.99800003 1.3464547e-38
-0.056869365 0.10673942 0.99800003 2.3509886e-38
-0.054244623 0.10673942 0.99800003 2.3509886e-38
-0.049870059 0.10673943 0.99800009 2.3509886e-38
-0.060952298 0.11053072 0.99800003 2.3509886e-38
-0.058035921 0.10994744 0.99800003 2.3509886e-38
-0.054244623 0.11023907 0.99800003 2.3509886e-38
-0.049870059 0.11023907 0.99800009 2.3509886e-38
-0.045495495 0.11111399 0.99800003 2.3509886e-38
-0.041995838 0.11111399 0.99800003 2.3509886e-38
-0.065618493 0.11461364 0.99800003 2.3509886e-38
-0.063868672 0.11286382 0.99800003 2.3509886e-38
-0.045495495 0.11286382 0.99800003 2.3509886e-38
-0.041995838 0.11286382 0.99800003 2.3509886e-38
-0.038496189 0.11373873 0.99800003 2.3509886e-38
-0.035871446 0.11461364 0.99800003 2.3509886e-38
-0.069993064 0.1181133 0.99800003 2.3509886e-38
-0.067368321 0.11636347 0.99800003 2.3509886e-38
-0.034413256 0.1181133 0.99800009 2.3509886e-38
-0.032955069 0.12219623 0.99800003 2.3509886e-38
-0.030038692 0.12277951 0.99800003 2.3509886e-38
-0.026247401 0.12336278 0.99800003 2.3141103e-38
-0.02362266 0.12336278 0.99800003 1.8620178e-38
-0.057040315 0.111448 1.001 2.3509886e-38
-0.064060666 0.11495818 1.001 2.3509886e-38
-0.061428037 0.11408064 1.001 2.3509886e-38
-0.057917859 0.11408064 1.001 2.3509886e-38
-0.054407686 0.11408064 1.001 2.3509886e-38
-0.050019972 0.11408065 1.001 2.3509886e-38
-0.045632251 0.11495818 1.001 2.3509886e-38
-0.042122081 0.11495818 1.001 2.3509886e-38
-0.039489452 0.11495818 1.001 2.3509886e-38
-0.065542571 0.11790834 1.0022 2.3509886e-38
-0.061520081 0.11776833 1.0025001 2.3509886e-38
-0.058004647 0.11776832 1.0025001 2.3509886e-38
-0.054570742 0.11794321 1.0039999 2.3509886e-38
-0.050521947 0.11776718 1.0039999 2.3509886e-38
-0.04576901 0.11706305 1.0039999 2.3509886e-38
-0.042217415 0.11785577 1.00325 2.3509886e-38
-0.038611908 0.11759081 1.001 2.3509886e-38
-0.076346271 0.12022344 1.001 2.3509886e-38
-0.072836094 0.12197852 1.0010002 2.3509886e-38
-0.070203468 0.12197854 1.001 2.3509886e-38
-0.066842541 0.12137383 1.00325 2.3509886e-38
-0.060731951 0.12058374 1.0039999 2.3509886e-38
-0.05897161 0.12058374 1.0039999 2.3509886e-38
-0.041954927 0.12117052 1.0039999 2.3509886e-38
-0.03867108 0.12128245 1.0025001 2.3509886e-38
-0.035540503 0.12241729 1.001 2.3509886e-38
-0.073054381 0.12586477 1.0039999 2.3509886e-38
-0.070120469 0.12645157 1.0039999 2.3509886e-38
-0.067333251 0.1254247 1.0039999 2.3509886e-38
-0.036967278 0.12586477 1.0039999 2.3509886e-38
-0.03337229 0.12646157 1.00175 2.3509886e-38
-0.029836472 0.1254887 1.001 2.3509886e-38
-0.026326301 0.1254887 1.001 1.6687766e-38
-0.048554178 0.11917844 1.007 2.3509886e-38
-0.045905769 0.11917844 1.007 2.3509886e-38
-0.064444639 0.12182686 1.007 2.3509886e-38
-0.062090497 0.12212112 1.007 2.3509886e-38
-0.057970747 0.12212112 1.007 2.3509886e-38
-0.053851001 0.12094405 1.007 2.3509886e-38
-0.049436983 0.12094405 1.007 2.3509886e-38
-0.045905769 0.12182686 1.007 2.3509886e-38
-0.043257359 0.12270965 1.007 2.3509886e-38
-0.065033168 0.12565234 1.007 2.3509886e-38
-0.061796229 0.12535806 1.007 2.3509886e-38
-0.059147816 0.12447526 1.007 2.3509886e-38
-0.042080294 0.12506381 1.007 2.3509886e-38
-0.039726146 0.12535806 1.007 2.3509886e-38
-0.073272668 0.12977208 1.007 2.3509862e-38
-0.070800826 0.13012521 1.007 2.3509877e-38
-0.065989539 0.12999278 1.007 2.3509886e-38
-0.061796229 0.12977208 1.007 2.3509886e-38
-0.037519138 0.12977208 1.007 2.3509886e-38
-0.069741458 0.13330328 1.007 2.3509813e-38
-0.06585712 0.13400953 1.007 2.3509874e-38
-0.06267903 0.13330328 1.007 2.3509886e-38
-0.054011434 0.12307523 1.01 2.3509886e-38
-0.049584262 0.12307522 1.01 2.3509886e-38
-0.058143452 0.12602668 1.01 2.3509886e-38
-0.055192009 0.1254364 1.01 2.3509886e-38
-0.048698831 0.12573153 1.01 2.3509886e-38
-0.046042528 0.12573153 1.01 2.3509886e-38
-0.043386228 0.12661695 1.01 2.3509886e-38
-0.073490962 0.13015869 1.01 2.3509886e-38
-0.058438599 0.13015869 1.0100001 2.3509886e-38
-0.055782299 0.12838782 1.01 2.3509886e-38
-0.045599818 0.13060141 1.01 2.3509886e-38
-0.042500801 0.13015869 1.0100001 2.3509886e-38
-0.039844498 0.13015869 1.01 2.3509886e-38
-0.069949225 0.13458586 1.01 2.2310116e-38
-0.061685186 0.134881 1.01 2.3509886e-38
-0.058438599 0.13458586 1.01 2.3509886e-38
-0.054011434 0.13547131 1.01 2.3509886e-38
-0.046042532 0.13458586 1.01 2.3509886e-38
-0.042500794 0.13458586 1.01 2.3509886e-38
-0.039844498 0.13458586 1.01 2.3509886e-38
-0.061980329 0.13724217 1.01 2.3509736e-38
-0.058438599 0.13724217 1.01 2.3509886e-38
-0.054454152 0.13768488 1.01 2.3509886e-38
-0.046927962 0.13901302 1.01 2.3509886e-38
-0.042500798 0.13724217 1.01 1.8717209e-38
-0.052987777 0.12640102 1.013 2.3509886e-38
-0.05061961 0.126105 1.013 2.3509886e-38
-0.053816635 0.12983485 1.013 2.3509886e-38
-0.049731545 0.12965724 1.013 2.3509886e-38
-0.047067355 0.12965724 1.013 2.3509886e-38
-0.05417186 0.13320951 1.013 2.3509886e-38
-0.049731545 0.13409756 1.013 2.3509886e-38
-0.049731545 0.1376498 1.013 2.3509886e-38
-0.046179295 0.1376498 1.013 2.3509886e-38
