# .PCD v0.7 - Point Cloud Data file format
VERSION 0.7
FIELDS x y z rgb
SIZE 4 4 4 4
TYPE F F F F
COUNT 1 1 1 1
WIDTH 428
HEIGHT 1
VIEWPOINT 0 0 0 1 0 0 0
POINTS 428
DATA ascii
-0.072281167 0.12925573 0.97000003 8.3876289e-39
-0.069900133 0.13044624 0.97000009 5.3419193e-39
-0.0461565 0.09487725 0.97500002 2.3509886e-38
-0.042224653 0.094193451 0.97500002 2.3509886e-38
-0.037608996 0.09487725 0.97500002 2.3509886e-38
-0.022223499 0.094022498 0.97500002 1.3573504e-38
-0.052994501 0.098296247 0.97500002 2.3509881e-38
-0.049290583 0.09772642 0.97500008 2.0930232e-38
-0.046156503 0.097441494 0.97500002 1.991496e-38
-0.04188275 0.097270548 0.97500002 2.0467423e-38
-0.037608996 0.097441502 0.97500002 1.9084117e-38
-0.034143247 0.098160654 0.97366667 1.7975595e-38
-0.030574102 0.098214887 0.97420007 1.7054716e-38
-0.025642499 0.098296247 0.97500002 1.7796984e-38
-0.022223499 0.097441502 0.97500002 2.1027766e-38
-0.019659251 0.096586749 0.97500002 9.9870079e-39
-0.058123 0.10342475 0.97500002 2.2588626e-38
-0.053360827 0.10195946 0.97500002 1.8345839e-38
-0.049860418 0.10057559 0.97500008 1.6690632e-38
-0.047011249 0.10000575 0.97500002 1.6868534e-38
-0.036754247 0.10000575 0.97500002 1.6405392e-38
-0.02957435 0.10103144 0.97500002 1.6407182e-38
-0.025642499 0.1008605 0.97500002 1.6867783e-38
-0.022223499 0.10171525 0.97500002 1.8803185e-38
-0.061541997 0.10598899 0.97500002 2.1023429e-38
-0.058123 0.10598899 0.97500002 1.4842377e-38
-0.054703999 0.10513425 0.97500002 1.6038763e-38
-0.069234744 0.12906726 0.97500002 1.2990131e-38
-0.045441139 0.091739655 0.97799999 2.3509886e-38
-0.042011619 0.091739655 0.97800004 2.1489449e-38
-0.037724718 0.090024889 0.97800004 1.7448573e-38
-0.034580991 0.091168068 0.97800004 1.7173079e-38
-0.053157557 0.095169172 0.97799999 1.9193456e-38
-0.049442243 0.094597578 0.97800004 2.350981e-38
-0.046298519 0.093454413 0.97799999 2.3509886e-38
-0.040296856 0.093454413 0.97799999 2.1030281e-38
-0.037724718 0.093454413 0.97799999 2.1030284e-38
-0.034295198 0.094311789 0.97799999 2.2499681e-38
-0.030436989 0.09474048 0.97799999 2.2683355e-38
-0.025435604 0.094597578 0.97800004 1.9465112e-38
-0.057444457 0.098598696 0.97799999 2.0387285e-38
-0.054443628 0.097312629 0.97799999 2.0571035e-38
-0.050585419 0.096883938 0.97799999 2.3509886e-38
-0.029150918 0.096883938 0.97799999 2.3509886e-38
-0.025721397 0.096883938 0.97799999 2.2774458e-38
-0.061559882 0.10237117 0.97799999 1.9558318e-38
-0.058301836 0.10117084 0.97799999 2.1397598e-38
-0.055729698 0.10117084 0.97799999 2.0285178e-38
-0.025721397 0.10374297 0.97799999 1.7420989e-38
-0.018004978 0.10202821 0.97799999 1.9639808e-38
-0.064303495 0.10631511 0.97799999 2.0660733e-38
-0.024864018 0.10631511 0.97799999 1.8251115e-38
-0.02229188 0.10631511 0.97799999 1.7698649e-38
-0.018862359 0.10545773 0.97799999 1.8527334e-38
-0.065675303 0.10991611 0.97799999 2.0565313e-38
-0.062588736 0.10974464 0.97799999 1.4476126e-38
-0.069447778 0.11231677 0.97799999 1.4214945e-38
-0.066018254 0.11231677 0.97800004 1.9180249e-38
-0.03795616 0.087126635 0.98400003 1.8183261e-38
-0.035368241 0.087126635 0.98400003 1.827511e-38
-0.05348368 0.090577193 0.98400003 1.7172355e-38
-0.049170479 0.090577193 0.98400003 1.790777e-38
-0.046512865 0.090439118 0.98250002 2.093843e-38
-0.042140484 0.090301052 0.98100007 1.9469043e-38
-0.034113728 0.089154363 0.98100007 1.7448582e-38
-0.030100351 0.090301052 0.98100007 1.7172366e-38
-0.025879201 0.090577193 0.98400003 1.3942697e-38
-0.057221785 0.094027758 0.98400009 1.6712075e-38
-0.054234982 0.093548223 0.98200005 1.8182911e-38
-0.05021897 0.092688218 0.98200005 2.3509799e-38
-0.047300551 0.09202107 0.98100001 2.3509886e-38
-0.029756343 0.092709079 0.98100007 1.6437714e-38
-0.026114147 0.092688218 0.98200005 1.5880934e-38
-0.023220269 0.09202107 0.98100001 1.1821144e-38
-0.061760288 0.098527692 0.98300004 1.5696499e-38
-0.05882784 0.097853526 0.98200005 1.6342572e-38
-0.01892022 0.098901145 0.98100001 1.614281e-38
-0.065560639 0.10265416 0.98400003 1.4492927e-38
-0.062780723 0.10062116 0.98100001 1.578834e-38
-0.068723649 0.10725491 0.98400009 1.218627e-38
-0.065890707 0.10551034 0.98250002 1.5967713e-38
-0.017630205 0.10707124 0.98100001 1.9083407e-38
-0.014620169 0.10664123 0.98100001 1.9177074e-38
-0.06987384 0.11041792 0.98400003 1.1355844e-38
-0.067940786 0.10922126 0.98100001 1.384247e-38
-0.021566 0.10955527 0.98400003 1.7697577e-38
-0.019840719 0.10955527 0.98400003 1.7330961e-38
-0.068723649 0.12910846 0.98400009 2.1012634e-38
-0.037206605 0.085661724 0.98699999 1.8183261e-38
-0.035476066 0.085661724 0.98699999 1.8183261e-38
-0.029419178 0.087392263 0.98699999 1.3944845e-38
-0.056242548 0.090853348 0.98699999 1.7539331e-38
-0.051050927 0.090853348 0.98699999 1.7540423e-38
-0.045859307 0.089122802 0.98699999 1.7999582e-38
-0.041532956 0.089122802 0.98699999 1.7632226e-38
-0.032014988 0.089122802 0.98699999 1.7632256e-38
-0.029419178 0.089122802 0.98699999 1.615749e-38
-0.025958098 0.089122802 0.98699999 1.1175046e-38
-0.058838356 0.09344916 0.98699999 1.6895395e-38
-0.065760523 0.099506043 0.98699999 1.4955361e-38
-0.062299438 0.096910238 0.98699999 1.6156411e-38
-0.059703626 0.096044965 0.98699999 1.6802496e-38
-0.068933174 0.10239027 0.98699999 1.3384834e-38
-0.065760523 0.10123658 0.98699999 1.4311429e-38
-0.069510028 0.10527452 0.98699999 1.2921358e-38
-0.01297905 0.10642821 0.98699999 1.3186496e-38
-0.071817413 0.10988929 0.98699999 8.4970633e-39
-0.017305398 0.10988928 0.98699999 1.9636212e-38
-0.01384432 0.10902402 0.98699999 1.9453638e-38
-0.066625789 0.13065577 0.98699999 2.3509873e-38
-0.068356328 0.13238631 0.98699999 1.6487741e-38
-0.066625789 0.13238631 0.98699999 2.3509762e-38
-0.049570236 0.087834984 0.99199998 1.7907754e-38
-0.045689061 0.087033011 0.99080002 1.7907752e-38
-0.041680239 0.086832523 0.99049997 1.8275089e-38
-0.039016049 0.085835308 0.98900002 1.8550589e-38
-0.032996856 0.086832516 0.99050003 1.7262423e-38
-0.029478792 0.085835308 0.98900002 1.1636357e-38
-0.026877722 0.087569356 0.98900002 9.1481836e-39
-0.060006075 0.091313593 0.99199998 1.7263823e-38
-0.057628267 0.090062007 0.99100006 1.7263828e-38
-0.053755447 0.089303404 0.98900002 1.7081241e-38
-0.050287351 0.089303404 0.98900002 1.7448566e-38
-0.066093653 0.09479221 0.99199998 1.5230527e-38
-0.062521674 0.09378054 0.99049997 1.6156049e-38
-0.059824612 0.0927715 0.98900002 1.7079426e-38
-0.069314174 0.098497704 0.99080002 1.4028049e-38
-0.065944403 0.097179592 0.98975003 1.4862801e-38
-0.063292697 0.096239582 0.98900002 1.6431895e-38
-0.071384922 0.10201975 0.98900002 1.0706164e-38
-0.071962938 0.10577685 0.98900002 9.5076223e-39
-0.016473442 0.11184601 0.98900002 2.1293228e-38
-0.013583365 0.111268 0.98900002 2.1018085e-38
-0.010837791 0.11054547 0.98900002 9.1266513e-39
-0.02087168 0.11218527 0.99199998 1.8159268e-38
-0.017566996 0.11427244 0.99200004 2.1479403e-38
-0.013894727 0.11462066 0.99050003 2.2955985e-38
-0.01040428 0.11444708 0.98900002 9.5872581e-39
-0.0078032096 0.1153141 0.98900002 1.1800675e-38
-0.013624569 0.11798297 0.99199998 2.2587564e-38
-0.01042006 0.11809532 0.99050003 8.2972409e-39
-0.0078032096 0.11704814 0.98900002 1.1155674e-38
-0.010435839 0.12175146 0.99199998 8.5730852e-39
-0.068494841 0.12745243 0.98900002 2.350987e-38
-0.066760793 0.12745243 0.98900002 2.3509883e-38
-0.0130448 0.12523007 0.99199998 1.5122534e-38
-0.010725725 0.1249402 0.99199998 8.2997086e-39
-0.06567052 0.12989512 0.99000001 2.3509884e-38
-0.065604769 0.13381061 0.98900002 2.350446e-38
-0.038380466 0.082866915 0.995 1.7537888e-38
-0.050592434 0.086356044 0.995 1.7907734e-38
-0.046231017 0.08548376 0.995 1.8366932e-38
-0.041869599 0.084611475 0.995 1.919347e-38
-0.038380466 0.084611475 0.995 1.7724104e-38
-0.034891333 0.084611475 0.995 1.5513602e-38
-0.051464718 0.088100612 0.995 1.7632243e-38
-0.068910383 0.094206601 0.995 1.4211375e-38
-0.06629353 0.093334317 0.995 1.568793e-38
-0.020062516 0.11426912 0.995 2.0004278e-38
-0.020062516 0.11601368 0.995 2.0556719e-38
-0.016573383 0.11863053 0.995 2.3325131e-38
-0.014828817 0.11950281 0.995 2.3509886e-38
-0.013665772 0.12182891 0.99500006 2.1664504e-38
-0.014828817 0.1256088 0.995 1.982206e-38
-0.065421246 0.12822564 0.995 2.3509886e-38
-0.063676685 0.13084251 0.995 2.3509886e-38
-0.01308425 0.12822564 0.995 1.4208907e-38
-0.011339683 0.12822564 0.995 9.5991257e-39
-0.062804401 0.13433163 0.995 2.3509883e-38
-0.065421246 0.13694848 0.995 2.3500072e-38
-0.063676685 0.13694848 0.995 2.3509818e-38
-0.048995145 0.08311677 0.99800003 1.8458771e-38
-0.045495495 0.08311677 0.99800003 1.8366938e-38
-0.041995838 0.08311677 0.99800003 1.9285292e-38
-0.053369712 0.086616419 0.99800003 1.7724073e-38
-0.049870059 0.084866598 0.99800003 1.7540406e-38
-0.046370406 0.084866591 0.99800003 1.8183267e-38
-0.066493407 0.091865897 0.99800003 1.6881775e-38
-0.062993757 0.091865897 0.99800003 1.6244992e-38
-0.056869365 0.088366248 0.99800003 1.7264923e-38
-0.054244623 0.088366248 0.99800003 1.7173065e-38
-0.01837318 0.11898822 0.99800003 2.3047093e-38
-0.017206628 0.12277951 0.99800003 2.3509886e-38
-0.014873526 0.12336278 0.99800003 2.2680125e-38
-0.017498266 0.12598751 0.99800003 2.3509886e-38
-0.062993757 0.12948719 0.99800003 2.3509886e-38
-0.016623352 0.12948719 0.99800003 2.102304e-38
-0.014290251 0.12977883 0.99800003 1.7249136e-38
-0.060806476 0.13342428 0.99800003 2.3509886e-38
-0.058619194 0.13473666 0.99800003 2.3509886e-38
-0.061768878 0.1384113 0.99800009 2.350731e-38
-0.058035921 0.13852796 0.99800003 2.3509886e-38
-0.055119537 0.13911122 0.99800003 2.3509886e-38
-0.061681386 0.1412985 0.99800003 1.8329253e-38
-0.05774428 0.14173596 0.99800003 2.2121862e-38
-0.054244626 0.14173596 0.99800003 2.3509837e-38
-0.049870055 0.14173597 0.99800009 2.3509886e-38
-0.048264883 0.07985644 1.001 1.8639585e-38
-0.045632251 0.07985644 1.001 1.7717628e-38
-0.053690568 0.082736284 1.0039999 1.8457325e-38
-0.050655849 0.081398793 1.0020001 1.836586e-38
-0.045632251 0.081611529 1.001 1.7540427e-38
-0.042122081 0.081611529 1.001 1.6526653e-38
-0.060731951 0.087137155 1.0039999 1.7627899e-38
-0.057917859 0.086876795 1.001 1.6896141e-38
-0.054755431 0.085791767 1.0020001 1.7724078e-38
-0.065035515 0.089642227 1.0025001 1.6061344e-38
-0.061520077 0.089642234 1.0025001 1.6157487e-38
-0.058795404 0.088631876 1.001 1.6527717e-38
-0.021397386 0.11811827 1.003 2.1663084e-38
-0.021726929 0.12168446 1.0027144 2.314038e-38
-0.018428411 0.12197852 1.001 2.3509886e-38
-0.069533683 0.12762512 1.0039999 2.3509157e-38
-0.066013001 0.12762514 1.0039999 2.3141097e-38
-0.025525024 0.12674496 1.0039999 2.3509886e-38
-0.022192158 0.1258948 1.0025001 2.3509886e-38
-0.061258249 0.12984163 1.003 2.3509886e-38
-0.05897161 0.13114582 1.0039999 2.3509886e-38
-0.029045718 0.13114582 1.0039999 2.3509886e-38
-0.026386131 0.13016768 1.00325 2.3509886e-38
-0.021938583 0.12987641 1.001 2.3509886e-38
-0.018428411 0.12987641 1.001 2.3141103e-38
-0.058003329 0.13358778 1.0025001 2.3509886e-38
-0.055450913 0.13466652 1.0039999 2.3509886e-38
-0.029002324 0.13358514 1.0025001 2.3509886e-38
-0.026326301 0.13338658 1.001 2.3509886e-38
-0.021938583 0.13338658 1.001 2.3509886e-38
-0.017550867 0.13338658 1.001 1.0429537e-38
-0.014061732 0.13358778 1.0025001 1.3201466e-38
-0.057040315 0.13689676 1.001 2.3509886e-38
-0.054264266 0.13750482 1.0016 2.3509886e-38
-0.050334945 0.13845198 1.0022857 2.3509886e-38
-0.04576901 0.13906738 1.0039999 2.3509886e-38
-0.042541709 0.13936077 1.0039999 2.3509886e-38
-0.03256641 0.13994755 1.0039999 2.3509886e-38
-0.029867155 0.13791107 1.002 2.3509886e-38
-0.026326302 0.13777432 1.001 1.9452217e-38
-0.021958746 0.13791193 1.002 9.1334532e-39
-0.017779499 0.13783513 1.0039999 7.117321e-39
-0.014962945 0.13642685 1.0039999 1.2283171e-38
-0.045632251 0.14216202 1.001 2.3509886e-38
-0.042122081 0.14216202 1.001 2.3509886e-38
-0.037827726 0.14251664 1.0035 2.3509886e-38
-0.033446584 0.14258808 1.0039999 1.7978924e-38
-0.029836472 0.14216202 1.001 1.1711013e-38
-0.026326301 0.14216202 1.001 1.4848537e-39
-0.0223017 0.1420712 1.0016 2.401024e-39
-0.060731951 0.14522858 1.0039999 0
-0.057741061 0.14567071 1.003 9.0135637e-39
-0.054449107 0.14578199 1.00175 1.2805815e-38
-0.050019972 0.1456722 1.001 1.2259858e-38
-0.045632251 0.14567219 1.001 1.1708845e-38
-0.042122081 0.1456722 1.001 1.1708846e-38
-0.037827723 0.14603643 1.0035 1.1432622e-38
-0.033153191 0.14581536 1.0039999 2.0199717e-41
-0.029904194 0.14600027 1.0032499 1.9120858e-40
-0.026645992 0.14552608 1.0020001 2.0290157e-39
-0.022884503 0.14522858 1.0039999 5.2518873e-39
-0.053690568 0.14874928 1.0039999 0
-0.050169878 0.14874928 1.0039999 0
-0.04576901 0.14874928 1.0039999 0
-0.042248316 0.14874928 1.0039999 0
-0.057382215 0.083866306 1.007 1.7721266e-38
-0.055616606 0.083866306 1.007 1.8366909e-38
-0.064444639 0.087397523 1.007 1.7438976e-38
-0.062090497 0.086220466 1.007 1.8271165e-38
-0.058265015 0.085631922 1.007 1.6711045e-38
-0.023835689 0.11829564 1.007 2.2307735e-38
-0.025601294 0.12182686 1.007 2.3509523e-38
-0.069741458 0.12535806 1.007 2.3141086e-38
-0.06621024 0.12624088 1.007 2.3048531e-38
-0.026484098 0.12535806 1.007 2.3509886e-38
-0.061796229 0.12800647 1.007 2.341769e-38
-0.058265015 0.13065489 1.007 2.3509886e-38
-0.029132508 0.12888928 1.007 2.3509886e-38
-0.027366901 0.12800647 1.007 2.3509886e-38
-0.057382215 0.13330328 1.007 2.3509886e-38
-0.030898115 0.13418609 1.007 2.3509886e-38
-0.049436983 0.1368345 1.007 2.3509886e-38
-0.041491754 0.13860011 1.007 2.3509886e-38
-0.033546522 0.13771731 1.007 2.3509886e-38
-0.06267903 0.14389692 1.007 5.7856363e-39
-0.037960541 0.14036572 1.007 2.3509886e-38
-0.034429327 0.14036572 1.007 2.3509886e-38
-0.020304475 0.14389692 1.007 3.8768982e-39
-0.017361797 0.14154279 1.007 8.0296013e-39
-0.022952884 0.14742814 1.007 6.7305893e-39
-0.038843341 0.14919375 1.007 0
-0.061980329 0.082345299 1.01 1.5770745e-38
-0.058438599 0.082345299 1.01 1.7992796e-38
-0.064636625 0.085001595 1.01 2.0562855e-38
-0.061980329 0.084116161 1.01 1.8540963e-38
-0.05932403 0.084116161 1.01 1.615394e-38
-0.023021266 0.11599176 1.01 2.0186154e-38
-0.025677565 0.11864807 1.01 2.2123337e-38
-0.027448433 0.12307522 1.01 2.3509886e-38
-0.06552206 0.1248461 1.01 2.2217332e-38
-0.061980329 0.12661695 1.01 2.3509886e-38
-0.05932403 0.12661695 1.01 2.3509886e-38
-0.029219298 0.12661695 1.01 2.3509886e-38
-0.027448433 0.1248461 1.01 2.3509886e-38
-0.058143459 0.12897812 1.01 2.3509886e-38
-0.055782299 0.13192956 1.01 2.3509886e-38
-0.03276103 0.13192956 1.01 2.3509886e-38
-0.030990165 0.13104412 1.01 2.3509886e-38
-0.054011431 0.13458586 1.01 2.3509886e-38
-0.050469697 0.1354713 1.01 2.3509886e-38
-0.036302764 0.1354713 1.01 2.3509886e-38
-0.033646464 0.13458586 1.01 2.3509886e-38
-0.046042532 0.13724217 1.01 2.3509886e-38
-0.042500798 0.13724217 1.01 2.3509886e-38
-0.038073633 0.13812761 1.0100001 2.3509886e-38
-0.015052366 0.13901302 1.01 1.1630201e-38
-0.020364966 0.14609648 1.01 5.3466431e-39
-0.017708667 0.14432563 1.01 7.4403343e-40
-0.023977708 0.11456016 1.013 1.7513184e-38
-0.062164433 0.1234408 1.013 2.3231116e-38
-0.02930609 0.1234408 1.013 2.3509886e-38
-0.027529962 0.12166467 1.013 2.3509884e-38
-0.062164433 0.12521693 1.013 2.3232214e-38
-0.058612179 0.126105 1.013 2.3509886e-38
-0.055947989 0.12699306 1.013 2.3509886e-38
-0.032858342 0.12699306 1.013 2.3509886e-38
-0.030490175 0.12580898 1.013 2.3509886e-38
-0.054527085 0.12983485 1.013 2.3509886e-38
-0.036410596 0.1305453 1.013 2.3509886e-38
-0.033746406 0.12965724 1.013 2.3509886e-38
-0.031082217 0.12876917 1.013 2.3509886e-38
-0.052987777 0.13291347 1.013 2.3509886e-38
-0.049731545 0.13409756 1.013 2.3509886e-38
-0.046179295 0.13498563 1.013 2.3509886e-38
-0.042183008 0.13454159 1.013 2.3509886e-38
-0.038408738 0.13387553 1.013 2.3509886e-38
-0.034634467 0.13232143 1.013 2.3509886e-38
-0.013320949 0.13853787 1.013 1.2735864e-38
-0.015097077 0.14209013 1.013 4.6223203e-39
-0.025888626 0.11426189 1.01825 1.7605027e-38
-0.070572548 0.118812 1.0190001 2.0288427e-38
-0.066105925 0.118812 1.0190001 1.8253608e-38
-0.029479671 0.11791869 1.0190001 1.788231e-38
-0.027044874 0.11738947 1.0170001 1.8894687e-38
-0.068583384 0.1211343 1.016 1.9179929e-38
-0.065911308 0.12202498 1.016 2.1019145e-38
-0.062440582 0.12131181 1.0175 2.157231e-38
-0.059068572 0.1225964 1.0178001 2.2310259e-38
-0.033052966 0.1223853 1.0190001 2.2123339e-38
-0.030515892 0.12188279 1.0178001 2.341694e-38
-0.027611492 0.1202436 1.016 2.3509161e-38
-0.056762706 0.12511583 1.0170001 2.3509886e-38
-0.05348039 0.12657118 1.0167501 2.3509886e-38
-0.050323885 0.1271497 1.0190001 2.3509886e-38
-0.041092873 0.12774524 1.0190001 2.3509886e-38
-0.037519582 0.12685192 1.0190001 2.3509886e-38
-0.034064461 0.12537771 1.0172001 2.3509886e-38
-0.052550904 0.12915054 1.016 2.3509886e-38
-0.049988627 0.13032855 1.01825 2.3509886e-38
-0.046452813 0.13042521 1.0190001 2.3509886e-38
-0.041904669 0.13016835 1.0170001 2.3509886e-38
-0.037706017 0.12974434 1.016 2.3509886e-38
-0.048988134 0.1327133 1.016 2.3509886e-38
-0.046316054 0.1327133 1.016 2.3509886e-38
-0.04364397 0.13360399 1.016 2.3509886e-38
-0.029566457 0.1110982 1.022 1.7329506e-38
-0.027774552 0.1110982 1.022 1.751319e-38
-0.033150271 0.11557797 1.022 1.7237298e-38
-0.030163761 0.11498067 1.0220001 1.7512823e-38
-0.027774552 0.11378606 1.022 1.7329536e-38
-0.061820775 0.11826583 1.022 1.6042013e-38
-0.057639658 0.11856448 1.0220001 1.521082e-38
-0.036734082 0.11916178 1.022 1.6406802e-38
-0.034046225 0.11826582 1.022 1.6314616e-38
-0.031358361 0.11826582 1.022 1.6407182e-38
-0.057042357 0.121551 1.0220001 2.0281957e-38
-0.054055847 0.1221483 1.0220001 1.963622e-38
-0.042109802 0.1227456 1.0220001 1.8897929e-38
-0.037630036 0.12184965 1.022 1.9357468e-38
-0.034344878 0.121551 1.0220001 2.1293558e-38
-0.053757194 0.12453751 1.022 2.3509886e-38
-0.04987473 0.12513481 1.0220001 2.3509886e-38
-0.046589568 0.12543346 1.022 2.3509886e-38
-0.042109802 0.12543347 1.022 2.3509886e-38
-0.037630036 0.12453751 1.022 2.3509886e-38
-0.046589568 0.12812132 1.022 2.3509886e-38
-0.043901712 0.12812132 1.022 2.3509886e-38
-0.044159453 0.10363953 1.028 1.5857276e-38
-0.045060664 0.10544196 1.028 1.6591954e-38
-0.036949743 0.10994802 1.028 1.7236595e-38
-0.03419745 0.10978759 1.0265 1.7329488e-38
-0.03085136 0.10932764 1.025 1.7237668e-38
-0.062063612 0.11513 1.026 1.5027484e-38
-0.057536945 0.11417487 1.0255001 1.6131326e-38
-0.05399346 0.11428532 1.0265 1.6590862e-38
-0.050768353 0.11385328 1.0280001 1.7050403e-38
-0.047764305 0.11445409 1.028 1.6958216e-38
-0.041455813 0.11445409 1.028 1.6958566e-38
-0.03779617 0.11428533 1.0265001 1.6959641e-38
-0.034325879 0.11376064 1.025 1.7052914e-38
-0.031450417 0.1132215 1.025 1.7329155e-38
-0.065596581 0.11771441 1.025 1.6502582e-38
-0.056610744 0.11771441 1.025 1.5393761e-38
-0.053914998 0.11861299 1.025 1.5393757e-38
-0.050417975 0.11794323 1.027 1.5946212e-38
-0.045929 0.1181968 1.0272499 1.5945497e-38
-0.04137516 0.1178275 1.026 1.6498663e-38
-0.038040027 0.11831346 1.025 1.612987e-38
-0.053016413 0.12130874 1.025 1.769976e-38
-0.050320663 0.12220733 1.025 1.8437317e-38
-0.046187181 0.12202761 1.025 1.7423161e-38
-0.04133483 0.12130874 1.025 1.6960027e-38
-0.046547927 0.10710543 1.031 1.7697936e-38
-0.041576795 0.10665351 1.031 1.7052558e-38
-0.037961416 0.10755736 1.031 1.7144399e-38
-0.035249889 0.10755736 1.031 1.7237284e-38
-0.055134442 0.11117273 1.031 1.7052208e-38
-0.046457544 0.11008811 1.031 1.7604667e-38
-0.041275516 0.1099676 1.031 1.6960372e-38
-0.038865261 0.11026888 1.031 1.6683421e-38
-0.049711384 0.11298041 1.031 1.7695065e-38
-0.045734473 0.11370349 1.031 1.6957498e-38
-0.041576795 0.11298041 1.031 1.7050764e-38
-0.046096008 0.11659579 1.031 1.6866017e-38
-0.050762504 0.10787033 1.034 1.7513903e-38
-0.053481925 0.11058974 1.034 1.78816e-38
-0.050762504 0.11058974 1.034 1.8342584e-38
-0.044417191 0.11149622 1.034 1.705078e-38
-0.042604249 0.11149622 1.034 1.705113e-38
-0.078465693 0.12245121 1.063 8.5806297e-39
-0.075483628 0.12394225 1.063 1.771553e-38
