# .PCD v0.7 - Point Cloud Data file format
VERSION 0.7
FIELDS x y z rgb
SIZE 4 4 4 4
TYPE F F F F
COUNT 1 1 1 1
WIDTH 992
HEIGHT 1
VIEWPOINT 0 0 0 1 0 0 0
POINTS 992
DATA ascii
-0.075597599 0.089626014 0.88900006 3.5213818e-39
0.062419545 0.089726828 0.88999999 2.9696401e-39
-0.077329889 0.093733191 0.89099997 1.6792292e-39
-0.075078025 0.094302163 0.88900006 2.6001051e-39
0.06273821 0.093912475 0.889 3.6128431e-39
0.065149918 0.09440735 0.88999999 2.9671122e-39
-0.077329889 0.096857637 0.89099997 1.1278799e-39
-0.074643493 0.098048739 0.89000005 2.3239134e-39
0.06312789 0.098198935 0.889 2.4157419e-39
0.065711252 0.097862825 0.89019996 1.8636429e-39
-0.073689215 0.10200379 0.89014292 2.8752725e-39
-0.070921458 0.10287507 0.889 1.4044458e-39
0.06312789 0.10209572 0.88900006 1.6785229e-39
0.065540478 0.10221057 0.88999999 1.4026521e-39
-0.073424339 0.10623095 0.89099997 3.3351842e-39
-0.070142105 0.1059925 0.889 1.8629324e-39
0.062348537 0.1059925 0.889 6.6545562e-40
0.064832121 0.10623095 0.89099997 2.9739477e-40
-0.070247889 0.11005467 0.89033335 2.3231847e-39
-0.067804031 0.10988928 0.88900006 2.874953e-39
0.062348537 0.10988928 0.88900006 1.0941479e-40
0.064832121 0.10935539 0.89099997 1.8654085e-41
-0.070039526 0.11378168 0.89099997 2.6912441e-39
-0.06706281 0.1138505 0.88949996 2.5994241e-39
0.062384039 0.1138505 0.88950002 1.6142958e-41
-0.069518782 0.11638539 0.89099997 2.968173e-39
-0.066777326 0.11805733 0.8901428 2.3221071e-39
0.058517497 0.11859634 0.88999999 1.5433901e-41
0.060715653 0.11753067 0.89019996 1.5093386e-41
-0.065352865 0.12159278 0.89099997 1.125003e-39
-0.062384039 0.12242781 0.88950002 9.4206353e-40
0.054554965 0.12391771 0.889 3.8385909e-40
0.057541765 0.12159278 0.89099997 1.0763934e-40
-0.061673936 0.12607782 0.89050001 1.6767321e-39
0.053296365 0.12661083 0.88966668 1.0870573e-40
-0.060145464 0.12966424 0.89099997 1.7678417e-39
-0.057672393 0.13093191 0.889 1.0281565e-39
0.04702118 0.1311917 0.88900006 1.0798126e-40
0.049878825 0.13015255 0.889 4.7568057e-40
0.052815951 0.12930745 0.89033335 2.9093478e-40
-0.060145464 0.13200758 0.89099997 1.0292075e-39
-0.057770137 0.13349484 0.89050001 9.3667414e-40
-0.05419641 0.13451485 0.88949996 8.4698823e-40
0.045999866 0.13409989 0.88933337 1.5789831e-41
0.049991034 0.13356979 0.89099997 1.578843e-41
-0.053086109 0.13739863 0.89050001 9.3882373e-40
-0.049935222 0.13810246 0.88999999 5.6932655e-40
-0.046761397 0.13950484 0.889 3.8421082e-40
0.03974719 0.13950484 0.889 1.4712233e-41
0.042241134 0.13825786 0.88900006 1.5066761e-41
0.045624863 0.13798946 0.89071429 1.470943e-41
-0.049209926 0.14138091 0.89099997 7.4867453e-40
-0.046034932 0.14200276 0.89000005 1.9838042e-40
-0.04208526 0.14262226 0.889 1.4352099e-41
0.027277483 0.14262226 0.889 1.6501691e-41
0.03039491 0.14262226 0.88900006 1.4712233e-41
0.03460291 0.14231659 0.89033335 1.5066761e-41
0.03818848 0.14106354 0.88900006 1.4708029e-41
0.042179935 0.14138091 0.89099997 1.9550916e-40
-0.042179935 0.14450534 0.89099997 1.4352099e-41
-0.038246337 0.14517832 0.89033335 2.8985719e-40
-0.034602907 0.14595944 0.89033335 1.9766296e-40
-0.031174265 0.1472984 0.889 1.5070965e-41
0.010521314 0.14690872 0.889 1.6147162e-41
0.014036748 0.14660189 0.88950002 1.6142958e-41
0.017418491 0.14610994 0.88966668 1.6147162e-41
0.022224376 0.14582253 0.88949996 1.614436e-41
0.025520893 0.14543538 0.88985711 1.5426895e-41
0.02966596 0.14520535 0.89049995 1.3998972e-41
0.03280662 0.14450534 0.89099997 1.3991965e-41
-0.032025509 0.14919201 0.89099997 1.5066761e-41
-0.029665962 0.14988939 0.89050001 1.4349296e-41
-0.026108447 0.15041582 0.889 1.4352099e-41
-0.019483916 0.15197454 0.889 1.6501691e-41
-0.00233807 0.15197454 0.88900006 1.0331493e-40
0.0026498127 0.15135106 0.88900006 1.3990564e-41
0.0062348535 0.15041584 0.88900006 1.4713634e-41
0.010139818 0.14974928 0.88966668 1.4710831e-41
0.01379961 0.14971274 0.89099997 1.5066761e-41
-0.028901068 0.15231644 0.89099997 1.2922774e-41
-0.025776628 0.15309756 0.89099997 1.2921373e-41
-0.021871079 0.15387866 0.89099997 1.5072366e-41
-0.017932508 0.15437077 0.88933337 1.5068162e-41
-0.01402842 0.15509197 0.889 2.8842086e-40
-0.010521315 0.15470229 0.889 1.1838169e-41
-0.0062379213 0.15439984 0.88949996 1.1485042e-41
-0.0023407 0.15448707 0.88999999 1.1123507e-41
0.0027338848 0.15426922 0.89099997 1.1838169e-41
0.0062488792 0.15465978 0.89099997 1.3277303e-41
0.009763875 0.15270698 0.89099997 1.4356303e-41
-0.014059979 0.15700309 0.89099997 1.1120705e-41
-0.0098419851 0.15762798 0.89099997 9.685775e-42
-0.0070299897 0.15700309 0.89099997 1.0044507e-41
-0.016458539 0.01097236 0.89399999 8.3219823e-39
-0.014368567 0.010188621 0.89399999 8.6893341e-39
-0.010188621 0.0086211395 0.89399999 8.965928e-39
-0.0065311668 0.0096661262 0.89399999 8.7811822e-39
-0.0033962063 0.011233607 0.89399999 8.597507e-39
-0.024818433 0.014368566 0.89399999 8.0436213e-39
-0.02194472 0.014107319 0.89399999 7.7677463e-39
-0.01880976 0.014107319 0.89399999 8.1361743e-39
0.0033962063 0.013846072 0.89399999 8.5974944e-39
0.006008673 0.014368567 0.89399999 8.5056603e-39
-0.038089763 0.018966509 0.89399999 8.228007e-39
-0.034014314 0.018653011 0.89399999 8.1365246e-39
-0.02978212 0.017242279 0.89399999 8.0439787e-39
-0.026908405 0.016981034 0.89399999 8.0439773e-39
0.0117561 0.016458539 0.89399999 8.8744512e-39
0.014107319 0.01802602 0.89399999 9.3343504e-39
0.01802602 0.01880976 0.89399999 8.9652315e-39
0.02194472 0.0195935 0.89399999 8.1379792e-39
-0.045195669 0.022205967 0.89399999 7.4929461e-39
-0.042583205 0.021683473 0.89399999 7.7684568e-39
-0.039970737 0.021160979 0.89399999 8.1361631e-39
0.02586342 0.021683473 0.89399999 7.8599447e-39
0.02978212 0.02272846 0.89399999 7.4911636e-39
0.032133337 0.02272846 0.89399999 7.0301827e-39
-0.04989811 0.026908405 0.89399999 7.4897091e-39
-0.047285646 0.024818433 0.89399999 7.674822e-39
0.03056586 0.024295939 0.89399999 7.8602965e-39
0.03370082 0.024818433 0.89399999 7.0312589e-39
0.038403258 0.026908405 0.89399999 7.214232e-39
-0.053033076 0.030043367 0.89399999 6.3830182e-39
-0.050420605 0.029520873 0.89399999 6.9358192e-39
0.043105695 0.02978212 0.89399999 7.0301827e-39
0.044673178 0.03056586 0.89399999 6.9372668e-39
-0.060347974 0.035268299 0.89399999 6.1071558e-39
-0.057735514 0.034745805 0.89399999 6.2922771e-39
-0.055123046 0.032655831 0.89399999 6.0156846e-39
0.043105695 0.032133337 0.89399999 7.4886427e-39
0.046240658 0.033439573 0.89399999 7.2134809e-39
-0.061601963 0.038716756 0.89399999 6.2908408e-39
-0.058780499 0.037619516 0.89399999 6.8436306e-39
0.050159357 0.037619516 0.89399999 7.580481e-39
-0.065050416 0.042321958 0.89399999 5.7390963e-39
-0.06348294 0.04153822 0.89399999 5.8312948e-39
-0.068185374 0.047808137 0.89399999 5.5554337e-39
-0.066095404 0.045195669 0.89399999 5.2799118e-39
0.058780499 0.046240658 0.89399999 5.3678125e-39
-0.069752857 0.050943099 0.89399999 5.6465476e-39
0.061915457 0.050159357 0.89399999 4.628423e-39
-0.07132034 0.054078057 0.89399999 5.6440379e-39
0.06348294 0.052510578 0.89399999 3.9841354e-39
0.065050416 0.054861799 0.89399999 3.3391247e-39
0.066617899 0.057996757 0.89399999 3.5220768e-39
-0.072887816 0.060347974 0.89399999 6.4741404e-39
0.066617899 0.061131716 0.89399999 3.2451228e-39
-0.073671557 0.065834157 0.89399999 4.7242297e-39
0.066617899 0.065834157 0.89399999 2.3253231e-39
0.068185374 0.065834157 0.89399999 1.9565406e-39
-0.074455306 0.069752857 0.89399999 3.6193325e-39
0.066617899 0.069752857 0.89399999 2.4161104e-39
0.068185374 0.069752857 0.89399999 1.8625765e-39
-0.074455298 0.073671557 0.89399999 4.5387735e-39
0.066617899 0.073671557 0.89399999 1.7725445e-39
0.068185374 0.073671557 0.89399999 1.4037619e-39
-0.076022781 0.076806515 0.89399999 4.6298789e-39
-0.074455306 0.077590257 0.89399999 4.9979594e-39
0.066617899 0.077590257 0.89399999 2.2335058e-39
0.068185374 0.077590257 0.89399999 1.680332e-39
-0.076545268 0.082292698 0.89399999 4.1678106e-39
0.06348294 0.083860174 0.89399999 3.2458458e-39
0.065834165 0.082292698 0.89399999 2.5090109e-39
-0.077590257 0.085427657 0.89399999 2.5093598e-39
0.06348294 0.085427657 0.89399999 2.6951958e-39
0.06557291 0.085950159 0.89399999 2.6015652e-39
0.065442286 0.090521961 0.89399999 2.9689142e-39
0.068185374 0.091697574 0.89399999 3.4306085e-39
0.066617899 0.093265057 0.89399999 2.785239e-39
0.068707868 0.094310045 0.89399999 2.9685457e-39
0.068969123 0.097967498 0.89399999 1.8636303e-39
-0.076022781 0.10266993 0.89399999 2.6040792e-39
0.068969116 0.10188619 0.89399999 1.0335081e-39
0.066617899 0.10658863 0.89399999 3.8707227e-40
0.068185374 0.10423741 0.89399999 8.4983707e-40
-0.073671557 0.1097236 0.89399999 2.8745592e-39
-0.073279686 0.11325043 0.89399999 1.6778055e-39
-0.071320333 0.11520977 0.89399999 1.8625611e-39
0.065050416 0.1136423 0.89399999 1.6505895e-41
-0.070693344 0.11865824 0.89399999 2.4139258e-39
0.063091069 0.1187366 0.89399999 1.5440908e-41
0.065050416 0.117561 0.89399999 1.5792634e-41
-0.068707868 0.12200218 0.89399999 1.6760062e-39
-0.066617899 0.12304717 0.89399999 1.029562e-39
0.058780499 0.12304717 0.89399999 1.0799247e-40
0.060347974 0.12226343 0.89399999 1.9982796e-40
-0.06557291 0.12513715 0.89399999 7.547898e-40
-0.06348294 0.12696588 0.89399999 1.3083097e-39
0.055645537 0.12696588 0.89399999 2.0090556e-40
0.057996757 0.12461465 0.89399999 1.5773464e-39
-0.062437952 0.12983958 0.89399999 1.5838106e-39
0.054078057 0.13088457 0.89399999 1.0799247e-40
-0.061131716 0.13323578 0.89399999 1.0295662e-39
-0.058780499 0.13558702 0.89399999 8.4483864e-40
0.050943099 0.13558702 0.89399999 1.4724844e-41
0.052510578 0.13245206 0.89399999 1.6860423e-41
-0.05721302 0.13715449 0.89399999 1.0292075e-39
-0.055645537 0.13793823 0.89399999 7.5441986e-40
0.047808137 0.13872197 0.89399999 1.9550916e-40
0.049375616 0.13715449 0.89399999 1.3645844e-41
-0.052510578 0.1410732 0.89399999 2.9272564e-40
-0.050420605 0.14290193 0.89399999 1.9838042e-40
0.037619516 0.14342442 0.89399999 1.9766156e-40
0.042321958 0.14342442 0.89399999 1.040324e-40
0.044673178 0.14185692 0.89399999 1.040324e-40
-0.049375616 0.14499189 0.89399999 1.3991965e-41
-0.045927163 0.14561889 0.89399999 1.3991965e-41
-0.042321958 0.14655937 0.89399999 1.9515603e-40
0.03370082 0.14603689 0.89399999 1.0331774e-40
-0.037619516 0.14812686 0.89399999 4.7209185e-40
-0.034014314 0.15000783 0.89399999 1.9694689e-40
0.014891059 0.15126181 0.89399999 1.4708029e-41
0.018249948 0.15014218 0.89400005 1.5073768e-41
0.021787971 0.15000783 0.89399999 1.4715035e-41
0.026059354 0.14989027 0.89399999 1.3631831e-41
0.029520875 0.14864936 0.89399999 1.2201106e-41
0.032133337 0.14812686 0.89399999 1.1120705e-41
-0.032133337 0.15282929 0.89399999 1.2914367e-41
-0.02978212 0.15361303 0.89399999 1.1839571e-41
-0.02586342 0.15544176 0.89399999 1.2565443e-41
-0.02194472 0.15596426 0.89399999 1.3994768e-41
0.0015674799 0.15596426 0.89399999 1.0761972e-41
0.010188621 0.15491927 0.89399999 1.2914367e-41
0.014107319 0.15282929 0.89399999 1.3631831e-41
-0.02194472 0.15753174 0.89399999 1.029576e-40
-0.01802602 0.15753174 0.89399999 1.0367507e-40
-0.014107319 0.15909921 0.89399999 9.685775e-42
-0.0117561 0.15909921 0.89399999 9.685775e-42
-0.006008673 0.15857673 0.89399999 8.9711128e-42
-0.0023512198 0.15753174 0.89399999 8.9697115e-42
0.0023512198 0.15753174 0.89399999 9.3270426e-42
0.0062699197 0.15753174 0.89399999 1.0761972e-41
-0.024404645 0.0070852195 0.898 8.0457639e-39
-0.022042906 0.0070852195 0.898 8.0457639e-39
-0.018106673 0.00708522 0.898 7.9539214e-39
-0.013898089 0.0065551288 0.89733332 8.9655678e-39
-0.01022281 0.0062900833 0.89700001 9.3336357e-39
-0.0062909597 0.0062900833 0.89700001 9.3325623e-39
-0.00340848 0.0065551288 0.89733332 8.6889837e-39
-0.033064358 0.011021453 0.898 8.2283615e-39
-0.029915374 0.011021453 0.898 8.0439773e-39
-0.025947385 0.010220376 0.89688885 8.0450535e-39
-0.021993814 0.010211414 0.89600003 8.0450451e-39
-0.018520961 0.0099897431 0.89628577 8.0457555e-39
-0.014924373 0.0086404262 0.89600003 8.4134759e-39
-0.0054984535 0.0086404262 0.89600003 8.7801074e-39
-0.00183311 0.0096909665 0.8963334 8.5975042e-39
0.0021629557 0.010421156 0.89724994 8.6900501e-39
0.0062949047 0.011014879 0.89749998 8.5056645e-39
0.008659713 0.0118087 0.898 8.2301608e-39
-0.040149577 0.014957686 0.898 8.4120269e-39
-0.03778784 0.014957686 0.898 8.3201914e-39
-0.033802509 0.014149399 0.89666671 7.8599335e-39
-0.029848747 0.014138879 0.89600003 8.0432612e-39
-0.026968604 0.013877048 0.89600009 8.2276525e-39
0.0070694396 0.013353386 0.89600003 8.2301608e-39
0.010211415 0.01413888 0.89600003 8.6900613e-39
0.013908024 0.014432855 0.898 8.5056645e-39
0.018106673 0.014957687 0.898 8.5049498e-39
0.022042906 0.014957686 0.898 8.4134731e-39
-0.04880929 0.019681167 0.898 7.9517718e-39
-0.04560975 0.01808534 0.89700001 7.7677477e-39
-0.041839577 0.017874576 0.89625001 8.13581e-39
-0.037703678 0.01649536 0.89600003 8.4120325e-39
-0.033776209 0.01649536 0.89600009 8.0436031e-39
0.014138879 0.01649536 0.89600003 8.6893341e-39
0.018459093 0.016888106 0.89600003 8.780829e-39
0.022006523 0.017290058 0.89649999 8.6889978e-39
0.025953813 0.018087581 0.89711106 8.4127724e-39
0.029899154 0.01888296 0.89749998 8.5974986e-39
0.032801941 0.019156335 0.898 8.1372463e-39
-0.052745525 0.022830153 0.898 7.3071255e-39
-0.050356172 0.022030193 0.89749998 7.6755423e-39
-0.047391437 0.021731984 0.89600009 7.7680966e-39
0.027492266 0.02120832 0.89600003 7.1223811e-39
0.029848747 0.02120832 0.89600003 7.4915364e-39
0.034121267 0.02185565 0.89679998 6.9390787e-39
0.037497956 0.022288373 0.89733332 6.7557594e-39
0.040936828 0.022830153 0.898 6.8461558e-39
-0.05799384 0.027028803 0.898 7.304606e-39
-0.05422632 0.025933359 0.89644444 7.1216622e-39
-0.050533406 0.024873955 0.89600009 7.3982435e-39
0.035347197 0.024350293 0.89600003 6.755381e-39
0.037965514 0.024873955 0.89600009 6.9390702e-39
0.041874424 0.025752522 0.89699996 6.5692073e-39
0.045660302 0.026766386 0.898 6.3840874e-39
0.048022043 0.027553633 0.898 5.7408942e-39
-0.061097823 0.030154996 0.89733332 6.8450725e-39
-0.058159381 0.029864965 0.89649999 6.752535e-39
-0.055246364 0.029586917 0.89600009 6.5681409e-39
0.046369966 0.029864965 0.89649999 6.9376255e-39
0.04880929 0.029915374 0.898 7.0283946e-39
-0.062285852 0.033598248 0.89649999 6.2000717e-39
-0.058388345 0.032728888 0.89600009 6.290838e-39
0.047915094 0.032205224 0.89600003 7.3978946e-39
0.050365381 0.033838458 0.89766663 6.8436418e-39
0.052745525 0.035426099 0.898 6.8436488e-39
-0.065195948 0.037703678 0.89600003 6.3808742e-39
-0.063101307 0.03744185 0.89600009 6.5656214e-39
0.051057067 0.036918186 0.89600003 7.4875735e-39
0.053957429 0.037910923 0.89720005 6.7510987e-39
-0.068490453 0.042511322 0.898 5.8312751e-39
-0.066411443 0.041260757 0.89650005 5.8309248e-39
0.055377278 0.041238401 0.89600003 6.012456e-39
0.057830632 0.042093586 0.89749998 5.4614389e-39
-0.069342926 0.046070587 0.89680004 5.0043913e-39
0.058126509 0.04477312 0.89600003 5.5503891e-39
0.06133686 0.047181323 0.89700001 6.1038922e-39
-0.073213935 0.051171031 0.898 5.6458287e-39
-0.071127035 0.049512818 0.89649999 4.6349124e-39
0.063695967 0.048754059 0.89700001 5.3663467e-39
0.065341465 0.050383784 0.898 4.0759681e-39
-0.073946834 0.054279111 0.89733332 4.9086364e-39
0.066411443 0.05383566 0.89650005 4.0745373e-39
0.068490453 0.055894509 0.898 4.3511228e-39
-0.076362923 0.059043497 0.898 7.3928597e-39
-0.073878013 0.058158509 0.89649999 6.3794337e-39
0.068414181 0.058190502 0.89700001 4.0748919e-39
-0.076958708 0.062478986 0.8976 6.2897338e-39
-0.074621871 0.062053975 0.89600009 6.1982724e-39
0.066766933 0.063624963 0.89600003 3.152937e-39
0.069201432 0.062123232 0.89700001 2.7845076e-39
-0.081086405 0.066915967 0.898 4.9060959e-39
-0.077793352 0.066005692 0.89633334 5.3674299e-39
-0.074621864 0.065195948 0.89600003 4.3576094e-39
0.070774183 0.066055074 0.89700001 2.2327799e-39
-0.081086412 0.070064947 0.898 5.5493129e-39
-0.077763841 0.069908909 0.89600003 5.457469e-39
0.070774183 0.069986932 0.89700001 2.0473223e-39
-0.081086405 0.074001178 0.898 4.2600062e-39
-0.077763841 0.073836371 0.89600003 4.5358756e-39
0.070485763 0.073628895 0.89666671 1.3119194e-39
-0.081086412 0.077937417 0.898 3.8933789e-39
-0.078212693 0.077988267 0.89600003 4.3536424e-39
0.069908909 0.077763841 0.89600009 1.2211503e-39
-0.081086405 0.081873655 0.898 4.8117352e-39
-0.078549333 0.081691302 0.89600003 5.2730707e-39
0.069201432 0.081782475 0.89699996 1.8643659e-39
-0.081643961 0.086047634 0.89720005 3.7064905e-39
-0.079334825 0.085618779 0.89600009 3.242997e-39
0.066766933 0.087189756 0.89600003 2.7848887e-39
0.069201432 0.085714333 0.89700001 3.2458571e-39
-0.081607841 0.090097487 0.89679998 2.9685723e-39
-0.079334825 0.090331733 0.89600009 2.0462503e-39
0.066766933 0.089546233 0.89600003 3.2454969e-39
0.069342926 0.090097487 0.89680004 3.3380513e-39
-0.081958868 0.093913093 0.89720005 2.4161076e-39
-0.079334825 0.094259195 0.89600003 2.0462237e-39
0.071166925 0.093577147 0.89699996 2.6912315e-39
0.073213935 0.094469592 0.898 1.8614709e-39
-0.081086405 0.096831337 0.898 2.1402228e-39
-0.078986347 0.098635077 0.89650005 1.033892e-39
0.071479902 0.098186664 0.89600009 1.3100922e-39
0.073919654 0.098296247 0.89700001 9.4097192e-40
-0.078637876 0.1022281 0.89699996 1.0331633e-39
0.071479894 0.10211413 0.89600003 9.3987891e-40
0.073960416 0.10228552 0.89749998 7.5585899e-40
-0.076889984 0.10582279 0.89680004 2.3253455e-39
0.070145167 0.10629759 0.89649999 2.0304254e-40
0.073843732 0.1059634 0.89799994 1.1084831e-40
-0.076192856 0.10996906 0.89600003 2.9678282e-39
0.066766933 0.10996906 0.89600003 2.0089715e-40
0.069719546 0.11000834 0.8976 3.8457936e-40
-0.076249547 0.11398244 0.89666671 1.4019669e-39
-0.074621864 0.11468202 0.89600003 1.5856099e-39
0.066816613 0.11398244 0.89666671 1.6510099e-41
0.068490453 0.11336352 0.898 1.6156971e-41
-0.073878013 0.11789019 0.89650005 1.4015731e-39
-0.073213935 0.12123598 0.898 1.3058112e-39
-0.07100942 0.12289055 0.89666671 5.711076e-40
0.062910475 0.12267371 0.89699996 1.5435303e-41
-0.06955605 0.12535588 0.89649999 5.70037e-40
-0.066766933 0.12646443 0.89600003 1.1224737e-39
0.058192257 0.12660557 0.89700001 1.7610356e-39
0.061097823 0.12560412 0.89733332 1.2085737e-39
-0.068490453 0.1283212 0.898 1.5820113e-39
-0.065913059 0.12946579 0.89720005 1.3075852e-39
-0.063624963 0.13117738 0.89600003 9.3987891e-40
0.055832267 0.1305383 0.89700001 2.0054543e-40
0.057951175 0.12875077 0.89733332 7.4905429e-40
-0.065341465 0.13304467 0.898 1.0292075e-39
-0.06248223 0.13439432 0.89650005 9.3701185e-40
0.053413548 0.13431937 0.89600003 2.9093899e-40
-0.06137149 0.13769145 0.89750004 5.6825035e-40
-0.058388345 0.13850866 0.89600009 9.3701185e-40
0.050571393 0.13861212 0.89666671 2.8770619e-40
0.053532772 0.13698092 0.898 1.0475547e-40
-0.057951175 0.14133736 0.89733332 5.6859507e-40
-0.054513242 0.1418601 0.89600003 2.0017268e-40
0.040060163 0.14374527 0.89600003 1.0331493e-40
0.046344109 0.14217429 0.89600009 1.1479437e-41
0.048022043 0.14249164 0.898 1.040324e-41
-0.053981628 0.14526086 0.8976 1.0475126e-40
-0.050533406 0.14636359 0.89600009 1.0367367e-40
-0.047915094 0.14688724 0.89600003 2.8770339e-40
0.035347197 0.14688724 0.89600003 1.0331493e-40
0.037703682 0.14610176 0.89600003 1.0761972e-41
0.041693687 0.14631975 0.89733332 9.685775e-42
0.045660302 0.14485338 0.898 1.040324e-41
-0.04880929 0.14878961 0.898 1.9550916e-40
-0.045609456 0.14941117 0.89699996 1.0367367e-40
-0.041672841 0.15017922 0.89688885 1.9550916e-40
-0.037703678 0.15081471 0.89600003 3.7954449e-40
-0.035347197 0.15160021 0.89600003 2.8735447e-40
0.030110579 0.15107656 0.89600009 1.0044507e-41
0.034001734 0.15035206 0.89674997 8.2508454e-42
0.037525427 0.14931446 0.898 7.892113e-42
0.040149577 0.14878961 0.898 5.3809861e-42
-0.037525427 0.15403792 0.898 1.1124909e-41
-0.034121267 0.15425195 0.89679998 1.1480838e-41
-0.030634239 0.15474218 0.89600003 1.0331493e-40
0.014138879 0.15474218 0.89600003 1.2914367e-41
0.018073654 0.15401426 0.8963334 1.3273099e-41
0.022018358 0.15412939 0.89699996 1.1479437e-41
0.025950212 0.15412939 0.89700001 1.0048711e-41
0.029899156 0.15421486 0.89749998 7.5333805e-42
0.033064358 0.15351309 0.898 7.5333805e-42
-0.033827644 0.15654577 0.89733332 1.02959e-40
-0.02960854 0.15695432 0.89666671 2.8662719e-40
-0.025944425 0.15802585 0.89679998 1.1483641e-41
-0.021993812 0.15945514 0.89600003 5.6429308e-40
-0.018066347 0.15945515 0.89600009 1.1480838e-41
-0.0023564799 0.15945515 0.89600009 8.2508454e-42
0.0023564799 0.15945515 0.89600009 9.685775e-42
0.0062839463 0.15945514 0.89600003 8.6095778e-42
0.010413923 0.15816951 0.89649993 1.040324e-41
0.013994405 0.15771164 0.89679998 1.040324e-41
0.017791774 0.15729187 0.89799994 9.685775e-42
0.021255659 0.15666208 0.898 1.0761972e-41
-0.022042906 0.16138555 0.898 1.9515183e-40
-0.017693764 0.16159946 0.89699996 9.685775e-42
-0.01415466 0.16199309 0.89700001 6.8159157e-42
-0.01022281 0.16199309 0.89700001 6.0984509e-42
-0.0062900828 0.16120584 0.89700001 6.8159157e-42
-0.00236174 0.16138557 0.898 6.8159157e-42
0.0023588177 0.16126576 0.89733332 7.1746481e-42
0.0062918365 0.16120584 0.89700001 6.4571833e-42
0.0094469599 0.16138555 0.898 5.7397185e-42
-0.025332158 0.0039581498 0.903 8.7815325e-39
-0.022153802 0.0031643284 0.90250003 8.6896914e-39
-0.018592346 0.0035601433 0.90250003 8.6893313e-39
-0.014217779 0.0039493833 0.90100002 8.8730065e-39
-0.0099608619 0.0033195862 0.90179998 9.0577691e-39
-0.0063260267 0.0031621368 0.90199995 8.9659336e-39
-0.0026897888 0.0033230928 0.90259999 8.321639e-39
-0.032456826 0.0071246694 0.903 8.3227194e-39
-0.029818064 0.0065969164 0.90300006 8.5056729e-39
-0.026405726 0.0061659473 0.90179998 8.5056673e-39
-0.022116546 0.0055291364 0.90100002 8.3219851e-39
-0.018167164 0.0055291369 0.90100002 8.3219907e-39
-0.015007655 0.0055291364 0.90100002 8.7811766e-39
-0.0013164611 0.0060557215 0.90100002 8.1383253e-39
0.002373721 0.00632778 0.90233326 8.322362e-39
0.0063330396 0.0071246694 0.903 8.2301636e-39
0.0087079294 0.0071246694 0.903 8.3223564e-39
-0.041164756 0.011874449 0.903 7.952139e-39
-0.037998237 0.01108282 0.903 8.0439717e-39
-0.034659009 0.0096540283 0.90259999 8.3202082e-39
-0.030015312 0.0086886436 0.90100002 7.5848068e-39
0.0039493833 0.0086886436 0.90100002 8.7811766e-39
0.0063190134 0.0086886436 0.90100002 8.6893369e-39
0.010472002 0.010075748 0.90149999 8.5967909e-39
0.014228298 0.010274826 0.90166664 8.32056e-39
0.017976051 0.010739793 0.90271431 8.3212816e-39
0.022165639 0.01108282 0.903 8.0443444e-39
0.024540529 0.011874449 0.903 8.4124165e-39
-0.045650661 0.014513216 0.90300006 7.8599391e-39
-0.042198699 0.014065765 0.90140003 8.0446933e-39
-0.037914079 0.013427903 0.90100002 7.8606552e-39
0.015007655 0.013427903 0.90100002 8.5985832e-39
0.018167164 0.013427904 0.90100002 8.5978699e-39
0.022116546 0.013427903 0.90100002 8.3212844e-39
0.0260858 0.014227713 0.90166664 8.5053113e-39
0.030065719 0.01424101 0.90250003 8.2290832e-39
0.032456826 0.015040969 0.903 8.5063875e-39
-0.053566962 0.019262996 0.90300006 7.8581441e-39
-0.050051529 0.017737346 0.90214282 7.8581343e-39
0.030015312 0.01658741 0.90100002 8.7815297e-39
0.034516998 0.017652852 0.90166664 8.3212802e-39
0.037957035 0.018978078 0.90199995 7.768112e-39
0.041164756 0.018999118 0.903 7.5829977e-39
-0.057421841 0.022303628 0.90220004 6.9383556e-39
-0.053974908 0.021853253 0.90100002 7.4908021e-39
0.038703956 0.021326669 0.90100002 7.674836e-39
0.042282511 0.021733442 0.90149999 6.9372724e-39
0.045650661 0.022429517 0.90300006 6.4759243e-39
-0.061534803 0.026416594 0.90220004 7.5815558e-39
-0.058758002 0.025030879 0.90166664 7.5822704e-39
0.045812845 0.024486175 0.90100002 6.4759005e-39
0.049272463 0.026611801 0.90166664 5.4657436e-39
-0.06491366 0.030081939 0.903 6.9372612e-39
-0.063190132 0.030015312 0.90100002 6.8450683e-39
0.050552107 0.030015312 0.90100002 6.5684983e-39
-0.069399558 0.035095595 0.90300006 5.6469063e-39
-0.066280387 0.034325883 0.90220004 6.1085949e-39
0.053917982 0.0336782 0.90179998 6.751456e-39
0.056691986 0.035069294 0.90233338 6.4752292e-39
-0.069663435 0.037998237 0.903 6.3830252e-39
-0.067214027 0.03795528 0.90200001 6.0142343e-39
0.057725865 0.037956156 0.90199995 6.3819518e-39
-0.072434142 0.0423522 0.903 6.5659731e-39
-0.069943093 0.041490879 0.90149999 6.2901065e-39
0.059306499 0.041118294 0.90200001 5.7376516e-39
0.060955506 0.043539651 0.903 6.7474875e-39
-0.076788113 0.04670617 0.903 6.1078859e-39
-0.074372448 0.045888677 0.90250003 5.6458091e-39
-0.071878776 0.045812845 0.90100002 4.6356018e-39
0.062400259 0.045549553 0.90100002 6.7474595e-39
0.064122029 0.04512291 0.903 7.1162504e-39
-0.077815279 0.050381448 0.90266669 6.5641837e-39
-0.074439697 0.049467672 0.90140003 5.4625024e-39
0.06666261 0.049799051 0.90166664 4.9961349e-39
0.068871804 0.050664321 0.903 4.3511284e-39
-0.078314684 0.053791098 0.90233338 4.9089783e-39
0.069587171 0.053771228 0.90199995 4.1678162e-39
0.072038323 0.054622468 0.903 4.6298817e-39
-0.078483358 0.05752708 0.90199995 5.1812394e-39
0.070403054 0.057745159 0.90233338 3.7061149e-39
0.072671629 0.058105644 0.903 3.060391e-39
-0.081537887 0.061747134 0.903 5.5511121e-39
-0.079426877 0.06203907 0.90149999 6.4734258e-39
0.071878776 0.062400259 0.90100002 2.9688988e-39
0.073621586 0.061747134 0.903 3.0600197e-39
-0.082284369 0.065668911 0.90250003 4.7217158e-39
-0.084704407 0.070455067 0.903 6.6538696e-39
-0.082937047 0.070299029 0.90100002 5.7315391e-39
-0.085337713 0.073938243 0.903 4.8113765e-39
-0.082937047 0.074248403 0.90100002 4.3514759e-39
0.071878776 0.075038284 0.90100002 1.3130026e-39
-0.085496038 0.078371376 0.903 3.7997399e-39
-0.082937047 0.078197792 0.90100002 3.7089778e-39
0.071878776 0.078197792 0.90100002 1.590293e-39
0.073621586 0.078371368 0.90300006 2.0480341e-39
-0.08628767 0.082329527 0.903 2.8770703e-39
-0.082937047 0.082147166 0.90100002 3.9844997e-39
0.071878776 0.082147166 0.90100002 2.2335086e-39
0.073621586 0.081537887 0.903 2.4171824e-39
-0.085402243 0.086192116 0.90200007 1.8632743e-39
-0.082937047 0.084516801 0.90100002 3.1539837e-39
0.071878776 0.086096555 0.90100002 3.7061121e-39
0.073621586 0.087079301 0.903 3.5213411e-39
-0.085402235 0.090145878 0.90200001 1.2168596e-39
0.071878776 0.090045944 0.90100002 3.1547404e-39
0.073621586 0.090245813 0.903 3.8890306e-39
-0.084959514 0.093651667 0.90149999 1.126459e-39
0.074726626 0.093703829 0.90199995 2.046581e-39
0.076731421 0.09413325 0.90233338 2.1376962e-39
-0.084704407 0.097370483 0.903 2.7823748e-39
-0.082471833 0.098281056 0.90166664 2.2306401e-39
0.076618038 0.097944707 0.90100002 1.4001382e-39
-0.081843406 0.10161224 0.90199995 1.9540477e-39
0.077098012 0.10240124 0.90199995 4.7783717e-40
-0.079866081 0.10596181 0.90200001 1.9522694e-39
0.077881843 0.10600145 0.90100002 3.827871e-40
-0.078255653 0.10987526 0.90166664 2.8749179e-39
0.071878776 0.1113726 0.90100002 3.8385909e-40
0.07450562 0.11025643 0.90220004 7.5154439e-40
0.077845372 0.10866897 0.90149999 1.118913e-39
-0.078371368 0.11320309 0.903 1.0328382e-39
0.070377044 0.11386935 0.90200001 3.8420941e-40
0.072829954 0.11399472 0.903 6.5828378e-40
-0.076618038 0.1184815 0.90100002 1.3076245e-39
0.067139514 0.1184815 0.90100002 1.5442309e-41
0.0694746 0.11758466 0.90259999 1.9982376e-40
-0.076788113 0.12191101 0.903 9.3667414e-40
-0.075038284 0.121641 0.90100002 8.4483304e-40
0.065705284 0.12111938 0.903 1.4712233e-41
-0.073580816 0.12540452 0.90250003 8.4483864e-40
-0.070299022 0.12717015 0.90100002 6.6330463e-40
0.062538765 0.12745242 0.903 1.0241908e-39
0.064122029 0.12666079 0.903 1.4356303e-41
-0.072038323 0.12903568 0.903 1.5820113e-39
-0.069587171 0.12968266 0.90200001 1.1224779e-39
-0.067139514 0.1319094 0.90100002 1.1214059e-39
0.058450874 0.13111952 0.90100002 2.8915373e-40
0.061438259 0.12946819 0.90233338 4.7245759e-40
-0.068871804 0.13220219 0.903 1.1214059e-39
-0.06671229 0.13474104 0.90233338 7.526346e-40
0.057747494 0.13394998 0.90233338 2.8806633e-40
-0.065705284 0.13774361 0.903 8.4266943e-40
-0.063453428 0.13822842 0.90100002 6.5900124e-40
0.053772099 0.13917169 0.90200001 1.029604e-40
0.056205727 0.13695198 0.903 1.3641641e-41
-0.064122029 0.14011849 0.903 1.3018399e-39
-0.061679631 0.14154485 0.90200001 1.3929579e-39
-0.059240751 0.14296767 0.90100002 4.7605472e-40
0.05060821 0.14233647 0.90200001 9.685775e-42
0.05383084 0.14091012 0.903 1.040324e-41
-0.056997359 0.14565991 0.903 2.8734466e-40
0.045812845 0.14691705 0.90100002 8.2508454e-42
0.049872693 0.14486828 0.90300006 8.9683102e-42
-0.05383084 0.14882642 0.903 1.0367367e-40
-0.050185658 0.15055522 0.90149999 1.0761972e-41
0.038703956 0.15086643 0.90100002 6.0984509e-42
0.041887574 0.1501594 0.90149999 5.0222537e-42
0.04670617 0.1480348 0.903 6.4571833e-42
-0.049081057 0.15278459 0.903 1.0761972e-41
-0.045863692 0.15340702 0.90200001 1.029604e-40
-0.041909926 0.15498854 0.90200007 1.0761972e-41
-0.038703956 0.1556057 0.90100002 1.040324e-41
0.034359634 0.15521076 0.90100002 6.0984509e-42
0.037935555 0.15332155 0.90149999 5.0222537e-42
0.040871076 0.15319955 0.90233338 3.2285917e-42
-0.040373128 0.15753438 0.903 8.9683102e-42
-0.037977636 0.15823877 0.90250003 9.3326478e-42
-0.034016125 0.15900016 0.90233338 4.7066112e-40
-0.030805189 0.1587652 0.90100002 6.5396918e-40
0.019746916 0.1587652 0.90100002 8.2508454e-42
0.022396788 0.1583561 0.90166664 7.5333805e-42
0.025772423 0.15795833 0.90179998 6.8159157e-42
0.030049503 0.15735993 0.90200001 6.0984509e-42
0.032456826 0.15753438 0.903 4.6831395e-42
-0.033248454 0.16070089 0.903 9.3270426e-42
-0.029796436 0.16111001 0.90233338 9.685775e-42
-0.026085217 0.16178182 0.90166664 1.040324e-41
-0.022165639 0.16386741 0.903 9.3270426e-42
-0.018957039 0.16350447 0.90100002 8.9683102e-42
-0.0063190134 0.16350447 0.90100002 5.3809861e-42
-0.0023696302 0.16350447 0.90100002 5.3809861e-42
0.0023696302 0.16350447 0.90100002 6.0984509e-42
0.0063190134 0.16350447 0.90100002 6.0984509e-42
0.010282423 0.16321985 0.90233338 5.7397185e-42
0.014492176 0.16151795 0.90166664 5.3809861e-42
0.018195217 0.16058224 0.90233338 6.0984509e-42
0.02137401 0.16070089 0.903 5.0222537e-42
-0.022165639 0.16545066 0.903 7.892113e-42
-0.017802469 0.16575487 0.90250003 6.4571833e-42
-0.014502111 0.16585627 0.90233338 6.0984509e-42
-0.01108282 0.16545066 0.903 5.3809861e-42
-0.0063330396 0.16545066 0.903 5.0222537e-42
-0.00237489 0.16545066 0.90300006 5.0222537e-42
0.00237489 0.16545066 0.90300006 5.0222537e-42
0.0055414098 0.16545066 0.903 5.7397185e-42
-0.022288373 -0.00079601328 0.90799999 8.9673601e-39
-0.018308306 -0.00079601328 0.90799999 8.6904145e-39
-0.014328239 -0.00079601328 0.90799999 9.2424924e-39
-0.0087561458 -0.00079601328 0.90799999 9.9779023e-39
-0.0063681062 -0.00079601328 0.90799999 8.9651965e-39
-0.0023880401 -0.00079601328 0.90799999 8.2290916e-39
0.0023880401 -0.00079601328 0.90799999 8.7826073e-39
-0.033432558 0.0039800666 0.90799999 8.7815353e-39
-0.030248504 0.0039800666 0.90799999 8.6893341e-39
-0.026245294 0.0023852345 0.90720004 8.8730135e-39
-0.022239279 0.00079426001 0.90600002 8.9659182e-39
-0.017950276 0.0014296679 0.90600008 8.5063805e-39
-0.01429668 0.0015885198 0.90600002 8.7815227e-39
-0.01072251 0.0011913899 0.90600002 9.2410771e-39
-0.0063540796 0.00079426001 0.90600002 8.8740911e-39
-0.00198565 0.0011913899 0.90600002 7.9535767e-39
0.0023853125 0.0023837539 0.90666664 8.3219921e-39
0.006366061 0.0023865788 0.90766668 8.4138248e-39
0.010348173 0.0031840531 0.90799999 8.6900487e-39
0.014062902 0.0034493911 0.90799999 8.6904117e-39
0.018308306 0.0039800666 0.90799999 8.5993062e-39
-0.041392691 0.0071641197 0.90799999 8.4131171e-39
-0.038208641 0.0071641197 0.90799999 8.2283671e-39
-0.034516122 0.006202592 0.90720004 8.5975042e-39
-0.030976139 0.0055598198 0.90600002 8.7811766e-39
0.0063540796 0.0055598198 0.90600002 8.2298105e-39
0.010643084 0.0061952281 0.90600008 8.6900557e-39
0.014305008 0.0063571483 0.90649998 8.5056631e-39
0.018295448 0.0063628471 0.90733337 8.6907718e-39
0.022288373 0.0063681062 0.90799999 8.9662825e-39
0.026268438 0.0071641197 0.90799999 8.4138346e-39
-0.049352825 0.011940199 0.90799999 8.4116556e-39
-0.045969591 0.01065676 0.90720004 7.8599658e-39
-0.04233649 0.0098742722 0.90628582 8.1358128e-39
-0.038124479 0.00873686 0.90600002 8.1361771e-39
0.01906224 0.00873686 0.90600002 8.0457639e-39
0.022239279 0.00873686 0.90600002 7.7688295e-39
0.026416814 0.010129225 0.90625006 8.2290902e-39
0.030204087 0.010331809 0.90666676 8.322362e-39
0.033830564 0.011542193 0.90799999 8.5985832e-39
0.037412625 0.011940199 0.90799999 8.5063875e-39
-0.054128904 0.015124252 0.90799999 7.1205902e-39
-0.050076365 0.0143072 0.90666676 8.0425269e-39
-0.046861339 0.01350242 0.90600002 7.9521418e-39
0.034486663 0.014143789 0.90640002 8.2305181e-39
0.037943304 0.014593577 0.90799999 8.0457737e-39
0.040596679 0.015124252 0.90799999 8.0446933e-39
-0.057250716 0.019878417 0.90700001 7.2142292e-39
-0.054314759 0.01722124 0.9066667 7.1205902e-39
0.038124479 0.01667946 0.90600002 7.9517774e-39
0.042750474 0.017639935 0.90640002 8.1350897e-39
0.045870122 0.019355047 0.90733337 7.491151e-39
0.049352825 0.019900333 0.90799999 5.741955e-39
-0.061293025 0.023084387 0.90799999 7.3993239e-39
-0.059700996 0.021492358 0.90799999 7.3074968e-39
0.046861339 0.021445019 0.90600002 6.6603296e-39
0.050112601 0.022271423 0.90733337 6.2936854e-39
-0.064913079 0.027290046 0.9066667 7.1205818e-39
-0.062885053 0.02467641 0.90799999 7.1213091e-39
0.05067379 0.02557517 0.90600008 6.0178286e-39
0.053730898 0.026666446 0.90799999 6.4777194e-39
0.056516945 0.027860465 0.90799999 6.7518035e-39
-0.070011035 0.030231411 0.90750003 6.2908226e-39
-0.06703227 0.02993875 0.9066667 6.6606841e-39
0.051626898 0.029387617 0.90600002 6.8439992e-39
0.054039922 0.030198097 0.90649998 6.567778e-39
0.056516945 0.030248504 0.90799999 6.6596135e-39
-0.073010206 0.034516122 0.90720004 6.2901121e-39
-0.070159636 0.033094164 0.90600002 5.8316591e-39
-0.067512102 0.032564659 0.90600002 6.2025982e-39
0.058575653 0.033660199 0.90700006 6.3826679e-39
0.062089037 0.035024587 0.90799999 5.1877218e-39
-0.073112689 0.03814508 0.90649998 6.0146112e-39
0.0595695 0.037330218 0.90600002 6.1975535e-39
0.062021535 0.03816656 0.90700006 5.6475986e-39
0.064477071 0.039004654 0.90799999 6.2911953e-39
-0.077526256 0.042539373 0.90700006 6.4716321e-39
-0.074819289 0.041778076 0.90600008 6.4737915e-39
0.062111128 0.041778076 0.90600008 6.2908128e-39
0.06522575 0.042157143 0.90733337 6.3823049e-39
-0.08092802 0.046434112 0.90799999 5.3674285e-39
-0.078160092 0.04583564 0.9066667 5.6451e-39
0.066792354 0.046117924 0.90700006 6.2882932e-39
0.069253162 0.046964783 0.90799999 5.2727036e-39
-0.085173421 0.051740866 0.90799999 6.2868625e-39
-0.082052931 0.04986655 0.90650004 5.8266116e-39
-0.078631736 0.048449859 0.90600002 6.1957599e-39
0.067512102 0.048449859 0.90600002 4.629502e-39
0.070331022 0.049667984 0.90649998 4.1692357e-39
0.073647015 0.051059168 0.90720004 5.2744888e-39
-0.085173421 0.054128904 0.90799999 3.8948292e-39
-0.082603037 0.054009676 0.90600002 6.4745062e-39
0.074250512 0.053898513 0.90679997 4.7188109e-39
0.077213287 0.054924916 0.90799999 3.1525838e-39
-0.085173421 0.058904983 0.90799999 6.1953941e-39
-0.082603037 0.057980981 0.90600008 5.7358565e-39
0.075057566 0.057583854 0.90600002 3.3366388e-39
0.0780093 0.058108971 0.90799999 3.6135536e-39
0.080397345 0.056516945 0.90799999 4.1635072e-39
-0.085173421 0.062089041 0.90799999 6.1957627e-39
-0.083397299 0.061952278 0.90600002 5.82662e-39
0.075454697 0.061952278 0.90600002 4.0745303e-39
0.077743962 0.061823703 0.90799999 4.0734822e-39
-0.085735194 0.0663286 0.90720004 4.537326e-39
-0.083397299 0.064335056 0.90600002 5.2734519e-39
0.074660443 0.065923579 0.90600008 3.1532775e-39
0.077213287 0.066069096 0.90799999 3.0618203e-39
-0.086108536 0.069680974 0.9066667 6.2865262e-39
0.074660435 0.06989488 0.90600002 2.5990275e-39
0.077213287 0.070049167 0.90799999 2.1394955e-39
-0.088916436 0.074281715 0.90720004 4.5348036e-39
-0.086574338 0.072277658 0.90600002 6.3794435e-39
0.074660443 0.073866181 0.90600008 1.8622122e-39
0.077213287 0.074029237 0.90799999 1.8625695e-39
-0.089474 0.078031056 0.90640002 4.1663854e-39
0.07553798 0.077924266 0.90700001 1.9565546e-39
0.077213287 0.0780093 0.90799999 2.231352e-39
-0.090291657 0.08165925 0.90685719 2.8774389e-39
0.075099207 0.082250178 0.90649998 2.6001331e-39
0.077213287 0.08198937 0.90799999 2.5082906e-39
-0.089818582 0.085843198 0.90666676 2.9685345e-39
0.074925192 0.08551532 0.90600002 3.0600014e-39
0.077966779 0.08592166 0.90750003 2.2320611e-39
-0.088877514 0.089512222 0.90679997 2.3224588e-39
0.075454697 0.089751385 0.90600002 2.2298806e-39
0.07786642 0.08978381 0.90633339 1.954398e-39
0.080795348 0.090347506 0.90799999 1.6767195e-39
-0.088260166 0.093827002 0.90700001 1.4023074e-39
-0.086574338 0.09451694 0.90600002 1.4941373e-39
0.078631736 0.093722679 0.90600002 1.9536679e-39
0.08092802 0.093664229 0.90799999 1.7671186e-39
-0.088357478 0.096317604 0.90799999 1.5874161e-39
-0.086272761 0.098199815 0.90700001 2.0473195e-39
0.078631744 0.09769398 0.90600002 1.3075824e-39
0.080397353 0.097909644 0.90799999 5.7148314e-40
-0.085079618 0.10177837 0.90700001 1.8625667e-39
-0.083397299 0.10245954 0.90600002 1.8625611e-39
0.078718528 0.10177661 0.90700001 3.8563734e-40
0.080808796 0.10200425 0.9066667 1.1224947e-39
-0.082459852 0.10579204 0.90733337 2.5987108e-39
0.081103936 0.10495892 0.90700006 2.8706258e-39
-0.080927901 0.11018121 0.90679997 3.0582414e-39
0.078102231 0.11146116 0.90600002 1.3065315e-39
0.08022026 0.1111964 0.90600002 4.9839842e-39
-0.08092802 0.1138299 0.90799999 2.0440811e-39
-0.078631736 0.11516769 0.90600002 7.5550026e-40
0.075454697 0.11437343 0.90600002 7.4760254e-40
0.077924266 0.11449967 0.90700001 2.8681216e-39
0.080397345 0.1138299 0.90799999 6.364039e-39
-0.080397345 0.11780997 0.90799999 1.7656977e-39
-0.078631736 0.11755048 0.90600002 5.7293069e-40
0.070689142 0.11993326 0.90600002 1.5072366e-41
0.073663048 0.11792819 0.90628582 5.6502176e-40
0.0780093 0.11780997 0.90799999 5.0757959e-39
-0.078805313 0.12019801 0.90799999 1.0285222e-39
0.066982597 0.12258079 0.90600002 1.9766856e-40
0.069972903 0.12245104 0.90700006 3.8098923e-40
0.074347638 0.12115323 0.90799999 1.8550473e-39
0.077213287 0.12099402 0.90799999 6.0874381e-39
-0.077213287 0.12497409 0.90799999 1.66884e-39
-0.074743718 0.12722099 0.90700001 1.1210556e-39
0.066558987 0.12596963 0.90600008 1.051114e-40
0.069732994 0.125413 0.90733337 1.947931e-40
-0.073153451 0.13040152 0.90700001 1.3065216e-39
-0.070689142 0.1310529 0.90600002 1.0306704e-39
0.06274654 0.1310529 0.90600002 1.2562641e-41
0.065693885 0.12995355 0.90720004 3.7954029e-40
-0.069972903 0.13358209 0.90700001 8.4448411e-40
0.0595695 0.13581847 0.90600002 1.1120705e-41
0.061952278 0.13343567 0.90600002 1.0045909e-41
0.065273091 0.13373023 0.90799999 3.7595577e-40
-0.069253162 0.13611828 0.90799999 3.8385909e-40
-0.067586616 0.13835466 0.90700001 9.3270706e-40
0.058324989 0.13842146 0.90640002 1.0766176e-41
0.061691031 0.13731231 0.90799999 9.6913802e-42
0.064477071 0.13611828 0.90799999 6.5255947e-40
-0.065200329 0.14153519 0.90700001 9.3306299e-40
-0.06115802 0.14376105 0.90600002 9.330714e-40
0.054009676 0.14296679 0.90600002 1.0080381e-40
0.057740774 0.14140633 0.90720004 8.6095778e-42
-0.062089041 0.14487442 0.90799999 5.6428748e-40
-0.059083827 0.14651671 0.9066667 1.947917e-40
0.050038379 0.14693812 0.90600002 5.0222537e-42
0.054099537 0.14559022 0.90750003 5.0222537e-42
0.056516945 0.1440784 0.90799999 6.8159157e-42
-0.057006128 0.14927588 0.90733337 1.0761972e-41
-0.054803938 0.15011515 0.90600002 1.9550916e-40
0.0436843 0.15170366 0.90600002 4.6635213e-42
0.046067081 0.15011515 0.90600002 4.6635213e-42
0.049051836 0.14927588 0.90733337 4.3047889e-42
-0.053332891 0.15203853 0.90799999 1.040324e-41
-0.050113186 0.15457796 0.90733337 7.5347818e-42
0.042984717 0.15442657 0.90799999 7.1746481e-43
0.046168771 0.15283455 0.90799999 1.4349296e-42
-0.048503336 0.15743794 0.90700001 1.9192184e-40
-0.046117924 0.15743794 0.90700001 9.3270426e-42
-0.042451356 0.15915182 0.90679997 7.1746481e-42
0.0277991 0.15964626 0.90600002 5.7397185e-42
0.030181877 0.15964626 0.90600002 4.3047889e-42
0.034172025 0.15894011 0.90649998 3.2327956e-42
0.037943304 0.15734529 0.90799999 2.5111268e-42
-0.040596679 0.16159071 0.90799999 7.5333805e-42
-0.037915833 0.16200274 0.90733337 7.1746481e-42
-0.034570035 0.16251603 0.90649998 7.1746481e-42
-0.030976139 0.1628233 0.90600002 8.2508454e-42
0.01826798 0.1628233 0.90600002 3.9460565e-42
0.022504032 0.16229379 0.90600002 4.3047889e-42
0.026239511 0.16220874 0.90700006 3.5873241e-42
0.029983168 0.16212139 0.90799999 2.5111268e-42
0.032636546 0.16159071 0.90799999 3.5873241e-43
-0.033432558 0.16477475 0.90799999 5.7397185e-42
-0.029961545 0.16518445 0.90733337 7.5333805e-42
-0.026235377 0.16615839 0.90685725 8.6095778e-42
-0.022264704 0.16777384 0.90700001 6.0984509e-42
-0.01906224 0.16758886 0.90600002 6.0984509e-42
-0.01350242 0.16758886 0.90600002 6.0984509e-42
-0.0099282498 0.16719171 0.90600002 5.0222537e-42
-0.0063540796 0.16758886 0.90600002 5.3809861e-42
-0.00238278 0.16758887 0.90600002 4.6635213e-42
0.00238278 0.16758887 0.90600002 3.5873241e-42
0.0066188332 0.16705935 0.90600002 3.9460565e-42
0.010559325 0.1665599 0.90657151 2.8698593e-42
0.0143072 0.16612366 0.9066667 2.5111268e-42
0.018295448 0.16544978 0.90733337 3.5873241e-42
0.022288375 0.16636679 0.90799999 1.0761972e-42
0.02467641 0.16557077 0.90799999 3.5873241e-43
-0.021492358 0.17034684 0.90799999 7.1746481e-43
-0.018295448 0.17022237 0.90733337 7.1746481e-43
-0.014319911 0.17025349 0.90750003 7.1746481e-43
-0.010348173 0.17034684 0.90799999 1.793662e-42
-0.0063681067 0.17034684 0.90799999 2.1523944e-42
-0.0023877476 0.17028461 0.90766668 1.0761972e-42
0.0023877476 0.1702846 0.90766668 1.0761972e-42
0.0063681062 0.17034684 0.90799999 3.5873241e-43
0.0087561458 0.17034684 0.90799999 0
0.0023880401 0.1727349 0.90799999 0
-0.024730766 -0.00079776667 0.91000003 8.3223564e-39
-0.021539701 -0.0023932999 0.91000003 8.8744456e-39
-0.019944165 -0.0023932999 0.91000003 8.8744456e-39
-0.011168733 -0.00079776667 0.91000003 9.6112946e-39
-0.0063821333 -0.0023932999 0.91000003 9.0577649e-39
-0.0020741932 -0.0030315132 0.91000003 8.6900543e-39
0.0023933002 -0.0023933002 0.91000003 8.6904187e-39
0.0063821333 -0.00079776667 0.91000003 8.7822542e-39
0.0087754335 -0.00079776667 0.91000003 8.8744512e-39
-0.035899498 0.0039888332 0.91000003 8.6897096e-39
-0.029517367 0.0023932999 0.91000003 8.7808108e-39
-0.027124066 0.00079776667 0.91000003 9.0570432e-39
0.010370967 0.00079776667 0.91000003 8.8737267e-39
0.0143598 0.0015955333 0.91000003 8.8744484e-39
0.018348634 0.0023933002 0.91000003 8.7819109e-39
0.022071546 0.0034569888 0.91000003 8.6904201e-39
-0.0454727 0.0071799001 0.91000003 8.4109675e-39
-0.042281635 0.0061162114 0.91000003 8.4131115e-39
-0.037495032 0.0055843666 0.91000003 8.7815297e-39
0.026326299 0.0055843666 0.91000003 8.414545e-39
0.030315135 0.0071799001 0.91000003 8.1376064e-39
-0.050259303 0.010902811 0.91000003 8.1357903e-39
0.034303963 0.0095731998 0.91000003 8.5985832e-39
0.038292799 0.011168733 0.91000003 8.5982272e-39
-0.054248132 0.013562033 0.91000003 7.7659484e-39
0.039090566 0.013562033 0.91000003 7.7713505e-39
0.042281635 0.014625723 0.91000003 8.0446891e-39
-0.058236964 0.019146398 0.91000003 7.3060717e-39
0.046270467 0.017550867 0.91000003 7.3993113e-39
0.051854834 0.019944165 0.91000003 5.2809894e-39
-0.062225796 0.022337466 0.91000003 7.490442e-39
0.053982209 0.022603389 0.91000003 7.0301799e-39
0.05664143 0.023135234 0.91000003 7.2149327e-39
-0.070203468 0.027921833 0.91000003 5.7390977e-39
-0.067278318 0.026858144 0.91000003 6.1082334e-39
0.055045899 0.025528532 0.91000003 6.7532258e-39
0.05664143 0.025528532 0.91000003 6.9376171e-39
-0.072596766 0.0311129 0.91000003 6.752507e-39
-0.0741923 0.032708433 0.91000003 6.8440048e-39
0.061428029 0.032708433 0.91000003 6.0145916e-39
-0.077383369 0.039090566 0.91000003 5.1837744e-39
-0.075787835 0.038292799 0.91000003 4.9093441e-39
0.065416858 0.038292799 0.91000003 5.9234904e-39
-0.080574431 0.043079399 0.91000003 7.2080999e-39
-0.078978904 0.042281631 0.91000003 7.2091943e-39
0.067810163 0.042281635 0.91000003 6.3822783e-39
-0.082967728 0.046270467 0.91000003 6.1950144e-39
0.070203468 0.046270467 0.91000003 5.1837589e-39
-0.085361034 0.049461532 0.91000003 6.4723216e-39
0.0741923 0.049461532 0.91000003 4.8135121e-39
-0.086956568 0.054248132 0.91000003 4.1685238e-39
0.078181133 0.054248132 0.91000003 3.6135662e-39
-0.086557686 0.057838082 0.91000003 4.8146051e-39
-0.086956568 0.062225796 0.91000003 6.6563429e-39
0.078978904 0.06302356 0.91000003 3.7961932e-39
-0.088552095 0.067810163 0.91000003 3.5246034e-39
-0.086956568 0.064619094 0.91000003 5.18231e-39
0.078978904 0.064619094 0.91000003 3.2465941e-39
-0.088552095 0.070203468 0.91000003 4.9968664e-39
0.078978904 0.071001232 0.91000003 2.968889e-39
-0.091211319 0.0741923 0.91000003 4.2585727e-39
0.078978904 0.073394537 0.91000003 3.0611001e-39
-0.091743164 0.077383369 0.91000003 4.3504068e-39
0.078978904 0.078181133 0.91000003 2.6004933e-39
-0.093338698 0.082967728 0.91000003 1.5867267e-39
0.078978911 0.082169965 0.91000003 2.5079319e-39
-0.093338698 0.086158797 0.91000003 2.0466314e-39
0.080574431 0.086158797 0.91000003 2.1398626e-39
-0.090945393 0.090147629 0.91000003 1.6792292e-39
0.082169965 0.089349866 0.91000003 2.138771e-39
-0.090147629 0.094136462 0.91000003 1.8618324e-39
0.083233654 0.094402395 0.91000003 1.578431e-39
0.085361034 0.094934233 0.91000003 6.1860699e-39
-0.088552095 0.098125294 0.91000003 1.8625611e-39
0.082967728 0.098125301 0.91000003 2.0401448e-39
0.085999243 0.098444395 0.91000003 8.3008311e-39
-0.086956568 0.10131636 0.91000003 2.0462363e-39
0.082169965 0.10131636 0.91000003 2.5079333e-39
-0.085361034 0.10450743 0.91000003 1.4019515e-39
-0.083765499 0.10690074 0.91000003 2.8770381e-39
-0.083765499 0.11009181 0.91000003 2.7830642e-39
-0.082169965 0.11487839 0.91000003 3.0582218e-39
-0.082169965 0.11806946 0.91000003 2.9642409e-39
-0.080574438 0.1220583 0.91000003 1.1203227e-39
-0.078978904 0.12285607 0.91000003 8.4447851e-40
0.072596766 0.12365383 0.91000003 9.3368517e-42
-0.078181133 0.12604713 0.91000003 1.3025826e-39
0.071001232 0.1268449 0.91000003 1.0044507e-40
0.072596766 0.12524937 0.91000003 9.3272107e-40
-0.074990064 0.13003597 0.91000003 1.3972837e-39
0.067810163 0.13083375 0.91000003 1.0761972e-41
0.069405705 0.1292382 0.91000003 1.1479437e-41
-0.072596766 0.13322704 0.91000003 4.7570439e-40
-0.071001232 0.13482256 0.91000003 1.3929734e-39
0.067810163 0.1340248 0.91000003 9.2699537e-40
0.06302356 0.13881139 0.91000003 2.8556501e-40
0.065576412 0.13833274 0.91000003 1.7585525e-39
-0.067012399 0.14200246 0.91000003 6.5648171e-40
0.059832498 0.14280023 0.91000003 6.8187183e-42
0.062225796 0.14200246 0.91000003 1.2943345e-39
0.065416858 0.14200246 0.91000003 2.6769033e-39
-0.065150939 0.14492762 0.91000003 7.4616341e-40
-0.062491715 0.147055 0.91000003 1.0331493e-40
0.055045899 0.14758684 0.91000003 2.5111268e-42
0.057173274 0.14599131 0.91000003 9.6500419e-41
0.06302356 0.14439577 0.91000003 1.8475097e-39
0.064619094 0.14439577 0.91000003 2.4921491e-39
-0.059300654 0.15024605 0.91000003 1.0044507e-41
0.051057067 0.14998013 0.91000003 1.4349296e-42
-0.05664143 0.15237342 0.91000003 4.6922199e-40
-0.054248132 0.15396896 0.91000003 9.972901e-41
-0.051854834 0.1555645 0.91000003 6.0984509e-42
0.046270467 0.1555645 0.91000003 0
0.048663765 0.15317118 0.91000003 3.5873241e-43
-0.051057067 0.15716003 0.91000003 5.7397185e-42
0.040686097 0.15716003 0.91000003 0
-0.046270467 0.1603511 0.91000003 8.6123804e-42
-0.043079399 0.16194664 0.91000003 1.0775985e-42
-0.039090566 0.16354217 0.91000003 4.3047889e-42
0.0311129 0.16354217 0.91000003 1.4349296e-42
0.034303963 0.16194664 0.91000003 0
-0.037495032 0.16513771 0.91000003 2.1523944e-42
-0.034303963 0.16593547 0.91000003 4.6635213e-42
