# .PCD v0.7 - Point Cloud Data file format
VERSION 0.7
FIELDS x y z rgb
SIZE 4 4 4 4
TYPE F F F F
COUNT 1 1 1 1
WIDTH 1004
HEIGHT 1
VIEWPOINT 0 0 0 1 0 0 0
POINTS 1004
DATA ascii
0.038016647 0.03336155 0.88499999 7.3986121e-39
0.041895896 0.03336155 0.88499999 7.0309113e-39
0.045810215 0.034162529 0.88566673 7.0309198e-39
0.049766615 0.034214549 0.88700002 6.6639281e-39
0.053654633 0.034214552 0.88700002 6.9397961e-39
0.05832025 0.034214549 0.88700002 6.9390787e-39
0.062208265 0.034214549 0.88700002 7.2145893e-39
0.066407323 0.034370072 0.88700002 6.8465271e-39
0.069984302 0.034214549 0.88700002 7.123107e-39
0.073843971 0.034201395 0.88666666 7.2160187e-39
0.078120641 0.034322727 0.8858 7.859956e-39
0.081847526 0.034012388 0.8858 6.7543315e-39
0.086119346 0.034137398 0.88500011 7.3071101e-39
0.089998595 0.034137398 0.88499999 6.6624806e-39
0.093949154 0.034162533 0.88566673 6.4762858e-39
0.09771882 0.034473747 0.88700002 5.5543421e-39
0.017884878 0.038102563 0.88700002 4.2657739e-39
0.021723799 0.038016647 0.88500011 5.2795601e-39
0.024051348 0.036464948 0.88499999 6.0163923e-39
0.046550997 0.036464948 0.88499999 6.8472432e-39
0.050430249 0.037240796 0.88500011 6.2043807e-39
0.054309495 0.037240796 0.88499999 7.3075179e-39
0.058211252 0.037254535 0.88533342 7.0302023e-39
0.061996639 0.037756458 0.88620007 6.6628477e-39
0.06602177 0.037282005 0.88600004 6.8472418e-39
0.069567882 0.036982182 0.88499999 6.940152e-39
0.073705748 0.036464952 0.88499999 7.1241832e-39
0.077584997 0.036464948 0.88499999 7.5837194e-39
0.097904965 0.038073346 0.88633341 5.5554337e-39
0.10082924 0.039139368 0.88700002 6.4752489e-39
0.014774463 0.041990578 0.88700002 3.348107e-39
0.017863542 0.041942947 0.88600004 5.8298584e-39
0.02094795 0.041120049 0.88499999 5.3706866e-39
0.097812764 0.041919131 0.88550001 5.1873687e-39
0.10108843 0.041990578 0.88700002 5.5550876e-39
0.01166405 0.047433805 0.88700002 6.1068027e-39
0.013996861 0.045878597 0.88700002 5.5546869e-39
0.017401207 0.045553483 0.88500011 5.8287738e-39
0.098532945 0.045775145 0.88499999 4.9079049e-39
0.10181577 0.045855217 0.88655555 4.2675648e-39
0.011145648 0.050025817 0.88700002 5.7391019e-39
0.014139055 0.050186884 0.88620007 5.9224002e-39
0.016680773 0.050042324 0.88499999 5.0029802e-39
0.102113 0.050224356 0.88528585 5.0955346e-39
0.10575405 0.049766615 0.88700002 4.8182218e-39
0.10808686 0.050544217 0.88700002 4.2671934e-39
0.010108843 0.053654633 0.88700002 5.5550554e-39
0.013828014 0.053916574 0.88619995 4.3601262e-39
0.016292848 0.054309495 0.88499999 4.8193036e-39
0.10318805 0.054309495 0.88499999 4.5441587e-39
0.10567515 0.053613719 0.88633335 3.8076712e-39
0.10919774 0.053876802 0.88700008 4.7274667e-39
0.00699843 0.058320254 0.88700002 4.0817176e-39
0.010100466 0.05827564 0.88633335 3.6225513e-39
0.01381013 0.057878405 0.88500005 4.7271066e-39
0.10603283 0.058188744 0.88500011 4.5430713e-39
0.10983647 0.05812585 0.88700002 4.3583311e-39
0.11327088 0.059357058 0.88700002 3.2537632e-39
0.00699843 0.062208265 0.88700002 3.8051433e-39
0.0097795669 0.061940528 0.8854 4.6338278e-39
0.10706729 0.062067993 0.88499999 4.0810155e-39
0.11041967 0.062208265 0.88700002 4.2639663e-39
0.11353008 0.062208265 0.88700002 2.5169394e-39
0.006376348 0.066407323 0.88700002 3.6178654e-39
0.0093101999 0.06594725 0.88500011 4.6302236e-39
0.10722246 0.06563691 0.88500005 3.9884556e-39
0.11041968 0.066096283 0.88700002 3.7118869e-39
0.11353009 0.066096283 0.88700002 4.1717706e-39
0.0062208269 0.069984294 0.88700002 3.4338398e-39
0.0093101989 0.069826491 0.88499999 4.0781359e-39
0.10784315 0.069826499 0.88499999 4.4472771e-39
0.11041967 0.069984294 0.88700002 4.3561661e-39
0.11353008 0.069984294 0.88700002 4.5376777e-39
0.0062208269 0.07387232 0.88700002 4.4454905e-39
0.0098993191 0.073962167 0.88575006 3.9859458e-39
0.10784315 0.073705748 0.88499999 4.4462009e-39
0.11037847 0.073843978 0.88666672 4.0774296e-39
0.11275248 0.073872313 0.88700002 3.6164501e-39
0.0062208269 0.077760339 0.88700002 4.1685308e-39
0.010284834 0.078210719 0.88550007 3.892667e-39
0.10784315 0.078360848 0.88499999 3.3395002e-39
0.11035787 0.077716939 0.88650006 3.6157186e-39
0.11275248 0.077760339 0.88700002 3.0636196e-39
0.0062208269 0.08164835 0.88700002 3.7997511e-39
0.0098726433 0.081986487 0.88585722 3.9845165e-39
0.10706729 0.082240097 0.88499999 3.2483794e-39
0.11008643 0.081870526 0.88700008 3.0636294e-39
0.0062208269 0.086313978 0.88700002 4.166384e-39
0.0096454611 0.086369321 0.88528585 4.3507655e-39
0.10629144 0.086119346 0.88499999 3.4316959e-39
0.10944767 0.086508371 0.88700002 3.1547446e-39
0.0064800284 0.089942798 0.88700002 2.9699792e-39
0.010104461 0.090168379 0.88666666 3.3384072e-39
0.01318945 0.090774447 0.88499999 2.7873914e-39
0.10318805 0.089998595 0.88499999 3.1533139e-39
0.1056357 0.090100288 0.88600004 3.1529538e-39
0.10886446 0.090201989 0.88700002 3.0611155e-39
0.010303243 0.093895592 0.88700002 2.8770829e-39
0.01381013 0.094188191 0.88500005 2.9699848e-39
0.10241219 0.093877852 0.88500011 2.3257098e-39
0.10567515 0.094019875 0.88633341 2.6012163e-39
0.10886447 0.09409 0.88700002 2.6926889e-39
0.010886447 0.097978018 0.88700002 2.6008548e-39
0.013988531 0.097923219 0.8865 2.6001331e-39
0.016810082 0.098015711 0.88499999 2.0494873e-39
0.1025288 0.097867556 0.88599998 2.4186201e-39
0.10575405 0.097978018 0.88700002 2.142029e-39
0.10808686 0.097200416 0.88700002 1.7746842e-39
0.01166405 0.10108843 0.88700002 1.4055276e-39
0.013996861 0.10186603 0.88700002 1.7725333e-39
0.017660229 0.10188861 0.88550007 1.7718214e-39
0.02094795 0.10241219 0.88499999 2.0480355e-39
0.10171408 0.1017129 0.88566673 2.6012177e-39
0.10559852 0.10155499 0.88700002 2.6012107e-39
0.014774463 0.10575405 0.88700002 2.878885e-39
0.017884878 0.10575406 0.88700002 2.4157587e-39
0.021878971 0.1059811 0.88500005 1.4963065e-39
0.025292708 0.10722248 0.88500005 1.4963107e-39
0.098532945 0.10706729 0.88499999 2.4171824e-39
0.10179065 0.10567456 0.88633335 2.2335268e-39
0.10497645 0.10497645 0.88700002 2.1409556e-39
0.01827368 0.10847566 0.88700002 2.5075788e-39
0.021772893 0.10964207 0.88700002 2.0476754e-39
0.025630809 0.11029547 0.88600004 2.0473153e-39
0.028706448 0.11017069 0.88499999 3.5216971e-39
0.09542954 0.11094654 0.88499999 1.8647275e-39
0.097868435 0.11029518 0.88600004 2.0476824e-39
0.10134763 0.10912367 0.88700002 2.6008534e-39
0.026105257 0.11408553 0.88700008 1.4051969e-39
0.030265357 0.11407898 0.88522232 1.4062535e-39
0.094431028 0.11461072 0.88533342 1.4944974e-39
0.097941488 0.11426532 0.88666672 1.6792586e-39
0.10031083 0.11275248 0.88700002 1.8632869e-39
0.027216116 0.1181957 0.88700002 1.7736263e-39
0.03029117 0.11806273 0.88600004 1.6814152e-39
0.03336155 0.11792919 0.88499999 1.0385668e-39
0.066723101 0.11870504 0.88499999 2.0304394e-40
0.069826499 0.11870504 0.88499999 2.0089015e-41
0.072154045 0.11870504 0.88499999 5.7473135e-40
0.078360848 0.11870505 0.88499999 1.937155e-41
0.082240097 0.11870504 0.88499999 2.0304394e-40
0.086119346 0.11870505 0.88499999 1.1246345e-39
0.089998588 0.11792919 0.88499999 2.9703744e-40
0.09401986 0.11810745 0.88633341 4.8108538e-40
0.097200416 0.1174181 0.88700002 1.0342479e-39
0.027216116 0.12130612 0.88700002 2.1406235e-39
0.030326532 0.12208372 0.88700002 2.5997576e-39
0.034175683 0.12194726 0.88600004 2.9685471e-39
0.036982179 0.12284291 0.88499999 1.4023102e-39
0.054309495 0.12336014 0.88499999 3.8887574e-40
0.058233168 0.12267722 0.88566673 2.0091817e-41
0.062161516 0.12199314 0.88633335 1.1264618e-40
0.066072024 0.12126082 0.88666672 3.8995614e-40
0.069984302 0.12052851 0.88700002 2.0451951e-41
0.073872313 0.12052851 0.88700002 1.1336364e-40
0.077760339 0.12052851 0.88700002 6.6617028e-40
0.08194422 0.12078144 0.88600004 4.8143851e-40
0.086275749 0.12109625 0.88660002 5.7398166e-40
0.090201981 0.12130612 0.88700002 8.4950496e-40
0.093312398 0.12052851 0.88700002 4.8073506e-40
0.031104133 0.12519413 0.88700002 1.9547469e-39
0.034214549 0.12519413 0.88700002 1.0324403e-39
0.038073342 0.12587765 0.88633335 6.6365776e-40
0.041943237 0.12583059 0.88599998 3.8707787e-40
0.045826875 0.12583059 0.88600004 1.1235639e-39
0.050164796 0.12564684 0.8858 1.1246513e-39
0.053941477 0.12607081 0.88660002 2.9670113e-40
0.057542644 0.12519413 0.88700002 1.1194973e-40
0.029682178 0.019527748 0.89099997 7.4915518e-39
0.033587731 0.019527748 0.89099997 7.4000596e-39
0.038274389 0.018746637 0.89099997 7.2156655e-39
0.042179935 0.018746639 0.89099997 6.8472418e-39
0.045694932 0.019137193 0.89099997 6.9383626e-39
0.049991034 0.019527748 0.89099997 6.3844545e-39
0.053896587 0.019527748 0.89099997 7.0298267e-39
0.057021026 0.019527748 0.89099997 6.8468858e-39
0.063269906 0.019527748 0.89099997 5.5590043e-39
0.065613233 0.019527748 0.89099997 7.216383e-39
0.074986547 0.019527748 0.89099997 5.9249295e-39
0.078111 0.018746639 0.89099997 6.9376353e-39
0.08201655 0.018902861 0.89099997 7.0291093e-39
0.085661724 0.019007009 0.89099997 6.846869e-39
0.089827642 0.019527748 0.89099997 7.4908091e-39
0.093733191 0.019527748 0.89099997 7.0301925e-39
0.022652188 0.022652188 0.89099997 6.939422e-39
0.026167182 0.022261633 0.89099997 7.1245475e-39
0.030109817 0.021996794 0.88980001 7.8588938e-39
0.033869315 0.021694519 0.89019996 6.9387269e-39
0.038216531 0.021837767 0.88966668 6.6628547e-39
0.042109367 0.021833822 0.88950002 6.5706619e-39
0.046015941 0.021837767 0.88966668 7.1213091e-39
0.049907316 0.021833822 0.88950002 6.9365535e-39
0.053877007 0.021862604 0.89066666 6.8461628e-39
0.057802133 0.021871079 0.89099997 7.0312827e-39
0.06168402 0.021862604 0.8906666 6.5713807e-39
0.066344671 0.021854131 0.89033329 6.4784648e-39
0.070220992 0.021845656 0.88999999 6.7543287e-39
0.074205443 0.021871079 0.89099997 7.4897357e-39
0.078023329 0.021845656 0.88999999 6.4773802e-39
0.081862547 0.021829877 0.88933337 6.8450922e-39
0.085729226 0.021821987 0.889 7.489007e-39
0.089693807 0.021837767 0.88966668 7.3067724e-39
0.093628004 0.021845656 0.88999999 6.6628463e-39
0.096597269 0.022131449 0.89099997 6.6621288e-39
0.018746639 0.027338848 0.89099997 6.3841056e-39
0.022007665 0.026064528 0.89019996 6.7532342e-39
0.025737276 0.025737274 0.88966668 6.8457956e-39
0.030172236 0.025273422 0.88900006 7.0302009e-39
0.034291692 0.025718769 0.88900006 6.7546916e-39
0.037743133 0.025496097 0.88900006 6.8465187e-39
0.04208526 0.024160055 0.889 6.4781061e-39
0.046293784 0.024783542 0.88900006 6.8454383e-39
0.049878828 0.024939412 0.889 7.2135005e-39
0.053803273 0.025731236 0.88944447 6.4784634e-39
0.057802141 0.025776628 0.89099997 6.7543385e-39
0.061660349 0.025757341 0.89033329 6.6628575e-39
0.066245317 0.025718769 0.88900006 6.5703031e-39
0.070142098 0.025718769 0.88900006 6.5702933e-39
0.074075505 0.025730845 0.88944447 6.8458138e-39
0.077935666 0.025718769 0.88900006 6.9376437e-39
0.081637606 0.025523929 0.889 7.2135202e-39
0.085729226 0.024939412 0.889 7.1213175e-39
0.089626014 0.024939414 0.88900006 7.582646e-39
0.094524831 0.025273424 0.88900006 7.0305526e-39
0.098175973 0.026065225 0.89020008 6.2929946e-39
0.10076318 0.027338848 0.89099997 5.7401753e-39
0.014320349 0.02994255 0.89099997 5.5564945e-39
0.017734967 0.030208178 0.88924998 6.0167524e-39
0.021821987 0.028836196 0.889 6.2933477e-39
0.024160055 0.028836196 0.889 6.3855419e-39
0.054295179 0.029875338 0.88900006 6.4788236e-39
0.057672393 0.03039491 0.88900006 6.7546888e-39
0.06156918 0.030394908 0.88900006 6.6635736e-39
0.066245317 0.030394908 0.88900006 6.8468886e-39
0.070142105 0.03039491 0.88900006 7.0309184e-39
0.073727138 0.029459683 0.88900006 6.7547014e-39
0.077935666 0.028836196 0.889 6.8454509e-39
0.080273733 0.028836196 0.889 8.043641e-39
0.098236054 0.030405721 0.88933337 5.739811e-39
0.10128392 0.029942548 0.89099997 5.1870086e-39
0.014048876 0.033562012 0.89033335 5.2788413e-39
0.016366489 0.034291692 0.889 4.8185778e-39
0.064686604 0.033512335 0.889 7.030917e-39
0.098978296 0.033512335 0.889 4.3565122e-39
0.10201616 0.033744432 0.88999993 5.0033236e-39
0.10544984 0.035149947 0.89099997 5.4628696e-39
0.011326094 0.038664941 0.89099997 5.1852079e-39
0.014028421 0.03818848 0.88900006 4.5427083e-39
0.10261529 0.037668906 0.88900006 4.8182274e-39
0.10578123 0.038642589 0.89050001 4.2668529e-39
0.10857429 0.039836608 0.89099997 4.4530659e-39
0.010928964 0.042155832 0.89049995 4.4508756e-39
0.013249063 0.04208526 0.889 2.7023775e-39
0.10365443 0.04208526 0.889 4.4516085e-39
0.1059925 0.04208526 0.889 4.4512456e-39
0.10857429 0.042179935 0.89099997 5.0962521e-39
0.0070299897 0.047647707 0.89099997 3.7144078e-39
0.010131637 0.04598204 0.88900006 5.0937269e-39
0.1059925 0.045982044 0.88900006 6.0146014e-39
0.10955039 0.046249051 0.88985711 5.0940913e-39
0.0039055499 0.050772145 0.89099997 5.6468657e-39
0.0065039899 0.050213419 0.89033335 5.9227673e-39
0.0090924948 0.049619041 0.88900006 5.7391103e-39
0.11025117 0.049745049 0.88940001 4.2654166e-39
0.11326094 0.049991034 0.89099997 5.0908585e-39
0.0035149949 0.054287143 0.89099997 5.1837351e-39
0.0062348535 0.053775609 0.88900006 5.8298234e-39
0.111448 0.052996252 0.889 6.291554e-39
0.11373259 0.054135043 0.88980001 5.644007e-39
0.1171665 0.055458806 0.89099997 4.5412748e-39
0.0031222482 0.057769261 0.89050001 5.0930053e-39
0.0054554963 0.057672393 0.889 4.5409175e-39
0.11404586 0.057412606 0.88900006 5.0937213e-39
0.11758292 0.057932056 0.89060003 4.9071749e-39
-0.00078110996 0.063269906 0.89099997 3.8018923e-39
0.0023398234 0.061645739 0.89011109 4.6316614e-39
0.0054554967 0.061569177 0.88900006 3.9888227e-39
0.11777227 0.061615348 0.88966668 4.1706972e-39
-0.00078110996 0.066394344 0.89099997 4.2617928e-39
0.0023386546 0.066294998 0.88966668 3.4327552e-39
0.0054554963 0.064686604 0.889 3.5264054e-39
0.11777227 0.066294998 0.88966668 3.7104464e-39
0.12107204 0.066394344 0.89099997 4.1696154e-39
0.0023386544 0.070194699 0.88966668 4.1706734e-39
0.11768286 0.070142105 0.88900006 4.2607461e-39
0.12107204 0.070299894 0.89099997 3.062549e-39
0.0023386546 0.074094392 0.88966668 4.7213305e-39
0.11456542 0.074038886 0.88900006 3.7086457e-39
0.1178017 0.074113302 0.88988888 3.7079254e-39
0.0023386544 0.077994108 0.88966668 3.8930215e-39
0.11456542 0.077935666 0.889 2.8788696e-39
0.11786052 0.078052551 0.89033329 2.3274993e-39
0.0023398234 0.081934333 0.89011109 3.8001028e-39
0.11378606 0.081832446 0.88900006 2.8795955e-39
0.11707942 0.08195518 0.89033329 2.6033813e-39
0.002339531 0.085825965 0.88999999 3.8912335e-39
0.111448 0.084949873 0.889 2.8792367e-39
0.11378607 0.085729226 0.889 3.0618273e-39
0.11710119 0.085874319 0.89050001 3.0618329e-39
-0.00078110996 0.090608746 0.89099997 3.245141e-39
0.0023386546 0.089693226 0.88966668 3.3387702e-39
0.0054554963 0.091184728 0.889 3.3380471e-39
0.111448 0.090405375 0.889 2.508299e-39
0.11378607 0.089626014 0.88900006 2.6008562e-39
0.11701027 0.089515202 0.89099997 2.6008562e-39
0.0028579335 0.093817353 0.88933337 3.1525754e-39
0.0062348535 0.094302163 0.88900006 3.0614518e-39
0.008572923 0.095860869 0.889 3.6153416e-39
0.111448 0.094302163 0.88900006 2.6926889e-39
0.1136302 0.093990423 0.88900006 2.5082976e-39
0.11638539 0.093733191 0.89099997 1.7732465e-39
0.0029682179 0.097951196 0.89099997 2.4171796e-39
0.0062348531 0.098198943 0.889 1.6810565e-39
0.008572923 0.098198935 0.889 2.1420346e-39
0.11020102 0.098354809 0.88900006 1.9569245e-39
0.11397849 0.097583957 0.89049995 1.8643758e-39
0.0039055499 0.10076318 0.89099997 1.2208042e-39
0.006244204 0.10225 0.89033329 1.4048269e-39
0.0096862894 0.10231839 0.88900006 1.1282302e-39
0.10677186 0.10365443 0.889 2.6926903e-39
0.10978802 0.10198701 0.88974994 2.324642e-39
0.11326094 0.10076318 0.89099997 1.2208042e-39
0.0070299897 0.10544984 0.89099997 2.8759927e-39
0.010138066 0.10607199 0.88966668 2.5994058e-39
0.013249063 0.1059925 0.889 1.95657e-39
0.10625228 0.10625228 0.88900006 1.7732563e-39
0.10909502 0.10597058 0.89099997 1.8647345e-39
0.010922389 0.10845242 0.88999999 3.3369555e-39
0.014196915 0.10967713 0.88980001 1.4966638e-39
0.017620824 0.11087465 0.88940001 1.3118984e-39
0.02104263 0.111448 0.889 1.9594469e-39
0.10313486 0.11092843 0.88900006 2.3249784e-39
0.10611203 0.11001407 0.88999999 2.2327827e-39
0.10857429 0.10857429 0.89099997 1.8643589e-39
0.018252375 0.11373259 0.88980001 1.0363947e-39
0.021821987 0.11378607 0.889 2.0505747e-39
0.024160055 0.11456542 0.889 1.497066e-39
0.1024541 0.11399349 0.88940001 1.6799747e-39
0.10597058 0.11378168 0.89099997 1.8639974e-39
0.019137193 0.11755705 0.89099997 1.4044752e-39
0.021837767 0.11777169 0.88966668 1.0371332e-39
0.024783542 0.1179946 0.88900006 1.313004e-39
0.09845873 0.11872199 0.88900006 1.0317438e-39
0.10204487 0.11765392 0.89024991 1.1253674e-39
0.10544984 0.11638539 0.89099997 1.4026577e-39
0.019527748 0.12185315 0.89099997 1.9562309e-39
0.021845656 0.1217164 0.88999999 1.4963275e-39
0.025273422 0.12258167 0.88900006 1.7718242e-39
0.066245317 0.12391771 0.88900006 1.2179161e-39
0.070142105 0.12313835 0.889 1.1336785e-40
0.073649198 0.12274867 0.889 2.1172218e-41
0.077935666 0.12235899 0.889 1.3115551e-39
0.081832446 0.12313835 0.889 6.6657246e-40
0.085989021 0.12339814 0.88900006 2.0520334e-40
0.089626014 0.12391771 0.88900006 6.6582276e-40
0.094691835 0.12196931 0.889 2.0449569e-40
0.098086439 0.12150221 0.89033335 2.0269922e-40
0.10076318 0.12107204 0.89099997 6.6296692e-40
0.022261633 0.12536815 0.89099997 3.2422711e-39
0.025736887 0.12635046 0.88966668 1.2171959e-39
0.030005231 0.12664545 0.889 4.8106716e-40
0.034291692 0.12703513 0.889 1.6871634e-41
0.057672393 0.12703513 0.889 1.1231127e-40
0.061592847 0.12630342 0.88933337 2.0556768e-40
0.066319838 0.12639868 0.88999999 7.5800718e-40
0.070299894 0.12575869 0.89099997 5.7397605e-40
0.074205443 0.12471722 0.89099997 2.9668431e-40
0.078111 0.12497759 0.89099997 1.2197196e-39
0.082016543 0.12497759 0.89099997 7.5838974e-40
0.085922092 0.12575869 0.89099997 4.8107417e-40
0.088265426 0.12575869 0.89099997 4.8107137e-40
0.093733191 0.12419648 0.89099997 4.8107137e-40
0.025736887 0.12947023 0.88966668 1.1246289e-39
0.030394908 0.13015255 0.88900006 9.384706e-40
0.034291692 0.13015255 0.88900006 3.8672474e-40
0.037993636 0.12995772 0.889 8.4840915e-40
0.042109367 0.1294464 0.88949996 9.4204671e-40
0.045982044 0.12937321 0.88900006 9.4204671e-40
0.049878828 0.12937319 0.889 1.1260848e-39
0.053775609 0.12937321 0.88900006 3.8994913e-40
0.057455271 0.12921104 0.88966668 5.743432e-40
0.061707687 0.12888315 0.89099997 3.9069182e-40
0.026818108 0.13252833 0.89099997 9.3776014e-40
0.029682178 0.13356979 0.89099997 1.3665463e-41
0.033900172 0.13419467 0.89099997 1.0835681e-40
0.03849756 0.13401614 0.89099997 2.0269222e-40
0.041789379 0.13317925 0.89099997 3.8708488e-40
0.045773044 0.13263248 0.89099997 2.0520054e-40
0.049991034 0.13200758 0.89099997 9.4314253e-40
0.053115476 0.13200758 0.89099997 6.6762763e-40
0.039186999 0.014891059 0.89399999 7.7684694e-39
0.04153822 0.014891059 0.89399999 6.4791767e-39
0.078373998 0.014107319 0.89399999 7.3060731e-39
0.082292698 0.01489106 0.89399999 7.4904574e-39
0.086211398 0.014891059 0.89399999 6.9387213e-39
0.088562615 0.014891059 0.89399999 7.3986219e-39
0.02272846 0.01880976 0.89399999 7.0309001e-39
0.026059354 0.018221956 0.89399999 7.3986149e-39
0.02978212 0.017242281 0.89399999 7.3989806e-39
0.03370082 0.017242281 0.89399999 7.5833663e-39
0.038403258 0.016458539 0.89399999 7.6752032e-39
0.042321958 0.016458539 0.89399999 6.8483109e-39
0.046554156 0.017085532 0.89399999 7.1213133e-39
0.050159357 0.01802602 0.89399999 6.9369038e-39
0.054391552 0.017399028 0.89399999 7.121658e-39
0.058153506 0.017712524 0.89399999 7.122744e-39
0.061719522 0.017830085 0.89399999 6.7550405e-39
0.065834157 0.01802602 0.89399999 7.9517816e-39
0.069752857 0.0195935 0.89399999 6.5699444e-39
0.073410317 0.018548515 0.89399999 6.4773886e-39
0.077198386 0.01685041 0.89399999 7.2135089e-39
0.082292698 0.01685041 0.89399999 7.4900888e-39
0.086472653 0.016981034 0.89399999 6.6635638e-39
0.08973822 0.01763415 0.89399999 7.2145865e-39
0.094048798 0.01802602 0.89399999 6.7539755e-39
0.096922509 0.019071007 0.89399999 7.2145865e-39
0.0195935 0.02272846 0.89399999 7.2149299e-39
0.021683475 0.021683475 0.89399999 7.306764e-39
0.025079679 0.021160979 0.89399999 7.1234671e-39
0.099012487 0.021683473 0.89399999 6.4766656e-39
0.10110245 0.02272846 0.89399999 6.2919142e-39
0.014891059 0.026647158 0.89399999 5.8341772e-39
0.01802602 0.025863418 0.89399999 6.4759327e-39
0.021160979 0.024295939 0.89399999 7.1223685e-39
0.099534981 0.024295939 0.89399999 6.2933491e-39
0.10204294 0.025549922 0.89399999 5.0037005e-39
0.10475992 0.026908405 0.89399999 3.9906332e-39
0.10266993 0.028998379 0.89399999 4.81751e-39
0.10502116 0.029782118 0.89399999 3.8991424e-39
0.0117561 0.034484558 0.89399999 5.1870044e-39
0.10619676 0.033700816 0.89399999 4.4515959e-39
0.01018862 0.038403258 0.89399999 5.6458287e-39
0.10737237 0.037619516 0.89399999 3.8065838e-39
0.10946235 0.038403258 0.89399999 4.2672033e-39
0.0086211395 0.043105695 0.89399999 4.1746601e-39
0.11050734 0.042321958 0.89399999 5.8309486e-39
0.11207481 0.042321958 0.89399999 5.2777735e-39
0.0062699197 0.046240658 0.89399999 3.9902534e-39
0.0086211395 0.044673178 0.89399999 3.8058566e-39
0.11301531 0.045927163 0.89399999 5.7376572e-39
0.0031349596 0.050159357 0.89399999 5.2792014e-39
0.0054861796 0.049375616 0.89399999 5.1887966e-39
0.11520977 0.050159357 0.89399999 5.274891e-39
0.0018287266 0.054078057 0.89399999 3.8948376e-39
0.11520977 0.052510578 0.89399999 4.1681581e-39
0.11795286 0.054078057 0.89399999 4.6331047e-39
-0.00078373996 0.058780499 0.89399999 3.7104239e-39
0.00078373996 0.057996757 0.89399999 4.815331e-39
0.11991221 0.05721302 0.89399999 4.6309509e-39
0.12147969 0.057996757 0.89399999 3.6171619e-39
-0.00078373996 0.061131716 0.89399999 3.4341902e-39
0.12147969 0.061915457 0.89399999 4.1703329e-39
-0.0023512198 0.065834157 0.89399999 3.8015406e-39
-0.0017242279 0.070066355 0.89399999 4.5380168e-39
-0.0015674799 0.073671557 0.89399999 4.0770541e-39
0.12147969 0.073671557 0.89399999 3.0625574e-39
-0.0015674799 0.077590257 0.89399999 3.9855689e-39
0.12147969 0.077590257 0.89399999 2.6033785e-39
-0.0014107319 0.081979208 0.89399999 3.708989e-39
0.11991222 0.082292698 0.89399999 2.8781648e-39
0.12147969 0.082292698 0.89399999 2.785609e-39
-0.00078373996 0.086211398 0.89399999 3.525688e-39
0.11991221 0.086211398 0.89399999 2.969273e-39
0.12147969 0.086211398 0.89399999 2.7848803e-39
-0.00078373996 0.088562615 0.89399999 3.7983218e-39
0.11952034 0.090521961 0.89399999 2.600866e-39
0.12147969 0.088562615 0.89399999 2.784537e-39
-0.00078373996 0.093265057 0.89399999 2.0491047e-39
0.00078373996 0.094832532 0.89399999 3.0589337e-39
0.11912848 0.094048798 0.89399999 1.8650848e-39
0.00078373996 0.096400015 0.89399999 3.5209908e-39
0.11520977 0.099534981 0.89399999 1.7732619e-39
0.11716912 0.097575627 0.89399999 1.9562e-39
0.0039186995 0.10266993 0.89399999 1.3130026e-39
0.11468729 0.10214745 0.89399999 1.4970324e-39
0.11677725 0.10110245 0.89399999 2.1395235e-39
0.0062699197 0.10658863 0.89399999 2.785232e-39
0.11050734 0.10737237 0.89399999 1.7732619e-39
0.11207481 0.10580489 0.89399999 2.1406109e-39
0.0070536593 0.10893986 0.89399999 2.6908798e-39
0.01018862 0.10998484 0.89399999 2.6004862e-39
0.10998484 0.10998484 0.89399999 1.5888665e-39
0.01097236 0.11207481 0.89399999 1.1289589e-39
0.013950571 0.1139558 0.89399999 1.0367675e-39
0.016458539 0.11520977 0.89399999 2.0480271e-39
0.10737237 0.11520977 0.89399999 2.0469425e-39
0.10893986 0.1136423 0.89399999 2.0473069e-39
0.014891059 0.11677725 0.89399999 2.0516439e-39
0.017085532 0.11865824 0.89399999 2.8759885e-39
0.1061184 0.11865824 0.89399999 9.4204531e-40
0.017503528 0.12200218 0.89399999 1.4051941e-39
0.099534981 0.12304717 0.89399999 2.9523957e-40
0.10214745 0.12252468 0.89399999 4.7857285e-40
0.10423741 0.12147969 0.89399999 9.3953138e-40
0.0195935 0.12618214 0.89399999 2.2306514e-39
0.021160979 0.12696588 0.89399999 2.4150356e-39
0.070536599 0.12774962 0.89399999 1.2189769e-39
0.073932812 0.12722713 0.89399999 2.2298806e-39
0.077198386 0.12735775 0.89399999 1.1264282e-39
0.081508957 0.12618214 0.89399999 8.4987351e-40
0.08699514 0.12774962 0.89399999 1.1257023e-39
0.090443589 0.12712263 0.89399999 4.8036231e-40
0.093787551 0.12670463 0.89399999 3.8745903e-40
0.097575627 0.12500653 0.89399999 2.9560391e-40
0.10110245 0.12461465 0.89399999 1.0944281e-40
0.022205967 0.12983958 0.89399999 1.125003e-39
0.058780499 0.13088457 0.89399999 9.4419771e-40
0.061915457 0.13088457 0.89399999 7.5984148e-40
0.065834157 0.12931709 0.89399999 2.2960275e-41
0.069752857 0.12931709 0.89399999 4.8394123e-40
0.072887816 0.12931709 0.89399999 2.2306177e-39
0.025079679 0.13323578 0.89399999 5.6824755e-40
0.02978212 0.13558702 0.89399999 1.2933985e-41
0.032133337 0.13558702 0.89399999 1.3631831e-41
0.043105695 0.13480327 0.89399999 1.9389767e-41
0.046240658 0.13506453 0.89399999 6.6547104e-40
0.050159357 0.13401952 0.89399999 1.9537127e-39
0.054469924 0.13362765 0.89399999 1.0349668e-39
0.057735514 0.13297455 0.89399999 3.917526e-40
0.060347974 0.13245206 0.89399999 6.6908498e-40
0.03370082 0.13715449 0.89399999 1.5789831e-41
0.038089763 0.13778149 0.89399999 6.640305e-40
0.04153822 0.13715449 0.89399999 6.6546683e-40
0.042038973 0.0064554224 0.89799994 7.7688323e-39
0.045660302 0.0070852195 0.898 6.847239e-39
0.049596541 0.00708522 0.898 7.3989764e-39
0.054320019 0.00708522 0.898 6.939429e-39
0.058256254 0.0070852195 0.898 6.9398073e-39
0.063242152 0.0065603885 0.898 7.0319875e-39
0.066128716 0.006297973 0.898 7.3996897e-39
0.069671325 0.006691596 0.898 6.8468704e-39
0.074001178 0.0070852195 0.898 6.6635708e-39
0.076362923 0.0070852195 0.898 7.4919021e-39
0.025979139 0.0118087 0.898 8.2294489e-39
0.030072821 0.010549106 0.89799994 8.4131199e-39
0.03382647 0.01022544 0.89733326 8.5967979e-39
0.037745468 0.010221642 0.89700001 8.1361813e-39
0.041662127 0.010217843 0.89666665 7.5840837e-39
0.046173155 0.010412608 0.89649999 7.3074982e-39
0.050014336 0.010001766 0.89742857 7.582646e-39
0.054320015 0.010234207 0.89799988 7.4900902e-39
0.058256254 0.010234207 0.89799994 7.3986261e-39
0.062192481 0.010234206 0.89799988 6.6624974e-39
0.066128716 0.010234207 0.89799994 7.4911636e-39
0.069978654 0.010220376 0.89688885 7.5826474e-39
0.073946245 0.01022544 0.89733332 7.9507096e-39
0.077879556 0.01022544 0.89733326 7.5830215e-39
0.081812873 0.01022544 0.89733332 7.8588854e-39
0.085503057 0.010672791 0.89714289 8.0439857e-39
0.089746118 0.011021453 0.898 7.7677547e-39
0.092895105 0.0118087 0.898 7.7666813e-39
0.022030195 0.014162111 0.89750004 7.7655939e-39
0.025930341 0.014143846 0.89633334 7.6755689e-39
0.029848747 0.014138879 0.89600003 7.7684932e-39
0.033776209 0.014138879 0.89600003 7.676285e-39
0.03744185 0.013877048 0.89600009 7.4922538e-39
0.042023893 0.013746132 0.89600003 6.8483152e-39
0.046344109 0.014138879 0.89600003 7.1223895e-39
0.050271571 0.014138879 0.89600003 7.7659667e-39
0.05419904 0.014138879 0.89600003 7.6723249e-39
0.058126509 0.014138879 0.89600003 7.9496278e-39
0.062053975 0.014138879 0.89600003 7.3986275e-39
0.066055074 0.014153783 0.89699996 7.2138705e-39
0.069908909 0.014138879 0.89600003 7.2138677e-39
0.073836371 0.014138879 0.89600003 7.2138593e-39
0.076192856 0.014138879 0.89600003 6.8461782e-39
0.081691302 0.013353386 0.89600003 7.398982e-39
0.085618779 0.013353387 0.89600009 7.5830033e-39
0.090331733 0.014138879 0.89600003 7.9514285e-39
0.093913093 0.013999665 0.89720005 7.6748388e-39
0.097958289 0.014555735 0.89750004 7.582639e-39
0.10155482 0.014957686 0.898 7.2135075e-39
0.0118087 0.019681167 0.898 6.8450711e-39
0.01417044 0.019681167 0.898 6.7528755e-39
0.018303484 0.018303484 0.89799988 7.2142082e-39
0.021601066 0.017673599 0.89600003 7.1223769e-39
0.024350293 0.01649536 0.89600003 7.3989736e-39
0.050271571 0.01649536 0.89600003 7.2135075e-39
0.052628051 0.01649536 0.89600003 7.1213119e-39
0.06598144 0.01649536 0.89600003 7.3060619e-39
0.069908909 0.017280854 0.89600003 6.9369291e-39
0.073836371 0.01649536 0.89600003 6.9369207e-39
0.091117226 0.01649536 0.89600003 6.9390787e-39
0.094259195 0.01649536 0.89600003 6.3862608e-39
0.09878397 0.017554959 0.89666671 7.0305442e-39
0.1022284 0.018085342 0.89700001 6.8439921e-39
0.10549105 0.018893918 0.898 6.3830238e-39
0.011283869 0.022305323 0.898 6.3837371e-39
0.014146331 0.022005649 0.89649999 6.5677724e-39
0.017752148 0.021836715 0.89600003 6.8443579e-39
0.10237597 0.021731984 0.89600009 6.5677752e-39
0.10577545 0.022161081 0.89640009 5.7383761e-39
0.0070852195 0.027553633 0.898 4.9111335e-39
0.010222908 0.025953034 0.89711106 5.5554225e-39
0.013746132 0.025528533 0.89600003 5.3717586e-39
0.017280852 0.024350293 0.89600003 5.8323738e-39
0.10664534 0.02541632 0.89666671 4.6331033e-39
0.11000834 0.026281765 0.8976 4.449082e-39
0.0065603885 0.030177791 0.898 4.1739328e-39
0.010217843 0.029870955 0.89666671 4.2661229e-39
0.013353386 0.029063253 0.89600003 4.6352669e-39
0.10761259 0.029848747 0.89600003 5.828771e-39
0.11009268 0.02988206 0.89700001 5.5536345e-39
0.11257627 0.030702619 0.898 4.5412958e-39
0.003411402 0.034901269 0.898 4.3583171e-39
0.006297973 0.033851605 0.89799994 4.0820875e-39
0.0097708255 0.033584099 0.89685714 4.6345424e-39
0.1068271 0.032205224 0.89600003 5.0033292e-39
0.11001027 0.033788189 0.89633334 3.9906234e-39
0.11320608 0.034166504 0.89799994 5.4632227e-39
0.0031489865 0.03778784 0.898 4.5419993e-39
0.0062900833 0.037745759 0.89700001 5.1869974e-39
0.0091640893 0.03744185 0.89600009 5.7383789e-39
0.11075456 0.037703678 0.89600003 2.6999084e-39
0.11406719 0.037759788 0.89733332 4.4497896e-39
0.11729975 0.038575083 0.898 6.5659871e-39
0.0025574556 0.041908834 0.8977499 3.9902576e-39
0.0062839473 0.041631147 0.89600003 4.8193022e-39
0.0086404262 0.040845655 0.89600003 5.2788286e-39
0.11441903 0.041432776 0.89657146 4.5426929e-39
0.11769336 0.042117693 0.898 5.9213156e-39
-0.00078724662 0.046447549 0.898 5.6486804e-39
0.0025539491 0.04618565 0.89674997 5.0958849e-39
0.0054984535 0.04477312 0.89600003 4.7271122e-39
0.11546752 0.046344109 0.89600009 6.9343969e-39
0.11786812 0.046360761 0.89633334 5.7372845e-39
0.12044873 0.045660302 0.898 4.4498079e-39
-0.0055107265 0.051171031 0.898 5.0937241e-39
-0.002136562 0.050030116 0.89771426 5.9227631e-39
0.0011791168 0.04954043 0.89699996 5.7387446e-39
0.117824 0.050271571 0.89600003 5.6451014e-39
0.12077529 0.049961671 0.89749998 4.9097182e-39
-0.00590435 0.05471364 0.898 6.2900981e-39
-0.0023599868 0.054252412 0.89688885 5.6454546e-39
0.00078549335 0.053413548 0.89600003 3.9877563e-39
0.1186095 0.052628051 0.89600003 4.8182162e-39
0.12205107 0.054048032 0.89674997 4.3536339e-39
-0.008659713 0.059043497 0.898 4.4469086e-39
-0.006297973 0.058256254 0.898 4.5394657e-39
-0.0026706771 0.05796941 0.89600003 4.2632432e-39
0.12346008 0.058190502 0.89700001 3.7104253e-39
0.12517221 0.058256254 0.898 3.987371e-39
-0.008659713 0.062192485 0.898 2.0544997e-39
-0.006297973 0.062192485 0.89799994 2.3303706e-39
-0.0031419732 0.062053971 0.89600003 3.157969e-39
0.12332245 0.062053975 0.89600009 3.7100806e-39
0.12517223 0.062192485 0.898 3.2491025e-39
-0.008659713 0.066128716 0.898 3.0650615e-39
-0.0062918365 0.066055082 0.89700001 2.9732288e-39
-0.0039274665 0.06598144 0.89600003 3.1576257e-39
0.12332244 0.06598144 0.89600003 3.8015784e-39
0.12517221 0.066128716 0.898 3.2487648e-39
-0.008659713 0.070064954 0.898 4.9064448e-39
-0.0062918365 0.069986925 0.89700001 4.9986432e-39
-0.0039274665 0.069908909 0.89600009 4.5376679e-39
0.12332245 0.069908909 0.89600009 3.1554789e-39
0.12586653 0.070013523 0.89733332 3.8926726e-39
0.1283212 0.069277704 0.898 3.9837822e-39
-0.008659713 0.074001178 0.898 4.1696126e-39
-0.0062918365 0.073918775 0.89699996 3.8930271e-39
-0.0039274665 0.073836371 0.89600003 3.8011888e-39
0.12332244 0.073836371 0.89600003 3.3391499e-39
0.12582007 0.073918775 0.89700001 3.2473074e-39
-0.008659713 0.077937424 0.898 3.9834207e-39
-0.0062918365 0.077850632 0.89700001 3.984134e-39
-0.0039274665 0.077763841 0.89600009 4.3536297e-39
0.12332245 0.077763841 0.89600009 2.6948595e-39
0.12582007 0.077850625 0.89700001 2.5104626e-39
-0.008659713 0.081873655 0.898 3.15689e-39
-0.0062918365 0.081782475 0.89699996 3.7089932e-39
-0.0039274665 0.081691302 0.89600003 3.8008357e-39
0.12332244 0.081691302 0.89600003 2.785609e-39
0.12582007 0.081782475 0.89700001 2.6930532e-39
-0.008659713 0.085022636 0.898 3.064707e-39
-0.006297973 0.085809886 0.89799994 3.5242488e-39
-0.0031419732 0.085618779 0.89600003 3.1554621e-39
0.12332245 0.085618779 0.89600009 2.9685555e-39
0.1256905 0.085419245 0.89720005 3.060391e-39
-0.006297973 0.089746118 0.898 3.4302469e-39
-0.0029848746 0.090017535 0.89600003 3.0607539e-39
0.12253695 0.090331733 0.89600003 2.5083018e-39
0.12517221 0.089746118 0.898 2.4164495e-39
-0.0055107265 0.093682349 0.898 1.6810621e-39
-0.0028854022 0.094137058 0.89733332 1.7728836e-39
0.12285922 0.093913093 0.89720005 2.3242637e-39
0.12517221 0.092107855 0.898 2.4150146e-39
-0.0023611556 0.098332778 0.89733326 2.5079445e-39
0.00078549335 0.098972157 0.89600003 3.0618371e-39
0.1186095 0.098972157 0.89600003 1.9565812e-39
0.12145842 0.098086976 0.89714289 1.5881462e-39
-0.0023614478 0.10230438 0.89766663 2.1398766e-39
0.0015709867 0.10211413 0.89600003 2.1391648e-39
0.11817408 0.10245253 0.89666671 1.8632968e-39
0.12044873 0.10234207 0.898 1.495945e-39
-0.0019118848 0.10605337 0.89799994 1.219714e-39
0.0023564801 0.1060416 0.89600003 1.77182e-39
0.0054984535 0.10761259 0.89600003 1.8658079e-39
0.11468202 0.1060416 0.89600003 1.8640198e-39
0.11808699 0.10627829 0.89799994 2.0469551e-39
0.12044873 0.1062783 0.898 1.9547637e-39
-0.00078724662 0.10942728 0.898 2.5997604e-39
0.002358818 0.11013271 0.89733332 2.0462573e-39
0.0060221157 0.11023089 0.89600009 1.7714458e-39
0.0086404262 0.11075456 0.89600003 1.9565574e-39
0.11393949 0.11001027 0.8963334 1.6800041e-39
0.11782458 0.10995211 0.898 1.6792642e-39
0.12044873 0.10942728 0.898 1.5874441e-39
0.0033064359 0.11383587 0.89799994 6.6690456e-40
0.0062880376 0.11398187 0.89666671 9.4349566e-40
0.0099869873 0.11434539 0.89600003 1.0360346e-39
0.11075456 0.11389653 0.89600009 2.0469481e-39
0.11385949 0.11385949 0.89724994 1.8625751e-39
0.006297973 0.11808699 0.898 2.4153915e-39
0.010217844 0.11791167 0.89666671 2.1395151e-39
0.013877048 0.11808583 0.89600009 2.0484237e-39
0.11003087 0.11789019 0.89650005 1.1264324e-39
0.11336352 0.11808699 0.898 1.4941443e-39
0.0065603885 0.12097357 0.898 1.5863483e-39
0.01022583 0.12193342 0.89733326 2.0462349e-39
0.014138879 0.12175146 0.89600003 1.3101356e-39
0.01649536 0.12332244 0.89600003 2.1882677e-41
0.10660531 0.12232101 0.8963334 4.7892318e-40
0.11000834 0.12165468 0.8976 5.71109e-40
0.010549106 0.12580203 0.89799994 3.8923027e-40
0.01415466 0.12582007 0.89699996 1.1253744e-39
0.017280852 0.12567893 0.89600003 1.0363821e-39
0.098972157 0.12646443 0.89600003 3.8637722e-40
0.10237597 0.12594077 0.89600009 1.7598907e-41
0.10576721 0.12542646 0.89699996 1.0871554e-40
0.0118087 0.1283212 0.898 2.0484013e-39
0.014432855 0.12884603 0.898 2.0462727e-39
0.017884219 0.12991214 0.89674997 7.5623033e-40
0.02120832 0.13117738 0.89600003 1.7594704e-41
0.06598144 0.13117738 0.89600003 2.2248416e-41
0.069908909 0.1311774 0.89600009 2.0879768e-40
0.0740982 0.13065372 0.89600009 2.2327827e-39
0.077763841 0.1303919 0.89600003 1.1278869e-39
0.081721984 0.12965521 0.89633334 5.7544742e-40
0.085494064 0.12991259 0.89674997 1.678537e-39
0.090331733 0.1303919 0.89600003 5.7291387e-40
0.094458722 0.12997916 0.89639997 2.0270063e-40
0.098100305 0.12955512 0.89699996 2.9239073e-40
0.10234207 0.1283212 0.898 4.7605472e-40
0.019156335 0.13356951 0.898 5.689538e-40
0.022150911 0.13400516 0.89600003 4.7711831e-40
0.025528532 0.1354976 0.89600003 1.4716436e-41
0.047915094 0.13589035 0.89600003 3.8925689e-40
0.050271571 0.13589035 0.89600003 1.2175854e-39
0.05419904 0.13589035 0.89600009 1.5863567e-39
0.058388345 0.13536668 0.89600009 1.1515731e-40
0.062368173 0.13369097 0.89600003 5.7685993e-40
0.066055082 0.13368377 0.89699996 1.0363933e-39
0.069986932 0.13368379 0.89700001 5.7614246e-40
0.073960416 0.13375784 0.89749998 4.8431818e-40
0.07785064 0.13368377 0.89700001 1.6799901e-39
0.081873655 0.13383192 0.898 1.5860036e-39
0.085809886 0.13383193 0.89799994 4.7892878e-40
0.089746118 0.13383192 0.898 7.5515133e-40
0.093288727 0.13343829 0.898 7.5443107e-40
0.019681167 0.13619368 0.898 9.3701185e-40
0.022042906 0.13776816 0.898 3.8205282e-40
0.025968909 0.13850427 0.89766663 1.0690786e-40
0.029864965 0.13832441 0.89650005 4.7353939e-40
0.033776212 0.13903233 0.89600009 1.6152767e-41
0.042023893 0.13863957 0.89600003 3.8925269e-40
0.046344109 0.13824683 0.89600003 1.0338976e-39
0.050271571 0.13824683 0.89600003 4.8072945e-40
0.05419904 0.13824682 0.89600003 2.9596404e-40
0.058159381 0.13832441 0.89649999 2.1523944e-41
0.061995674 0.13757135 0.89799988 6.6724648e-40
0.066128716 0.13619368 0.898 1.9569175e-39
0.070064954 0.13619368 0.898 3.9175961e-40
0.074263595 0.13671851 0.898 3.0100031e-40
0.078134231 0.13757135 0.89799988 8.5023364e-40
0.081873655 0.13776818 0.89799994 1.4005221e-39
0.085494988 0.13682348 0.89799994 6.6259277e-40
0.088958867 0.13619368 0.898 2.023447e-40
0.030702619 0.14091715 0.898 1.1163865e-39
0.033851605 0.14091715 0.898 4.7677639e-40
0.037994146 0.14123276 0.89666671 1.686743e-41
0.041677609 0.14154747 0.89700001 1.6512901e-41
0.046070587 0.14135864 0.89680004 1.6875837e-41
0.049889345 0.14179908 0.8976 2.9382706e-40
0.054320019 0.14170441 0.89799994 1.1050079e-40
0.058256254 0.1417044 0.898 2.0376141e-40
0.061405241 0.14091715 0.898 2.0812085e-41
0.046447549 0.14406614 0.898 1.0799247e-40
0.049596541 0.14406614 0.898 9.3702866e-40
0.055894509 0.14406614 0.898 1.7230366e-41
0.057469007 0.14406614 0.898 1.8295353e-41
0.038789868 0.0039581498 0.903 8.2280084e-39
0.041956387 0.0039581498 0.90300006 8.0443374e-39
0.045863692 0.0031621368 0.90199995 8.1368862e-39
0.049817465 0.0031621368 0.90199995 8.2298077e-39
0.053527802 0.0034274745 0.90233338 8.0457779e-39
0.05778899 0.0039581498 0.90300006 7.3074982e-39
0.061747134 0.0039581498 0.903 7.2153012e-39
0.065705292 0.00316652 0.903 7.5833663e-39
0.070415184 0.0035601433 0.90250003 7.5837166e-39
0.073511712 0.0034245523 0.90166664 7.7684722e-39
0.078371368 0.0039581498 0.90300006 8.3194964e-39
0.081537887 0.0039581498 0.903 8.3202054e-39
0.027707048 0.0071246694 0.903 8.3216558e-39
0.030345816 0.0065969164 0.90300006 8.4138472e-39
0.034002393 0.0063251499 0.90200007 8.7808333e-39
0.037914079 0.006319013 0.90100002 8.1365442e-39
0.04028371 0.0055291364 0.90100002 7.9525173e-39
0.045812845 0.0055291364 0.90100002 7.4929615e-39
0.04976223 0.0055291369 0.90100002 7.2160299e-39
0.053711612 0.0055291364 0.90100002 6.5717395e-39
0.057660997 0.0055291369 0.90100002 7.1245503e-39
0.06134709 0.0060557215 0.90100002 6.7550503e-39
0.071088895 0.0055291364 0.90100002 6.2018695e-39
0.074248403 0.0055291364 0.90100002 6.7557916e-39
0.078583874 0.0061659473 0.90179998 7.8599602e-39
0.082238346 0.0063251499 0.90200001 7.9521474e-39
0.08589185 0.0067288545 0.903 7.7684806e-39
0.01979075 0.011874449 0.903 8.3202026e-39
0.022284692 0.010588205 0.90140003 8.1376092e-39
0.026074989 0.0094817346 0.90133333 8.2294601e-39
0.029225437 0.0086886436 0.90100002 8.2291042e-39
0.086886436 0.0086886436 0.90100002 7.6759304e-39
0.09014675 0.0086982865 0.90200001 7.492258e-39
0.094036356 0.010272254 0.90140003 7.6752046e-39
0.097753301 0.011329165 0.90166664 7.4904518e-39
0.10132863 0.011874449 0.903 7.8599602e-39
0.018507307 0.01439434 0.90220004 7.8574322e-39
0.09873458 0.013427903 0.90100002 7.6744829e-39
0.10228902 0.013822841 0.90100002 7.3057032e-39
0.10602012 0.014241011 0.90250003 6.6603366e-39
0.0071246694 0.01979075 0.903 6.6596079e-39
0.010598022 0.018507307 0.90219992 6.9376297e-39
0.014225231 0.01738649 0.90149999 7.0305442e-39
0.01658741 0.01658741 0.90100002 7.3067724e-39
0.10584347 0.01658741 0.90100002 6.3833909e-39
0.10942875 0.018721215 0.90233338 5.7390851e-39
0.0065916567 0.022412568 0.90233338 6.1075103e-39
0.0092152283 0.021853253 0.90100002 6.4755698e-39
0.11015826 0.021968039 0.90140003 4.9111335e-39
0.0029011823 0.026641315 0.90266669 5.0948101e-39
0.0061634923 0.02576085 0.90140003 5.5554183e-39
0.1113726 0.024486175 0.90100002 3.6218535e-39
0.11373611 0.026416598 0.90219992 3.9898947e-39
-0.00079162995 0.030081939 0.903 3.8966019e-39
0.0023710912 0.030048333 0.90199995 4.2657683e-39
0.0055291364 0.029225437 0.90100002 5.0940772e-39
0.11400553 0.029752022 0.90100002 4.172851e-39
0.11624074 0.030047748 0.90200001 4.9107678e-39
-0.0014245833 0.034340959 0.90259999 5.002955e-39
0.0018433378 0.033450093 0.90133333 4.9086182e-39
0.11453211 0.032384943 0.90100002 4.5427182e-39
0.11679602 0.034295727 0.90140003 4.4483379e-39
-0.0023743056 0.037970185 0.90233338 5.0033264e-39
0.00078987668 0.037914079 0.90100002 5.3710481e-39
0.11883305 0.037678257 0.90166664 5.8291452e-39
0.12111938 0.038789868 0.903 4.2682823e-39
-0.0019217788 0.042142745 0.90214282 5.0029648e-39
0.00078987668 0.04028371 0.90100002 4.3579415e-39
0.11927138 0.041073587 0.90100002 6.6574331e-39
0.12144814 0.042328093 0.90250003 4.9093329e-39
-0.0026890875 0.045695547 0.90179998 4.6345396e-39
0.12256676 0.045862816 0.90200001 4.6341977e-39
0.1242859 0.045914538 0.903 5.0929997e-39
-0.009229254 0.050890207 0.90233338 3.9880996e-39
-0.0063220817 0.049788967 0.90149999 4.4497995e-39
-0.00316389 0.048235953 0.90200001 4.3575982e-39
0.12243088 0.048972353 0.90100002 4.0832016e-39
0.12410238 0.049797885 0.90166664 4.9082567e-39
-0.010284761 0.053791098 0.90233338 3.8048e-39
-0.00710889 0.053711612 0.90100002 5.4618102e-39
0.12559038 0.053711612 0.90100002 4.7224151e-39
-0.010478577 0.057527084 0.90200001 4.9986516e-39
0.12691635 0.057329178 0.90200001 3.1590592e-39
0.12903568 0.059372246 0.903 2.69953e-39
-0.010910818 0.062139012 0.90179998 3.8940907e-39
0.12717015 0.062400259 0.90100002 2.7909872e-39
0.12903568 0.061747134 0.903 3.3438036e-39
-0.011232029 0.06596303 0.90219992 2.6977181e-39
0.12717015 0.06634964 0.90100002 2.97251e-39
0.12894042 0.065655611 0.90233338 3.5263998e-39
-0.010900298 0.06998308 0.90100002 3.4352944e-39
0.12874989 0.071878776 0.90100002 3.5235145e-39
-0.011232029 0.073872313 0.90219992 4.1692427e-39
0.12874989 0.074248403 0.90100002 2.7870425e-39
-0.011071423 0.078284584 0.90200007 3.5227985e-39
0.12874989 0.078197792 0.90100002 2.6026541e-39
-0.013457709 0.082329519 0.903 3.1543943e-39
-0.011071423 0.082238346 0.90200001 2.6948329e-39
0.12889278 0.082239226 0.90200001 2.7848887e-39
-0.013457709 0.084704407 0.903 3.8894426e-39
-0.010731027 0.086404152 0.90185714 3.1540258e-39
0.12717015 0.087676309 0.90100002 2.9678324e-39
0.12903568 0.084704407 0.903 2.8756368e-39
-0.0094899163 0.090145871 0.90199995 2.8770745e-39
0.12717015 0.090045944 0.90100002 2.3235462e-39
-0.0093412334 0.093887314 0.903 2.5082934e-39
-0.0071088905 0.093995318 0.90100002 2.416095e-39
0.12652141 0.094098777 0.90200001 2.2306247e-39
-0.0087079294 0.098162115 0.903 8.5271254e-40
-0.0063269027 0.098053411 0.90199995 1.6806922e-39
0.12515673 0.098281056 0.90166664 1.1275198e-39
-0.0087079294 0.10132863 0.903 2.1387976e-39
-0.0063269027 0.10200718 0.90199995 2.5994199e-39
0.12243088 0.10268396 0.90100002 1.5877819e-39
0.12480909 0.10171384 0.90219992 9.4349426e-40
-0.0063269027 0.10596094 0.90200001 1.1271695e-39
-0.0039493833 0.10663335 0.90100002 1.0357095e-39
0.12243088 0.10584347 0.90100002 1.9540406e-39
0.1242859 0.10528678 0.903 1.1282456e-39
-0.0060691629 0.10898106 0.90300006 8.509427e-40
-0.0028985522 0.11040185 0.90166664 1.6792586e-39
0.11927138 0.1113726 0.90100002 1.6792642e-39
0.12199488 0.10987409 0.90166664 1.3115663e-39
-0.0013193833 0.11373084 0.90300006 1.0345955e-39
0.00078987668 0.11374223 0.90100002 8.5129582e-40
0.11861388 0.11386847 0.90200001 1.9540448e-39
0.0023708823 0.1178036 0.9018572 1.5874329e-39
0.11663655 0.11742731 0.90200001 1.4008879e-39
0.0034303968 0.12164714 0.90300006 1.2182693e-39
0.0055291364 0.12243088 0.90100002 1.403008e-39
0.11380579 0.12170894 0.90149999 6.6365916e-40
0.0063231043 0.1256839 0.90166664 6.6583818e-40
0.0086886436 0.12717015 0.90100002 1.9053455e-41
0.10663335 0.12717015 0.90100002 1.6148564e-41
0.11040127 0.12621108 0.90166664 1.0691627e-40
0.11320309 0.12507753 0.903 2.0018529e-40
0.0063330396 0.12903568 0.903 2.4139594e-39
0.0099608619 0.12981348 0.90179998 1.4008949e-39
0.013954487 0.13138282 0.90100002 4.8039174e-40
0.1027988 0.1304743 0.90200001 3.8385909e-40
0.10596181 0.12889278 0.90200001 1.5436704e-41
0.1084533 0.12903568 0.903 1.4005978e-41
0.01108282 0.13220219 0.903 1.1123087e-40
0.014502111 0.13421445 0.90233338 1.5433901e-41
0.017113995 0.13454233 0.90100002 3.8385909e-40
0.094785199 0.13506891 0.90100002 8.4482603e-40
0.097826354 0.13421445 0.90233338 2.0053982e-40
0.100537 0.13220219 0.903 1.6173787e-41
0.015040969 0.13695198 0.903 1.4712233e-41
0.018186156 0.13811795 0.90200007 1.2922774e-41
0.021326669 0.13980816 0.90100002 1.0331493e-40
0.063980013 0.13980816 0.90100002 5.7397605e-40
0.06634964 0.1390183 0.90100002 1.2182805e-39
0.070299022 0.13822842 0.90100002 7.5909879e-40
0.073985115 0.1392816 0.90100002 1.2186448e-39
0.076618038 0.13980816 0.90100002 2.1172218e-41
0.086491495 0.13941324 0.90100002 4.7856445e-40
0.090309232 0.13770184 0.90100002 1.7240175e-41
0.093756862 0.13727197 0.90250003 2.9167047e-40
0.018207489 0.14011849 0.903 1.029604e-40
0.022957269 0.14170176 0.903 1.2562641e-41
0.026405726 0.14214677 0.90179998 2.8735307e-40
0.029796436 0.14265266 0.90233338 2.8986139e-40
0.033964701 0.14296767 0.90100002 1.652271e-41
0.037124202 0.14296767 0.90100002 1.54325e-41
0.062400259 0.14244109 0.90100002 2.9559971e-40
0.06599284 0.14258896 0.90259999 2.0449148e-41
0.069663435 0.14091012 0.903 3.8923587e-40
0.073593825 0.14191334 0.90266669 5.7255093e-40
0.078284584 0.14233649 0.90200007 2.0341389e-40
0.082238346 0.14233647 0.90199995 1.09426e-40
0.085496038 0.14170176 0.903 1.7945028e-41
0.090245813 0.14011849 0.903 1.7233169e-41
0.042699799 0.14470786 0.90200001 1.6152767e-41
0.045022968 0.14454743 0.90100002 1.0799247e-40
0.049834698 0.14634341 0.90233338 4.7606032e-40
0.053741857 0.14541841 0.90149999 1.9911891e-40
0.058088809 0.14581333 0.90149999 1.6142958e-41
0.061713383 0.1455797 0.90250003 1.0977212e-40
0.06491366 0.14486828 0.903 2.0304254e-40
0.079163 0.14486828 0.903 1.6515704e-41
0.0358206 -0.00079601328 0.90799999 8.7811766e-39
0.038208641 -0.00079601328 0.90799999 8.5056659e-39
0.042507108 -0.0014328239 0.90799999 8.2301594e-39
0.046117924 -0.00159115 0.90700001 8.1386714e-39
0.050306417 -0.0021883792 0.90725005 8.5978643e-39
0.054089166 -0.0023874554 0.90733337 8.5967951e-39
0.057861969 -0.0021883789 0.90725005 8.504238e-39
0.062193539 -0.0020689331 0.90720004 8.3219879e-39
0.065800592 -0.0019326742 0.90742862 8.6889851e-39
0.070049167 -0.0015920266 0.90799999 8.3209299e-39
0.073631227 -0.0011940199 0.90799999 8.137968e-39
0.019900333 0.0039800666 0.90799999 8.5031534e-39
0.022553712 0.0034493911 0.90799999 8.5035107e-39
0.026268438 0.0031840531 0.90799999 8.596414e-39
0.030394031 0.0027046918 0.90760005 7.5844481e-39
0.034194671 0.0023845334 0.90711117 8.1372575e-39
0.037999291 0.0020657773 0.90680009 7.492237e-39
0.042110682 0.0015888121 0.90633339 8.1368862e-39
0.046067081 0.00079426001 0.90600002 8.1379652e-39
0.050038379 0.00079426001 0.90600002 8.506033e-39
0.054274432 0.0013237665 0.90600002 8.044343e-39
0.057980981 0.0015885199 0.90600008 7.4908133e-39
0.061952278 0.0015885199 0.90600002 7.4911664e-39
0.065923586 0.00079426001 0.90600002 8.2287315e-39
0.069630131 0.0013237665 0.90600002 8.0450633e-39
0.074183881 0.0014296679 0.90600008 7.9532138e-39
0.077923387 0.0015893965 0.90700006 8.228007e-39
0.08213941 0.0019304199 0.90714288 8.2280098e-39
0.085906319 0.0023851178 0.90733337 8.0439857e-39
0.089884043 0.0031811311 0.90733337 7.9528592e-39
0.093133554 0.0039800666 0.90799999 7.3064248e-39
0.015124252 0.0071641197 0.90799999 7.8599363e-39
0.018617945 0.0065241531 0.90760005 7.9521474e-39
