# .PCD v0.7 - Point Cloud Data file format
VERSION 0.7
FIELDS x y z rgb
SIZE 4 4 4 4
TYPE F F F F
COUNT 1 1 1 1
WIDTH 1001
HEIGHT 1
VIEWPOINT 0 0 0 1 0 0 0
POINTS 1001
DATA ascii
-0.021417404 0.078404672 0.84975004 6.3887817e-39
-0.018037416 0.077961788 0.85020012 7.0316134e-39
-0.01514617 0.077218257 0.84966671 7.859572e-39
0.093891874 0.078243367 0.85000002 6.0185811e-39
-0.025336541 0.081968322 0.85000002 6.9394248e-39
-0.02307299 0.081871897 0.84899998 6.0196433e-39
0.094524823 0.081127606 0.84899998 6.7554217e-39
0.097302109 0.082389131 0.85050005 6.2933421e-39
-0.032079864 0.087287068 0.85100001 6.0160364e-39
-0.029824635 0.086489737 0.85050005 5.0044068e-39
-0.026453853 0.084575981 0.85000002 6.11039e-39
0.098572098 0.084667012 0.84966671 5.8327353e-39
0.10212845 0.086472645 0.85033339 6.6614268e-39
0.10519211 0.087287068 0.85100001 6.3855447e-39
-0.033541095 0.09018638 0.8502 4.5405419e-39
-0.029771598 0.088570505 0.84899998 4.9107692e-39
0.10271201 0.088570505 0.84899998 6.2004276e-39
0.10623535 0.089844823 0.84980005 6.936178e-39
0.1093184 0.090526521 0.85060006 6.106074e-39
-0.036556125 0.094747499 0.85100001 5.2738176e-39
-0.034512904 0.093605503 0.84966671 3.0661433e-39
0.1104901 0.093605503 0.84966671 3.7133204e-39
-0.037024848 0.09765511 0.85033339 4.6305978e-39
-0.034981627 0.096013404 0.84899998 4.8131968e-39
0.11319914 0.097559407 0.8495 4.8160764e-39
-0.038048208 0.10220793 0.85100001 1.4080611e-39
0.11462066 0.10047914 0.84899998 3.4360035e-39
-0.038485959 0.10602085 0.84966671 4.4447324e-39
0.11685353 0.10792204 0.84899998 4.5416251e-39
-0.039540298 0.10966837 0.85100001 4.6298593e-39
0.1183421 0.11015491 0.84899998 3.8930271e-39
-0.041497603 0.11504877 0.85033339 2.6926917e-39
-0.039447367 0.11238778 0.84899998 1.5896092e-39
0.11774667 0.11357864 0.84899998 4.169621e-39
0.12011298 0.11414464 0.85100001 4.9032372e-39
-0.04157136 0.1181552 0.84980005 3.060391e-39
0.11933449 0.1183421 0.84899998 4.998667e-39
0.12011297 0.1171288 0.85100001 4.7224487e-39
-0.042524468 0.12160506 0.85100001 2.7859719e-39
0.12011297 0.12160505 0.85100001 5.1798339e-39
-0.044016555 0.1275734 0.85100001 3.2451424e-39
-0.042491153 0.12598139 0.85033339 4.2607349e-39
0.11983068 0.12652931 0.84899998 3.4316945e-39
-0.044016555 0.12981154 0.85100001 1.9569021e-39
-0.042424526 0.13025075 0.84899998 2.3264035e-39
0.11983068 0.12876217 0.84899998 1.8672302e-39
0.12131926 0.13173932 0.84899998 4.445468e-39
-0.045011282 0.13354176 0.85100001 2.9692744e-39
-0.043913107 0.1339722 0.84899998 3.3380513e-39
0.12146215 0.13413087 0.85000002 4.0752576e-39
-0.045437336 0.1378006 0.84966671 2.0491272e-39
-0.043913107 0.13620505 0.84899998 3.1529468e-39
0.11983068 0.13843793 0.84899998 3.1533293e-39
0.12160505 0.13727197 0.85100001 2.1398865e-39
-0.047000729 0.14249429 0.85100001 1.3111978e-39
0.11983069 0.14215939 0.84899998 4.1674869e-39
0.12160506 0.14249429 0.85100001 3.5221174e-39
-0.045934699 0.14574671 0.84966671 3.2440536e-39
0.11983068 0.14588082 0.84899998 3.7075583e-39
0.12160505 0.1462245 0.85100001 3.6157228e-39
-0.045011278 0.14995471 0.85100001 1.5867141e-39
-0.043416914 0.14960229 0.84899998 1.679623e-39
0.11983069 0.14960228 0.84899998 1.9572903e-39
0.12160506 0.14995471 0.85100001 2.3260728e-39
-0.044016555 0.15443096 0.85100001 5.7181946e-40
-0.042424526 0.15406802 0.84899998 1.3093789e-39
0.11983068 0.1555566 0.84899998 3.5174217e-39
0.12100822 0.15413253 0.85100001 1.585991e-39
-0.044016555 0.15816118 0.85100001 1.0335473e-39
-0.042424526 0.15778947 0.84899998 1.8633094e-39
0.11983068 0.15778947 0.84899998 1.9551323e-39
-0.044016555 0.16114536 0.85100001 9.4097192e-40
-0.042424526 0.16151093 0.84899998 2.0469593e-39
0.11908639 0.16151091 0.84899998 1.8643828e-39
-0.042127337 0.16664205 0.85050005 9.38465e-40
0.1183421 0.16448808 0.84899998 1.9558525e-39
-0.040984165 0.16989887 0.85000002 6.6152498e-40
-0.039447367 0.17118669 0.84899998 3.8673736e-40
-0.041032381 0.17308205 0.85100001 2.9382847e-40
-0.038749542 0.17436901 0.85000002 1.0873375e-40
0.11475654 0.17287779 0.85000002 2.6898106e-39
-0.037024848 0.17717111 0.85033339 1.9733085e-40
-0.034512904 0.17901854 0.84966671 1.4726246e-41
0.11102983 0.17884088 0.85000002 1.2143316e-39
0.11265255 0.17830436 0.85100001 1.2161197e-39
-0.032526962 0.18249306 0.84966671 1.1842373e-41
0.10953949 0.18182153 0.85000002 4.7930853e-40
-0.032079864 0.18651083 0.85100001 1.0044507e-41
-0.030515887 0.18681678 0.84899998 1.0763374e-41
0.10792204 0.1853282 0.84899998 1.0299684e-39
0.109171 0.18576479 0.85100001 2.931138e-40
-0.029841732 0.18874896 0.85100001 1.0763374e-41
-0.027603602 0.19173312 0.85100001 1.0044507e-41
0.10643347 0.18904966 0.84899998 1.117848e-39
0.10271201 0.19425967 0.84899998 4.7103527e-40
0.087081924 0.19872542 0.84899998 1.077038e-41
0.09021908 0.1987035 0.85050005 1.958777e-40
0.094524823 0.19723684 0.84899998 1.3654252e-41
0.086541027 0.20068565 0.85100001 1.184938e-41
0.088779159 0.20068565 0.85100001 1.2929781e-41
0.054333165 0.21956553 0.84899998 1.2922774e-41
0.058123875 0.21833381 0.85000002 1.4722042e-41
0.049907755 0.22271745 0.84966671 0
0.054461163 0.22082883 0.85100001 1.2565443e-41
0.018760666 0.054781143 0.85600001 7.7702715e-39
0.021762371 0.054781146 0.85600007 7.5865878e-39
0.026264934 0.054781146 0.85600007 7.9539494e-39
0.030017065 0.054781143 0.85600001 8.0461437e-39
0.033729747 0.053966723 0.85500002 7.6777073e-39
0.038271759 0.05328029 0.85600001 8.3209271e-39
0.042023893 0.05328029 0.85600001 7.859956e-39
0.046032716 0.053829432 0.85519999 8.3205586e-39
0.050240599 0.054738477 0.85533333 8.1361729e-39
0.0037521333 0.059283704 0.85600001 8.5975336e-39
0.0059963996 0.05846402 0.85500002 7.9528704e-39
0.0094416989 0.058300782 0.85479993 7.8610279e-39
0.014258107 0.056281995 0.85600007 8.3219991e-39
0.01798832 0.056216244 0.85500002 8.1368932e-39
0.021711525 0.056150492 0.85399997 8.0454108e-39
0.026203565 0.056150492 0.85399997 8.1376092e-39
0.029946933 0.056150492 0.85399997 8.2298049e-39
0.057782851 0.056281995 0.85600007 8.2290888e-39
0.062235735 0.056737274 0.85533333 7.6769996e-39
0.065134577 0.057647839 0.85399997 7.492258e-39
0.069736496 0.059237532 0.85533333 6.8472221e-39
-0.00075042667 0.063786268 0.85600001 6.3858979e-39
0.0022470218 0.062180959 0.85457146 7.9517844e-39
0.0059893862 0.060642533 0.85399997 7.2156613e-39
0.071123958 0.060642533 0.85399997 7.2149299e-39
0.074753009 0.061569344 0.8544001 6.7543132e-39
0.077734031 0.063236311 0.85533333 6.9376325e-39
0.081796512 0.063786268 0.85600007 7.5822957e-39
-0.0060034133 0.066787966 0.85600001 7.5826502e-39
-0.0025482946 0.065794528 0.85480005 7.2142236e-39
0.00074867328 0.065134577 0.85399997 7.767382e-39
0.078610696 0.065134577 0.85399997 7.030917e-39
0.08160539 0.065134577 0.85399997 8.1358254e-39
0.085918941 0.066125207 0.85519999 6.4788208e-39
-0.012757253 0.07129053 0.85600001 7.6751891e-39
-0.0094416989 0.069990613 0.85480005 7.2156543e-39
-0.0059893862 0.068129271 0.85399997 7.7670373e-39
0.086846098 0.068129271 0.85399997 7.3996897e-39
0.090230629 0.068734758 0.85533333 7.307864e-39
0.093658388 0.071179479 0.85466671 6.9379955e-39
-0.02476408 0.075793087 0.85600001 6.6574527e-39
-0.021305503 0.07440646 0.85485715 6.8465243e-39
-0.01798949 0.074204281 0.85500002 6.1096795e-39
-0.015246402 0.073233806 0.85533333 6.8461642e-39
0.094482578 0.073819183 0.85400003 5.6533439e-39
0.097930677 0.075417876 0.85600001 6.5692311e-39
-0.025454892 0.077862024 0.85399997 5.9249169e-39
-0.023208871 0.077113345 0.85399997 5.282451e-39
0.095081508 0.077113345 0.85399997 6.2051346e-39
0.098115057 0.077892125 0.85433334 6.3848273e-39
0.10130759 0.078794792 0.85600001 6.6592576e-39
-0.030017065 0.083297357 0.85600001 4.8207624e-39
-0.027223421 0.081669092 0.85466665 6.3876985e-39
0.098375671 0.080706984 0.85400003 6.2007919e-39
0.10181256 0.082018822 0.85519999 5.8327353e-39
0.10505973 0.083297357 0.85600001 5.1870044e-39
-0.032717198 0.086163476 0.85466671 4.7278213e-39
-0.029946933 0.084600084 0.85399997 4.9140174e-39
0.10181956 0.084600084 0.85399997 6.385193e-39
0.10614505 0.085664362 0.85466665 6.1078817e-39
0.1092274 0.087231249 0.85533333 6.2004458e-39
-0.036770906 0.090801626 0.85600001 4.4436912e-39
-0.035228848 0.089945123 0.85500002 4.0795694e-39
0.11093427 0.089946873 0.85500002 6.1050048e-39
0.11331442 0.090801626 0.85600001 4.2607265e-39
-0.037242554 0.093730271 0.85533333 4.8128423e-39
0.11349107 0.094014168 0.85449994 2.8828479e-39
-0.038742237 0.098229334 0.85533333 5.0919305e-39
0.11454701 0.096578851 0.85399997 4.9050421e-39
0.11631613 0.098305896 0.85600007 4.1681903e-39
-0.039679684 0.10181956 0.85399997 1.131861e-39
0.11781698 0.10205802 0.85600001 3.4338398e-39
-0.041241322 0.10572658 0.85533333 4.0759723e-39
-0.039679684 0.10481426 0.85399997 3.0625546e-39
0.11842889 0.10643522 0.85500002 4.7209801e-39
-0.041576356 0.11049463 0.85450006 4.5380392e-39
0.11903905 0.10855763 0.85399997 4.2650397e-39
0.12091073 0.11042931 0.85399997 5.2727232e-39
-0.042241894 0.11372646 0.85533333 3.6146774e-39
0.12203375 0.11379834 0.85399997 4.9954314e-39
-0.044275172 0.11706655 0.85600001 4.9946831e-39
0.12255186 0.11805455 0.85500002 4.1678274e-39
0.12532124 0.11931784 0.85600001 5.1834072e-39
-0.044275176 0.12231954 0.85600007 3.1543957e-39
0.12258556 0.12237015 0.85485721 4.9961475e-39
0.12532124 0.12081868 0.85600001 4.8139002e-39
-0.044171724 0.1257771 0.85399997 3.6157256e-39
0.12053639 0.12502843 0.85399997 4.5340848e-39
-0.045776024 0.13057423 0.85600001 1.9555078e-39
0.12217665 0.1304208 0.85500002 4.1721294e-39
-0.045776024 0.13282552 0.85600001 2.1391676e-39
-0.047276881 0.14032979 0.85600001 3.006682e-40
0.12292707 0.1416667 0.85500002 3.2447991e-39
-0.047166415 0.14748864 0.85399997 2.967838e-39
0.12362753 0.1461041 0.85466671 4.0738241e-39
0.12592159 0.14663337 0.85600007 2.1384473e-39
0.12832296 0.14783405 0.85600001 2.3232085e-39
-0.046704125 0.15060082 0.85466671 2.2310059e-39
0.12353109 0.15048334 0.85399997 3.1522223e-39
0.12582649 0.15054148 0.8543334 2.6905407e-39
0.12812307 0.15059964 0.85466665 4.34936e-39
-0.046499714 0.1537476 0.85549998 1.1250269e-39
0.12353108 0.15422669 0.85399997 1.2183029e-39
0.12592527 0.15440729 0.85499996 2.413958e-39
0.12832296 0.15458789 0.85600001 6.1903733e-39
-0.045776024 0.15834004 0.85600007 1.1232262e-39
0.12293215 0.15826952 0.85400003 3.8852401e-40
0.12532124 0.15683918 0.85600001 1.2193553e-39
-0.044973873 0.16265059 0.85500002 1.1232192e-39
0.12292707 0.16115324 0.85500002 1.5859994e-39
-0.04422345 0.16639921 0.85500002 8.4556451e-40
-0.044813443 0.1704082 0.85480005 1.9840565e-40
-0.042674378 0.17069751 0.85399997 3.8707227e-40
0.11903905 0.17144617 0.85399997 9.4205232e-40
-0.044171724 0.1736922 0.85399997 1.507657e-41
-0.042175263 0.17444089 0.85399997 1.6524111e-41
0.11454701 0.17593822 0.85399997 2.8731187e-39
0.11789694 0.17392366 0.85439998 2.4154027e-39
-0.044275172 0.17635027 0.85600001 5.6719377e-40
-0.042023893 0.17710069 0.85600001 3.8028858e-40
-0.038975723 0.17839377 0.85500002 6.5543353e-40
0.11454701 0.17818424 0.85399997 1.9515393e-39
0.11721664 0.17725077 0.85600007 2.8734984e-39
-0.03672795 0.18139197 0.85500002 5.6358122e-40
-0.034716003 0.18306904 0.85466671 1.1485042e-41
0.11155232 0.18267629 0.85399997 1.1089035e-40
0.11384305 0.18199921 0.85433334 1.120369e-39
-0.033769198 0.18535538 0.85600001 9.685775e-42
0.11117799 0.18679398 0.85399997 1.8543453e-39
0.11318204 0.18588926 0.85500002 4.7120356e-39
0.1098593 0.19019142 0.85480005 3.0532472e-39
0.10643522 0.19413519 0.85500002 1.3926511e-39
0.10855763 0.19240904 0.85399997 3.9672805e-39
0.094332837 0.19989577 0.85399997 1.4014386e-41
0.086299062 0.20336561 0.85600007 1.2580858e-41
0.090230629 0.20270811 0.85533333 1.3285711e-41
0.092802763 0.20236504 0.85600007 1.9731824e-40
0.096805036 0.20036392 0.85600001 5.632309e-40
0.060784556 0.21912459 0.85600001 3.8460038e-40
0.053904474 0.22310463 0.85399997 5.7523302e-42
0.058002014 0.22196534 0.85479993 9.3368517e-42
0.060784556 0.22212629 0.85600001 8.6165843e-42
0.054781143 0.22437756 0.85600001 5.6051939e-45
0.058533281 0.22437756 0.85600001 0
0.039912 0.051206976 0.85899997 8.3220033e-39
0.042171173 0.051206976 0.85900003 8.2298035e-39
0.045936458 0.051206976 0.85900009 7.9539312e-39
0.048891697 0.051900417 0.85799998 7.7702715e-39
0.011309 0.055037133 0.86000001 7.2170949e-39
0.014692494 0.054628164 0.85950005 8.2294461e-39
0.017829645 0.053989224 0.8593334 8.3209201e-39
0.021829 0.053446274 0.85866666 7.7698945e-39
0.026049271 0.052851427 0.85880005 8.1376218e-39
0.030361887 0.052943654 0.85866666 8.322369e-39
0.033927001 0.052021399 0.86000001 7.9539256e-39
0.037918173 0.052482527 0.8593334 8.7811808e-39
0.049933761 0.052943654 0.85866666 8.0454262e-39
0.053487182 0.053737909 0.8593334 8.4127626e-39
0.057985362 0.054219201 0.85899997 8.320211e-39
0.061678756 0.054909136 0.85799998 8.0450605e-39
0.0655922 0.055037133 0.86000001 7.4007757e-39
0.002260485 0.058772165 0.85949999 8.0450745e-39
0.0060314666 0.056544997 0.86000001 8.2287287e-39
0.009792367 0.056501161 0.8593334 7.9528662e-39
0.063935295 0.056413498 0.85799998 8.3202236e-39
0.066494584 0.056958787 0.85866666 7.4915336e-39
0.069782317 0.057422716 0.85960007 7.3082059e-39
0.073713638 0.059422214 0.85799998 6.8461501e-39
-0.0052775331 0.062576465 0.86000001 7.582639e-39
-0.0022595457 0.062513098 0.85914296 6.5699346e-39
0.00075217994 0.060926579 0.85799998 6.8479648e-39
0.078538813 0.061475374 0.85866666 6.9387143e-39
0.081707083 0.062126733 0.85900003 7.5826474e-39
0.085095398 0.063255876 0.85899997 6.4777404e-39
-0.021110132 0.066346131 0.86000001 7.9517957e-39
-0.012816866 0.067100063 0.86000001 7.674836e-39
-0.0095829694 0.06600073 0.85971433 7.1220196e-39
-0.0060244529 0.064761989 0.85899997 7.4904448e-39
0.086702332 0.064084329 0.86000001 6.109318e-39
0.089614622 0.066268981 0.85899997 7.5844551e-39
0.092733793 0.067100063 0.86000001 7.676299e-39
-0.021419222 0.070283622 0.85942864 8.0436255e-39
-0.018073358 0.070786446 0.85900003 7.8592301e-39
-0.014500724 0.069865286 0.85924995 8.2276595e-39
-0.010781246 0.068949834 0.85799998 7.7681022e-39
0.093810782 0.069698066 0.85950005 6.845797e-39
-0.0258453 0.075025126 0.85866666 6.8436292e-39
-0.023317579 0.073713638 0.85799998 6.8450754e-39
0.098110691 0.073519602 0.85866666 6.2011745e-39
0.10027313 0.074639395 0.86000001 6.2919142e-39
-0.0294034 0.079163 0.86000001 7.1202287e-39
-0.027110916 0.078318767 0.85899997 6.8443551e-39
0.10247575 0.077609986 0.85949999 6.9365521e-39
-0.032381434 0.082835346 0.85899997 3.9891772e-39
-0.029859265 0.081548698 0.85866666 4.4505001e-39
-0.027830657 0.080483258 0.85799998 7.031633e-39
0.10304865 0.080483258 0.85799998 6.6596079e-39
0.10586671 0.082130946 0.85949999 5.8309332e-39
-0.034377024 0.086066455 0.85866666 6.3826567e-39
0.11007427 0.085948393 0.86000001 6.1979179e-39
-0.037652832 0.089612864 0.85899997 4.2618237e-39
-0.035352457 0.088005051 0.85799998 5.37139e-39
0.11340165 0.089665905 0.85949999 5.2766608e-39
0.11685967 0.091225937 0.86000001 4.9990104e-39
-0.038893607 0.09409672 0.85866666 4.8131926e-39
0.11508354 0.093270317 0.85799998 3.064707e-39
0.11658789 0.094022498 0.85799998 4.2628957e-39
-0.041466329 0.098765269 0.86000001 4.5394573e-39
-0.039865538 0.097783394 0.85799998 4.4490652e-39
0.11836753 0.09801133 0.86000001 4.3529361e-39
-0.041819189 0.10209791 0.85950005 3.0650826e-39
0.11898208 0.10166089 0.85899997 3.710075e-39
-0.044482067 0.10781246 0.86000001 1.3165746e-39
-0.042940885 0.10622102 0.8593334 3.6164206e-39
0.11884443 0.10455301 0.85799998 4.0767079e-39
-0.044482067 0.11007427 0.86000001 8.563405e-40
-0.042874258 0.10981827 0.85799998 3.3456225e-39
0.12289114 0.1108282 0.86000001 5.9195219e-39
-0.045514777 0.11394587 0.8591429 4.5362554e-39
-0.046405975 0.11854313 0.85971433 2.6941028e-39
0.12500827 0.11822989 0.85899997 4.534089e-39
-0.046690386 0.12199518 0.85899997 3.2447711e-39
0.12671572 0.12219799 0.85866666 4.8103185e-39
0.12942521 0.12238851 0.86000001 5.4513901e-39
-0.04669039 0.12576045 0.85899997 3.8919509e-39
0.12274824 0.12651438 0.85899997 4.351134e-39
0.1260217 0.12602299 0.85950005 4.0738297e-39
0.12967652 0.12590685 0.86000007 5.1755179e-39
-0.047038861 0.12982599 0.8585 1.4970478e-39
0.12260534 0.12862277 0.85799998 3.6175235e-39
0.12439901 0.13043046 0.86000001 4.8110514e-39
-0.047442567 0.13404322 0.85899997 3.6139361e-39
0.12439901 0.13420013 0.86000001 4.5366085e-39
-0.049005665 0.13947767 0.86000001 2.8767186e-39
-0.047387339 0.13764893 0.85799998 3.2455053e-39
0.12577789 0.13782682 0.85911113 2.9707289e-39
-0.049005665 0.14173946 0.86000001 1.5841707e-39
0.12569872 0.14182639 0.85857141 2.6004989e-39
-0.049817108 0.14583947 0.85839999 1.3101356e-39
0.12726656 0.144586 0.85899997 1.1282162e-39
-0.053780869 0.14930773 0.85799998 1.6728281e-39
-0.050396055 0.14968382 0.85799992 1.1257471e-39
-0.052985147 0.15393507 0.8593334 3.421678e-39
-0.050141472 0.15343805 0.85879993 6.6333826e-40
-0.047387335 0.15570125 0.85799998 7.5766246e-40
-0.052775331 0.1560642 0.86000001 4.7069994e-39
-0.049759597 0.1560642 0.86000001 2.0342229e-40
-0.047387335 0.15795779 0.85799998 1.3083363e-39
0.12636623 0.15795779 0.85799998 2.1366593e-39
0.12862277 0.15720561 0.85799998 6.8346791e-39
-0.046959527 0.16196883 0.8593334 1.4912955e-39
0.1221372 0.16360353 0.86000001 1.4959716e-39
0.12561405 0.16021433 0.85799998 1.1303966e-39
-0.045882981 0.16623178 0.85799998 2.0236992e-40
0.12138326 0.16586533 0.86000001 2.4146797e-39
-0.049005665 0.169635 0.86000001 5.2591194e-39
-0.046959527 0.17000613 0.8593334 1.7632454e-39
-0.04685187 0.17429745 0.8592 4.8002992e-39
0.12199547 0.17395493 0.85899997 6.461624e-39
-0.045184273 0.17772049 0.85899997 4.1549018e-39
-0.042874258 0.17826664 0.85799998 1.0220384e-39
0.11868663 0.17890662 0.85866666 4.5287402e-39
0.1221372 0.17792827 0.86000001 7.9320724e-39
-0.03920453 0.180944 0.86000001 6.550734e-40
0.11860773 0.1811097 0.85899997 6.2790236e-39
0.12138326 0.180944 0.86000001 8.5759942e-39
-0.036942732 0.18471366 0.86000001 5.6106169e-40
-0.034680933 0.18697545 0.86000001 9.685775e-42
-0.033173066 0.18999119 0.86000001 1.937169e-40
-0.029335016 0.19180588 0.85799998 1.040324e-41
-0.026326299 0.19481461 0.85799998 1.0763374e-41
0.10781246 0.19526874 0.86000001 4.4325999e-39
0.11023967 0.1946159 0.8593334 6.4569143e-39
0.10208257 0.19918919 0.86000007 1.3897602e-39
0.10781246 0.1967766 0.86000001 5.444584e-39
0.10932034 0.1967766 0.86000001 6.547689e-39
0.083491974 0.20384076 0.85799998 1.2571049e-41
0.094774678 0.20308858 0.85799998 5.6322669e-40
0.098262653 0.20230544 0.86000001 6.5542933e-40
0.10027313 0.2013002 0.86000001 1.1138865e-39
0.074639395 0.20733166 0.86000001 1.2562641e-41
0.077655137 0.20733166 0.86000001 1.2919972e-41
0.082836226 0.20633841 0.85900003 1.3644443e-41
0.085848451 0.20633839 0.85899997 1.329552e-41
0.089677036 0.20633121 0.85960007 1.9804131e-40
0.093940094 0.20612536 0.86000007 5.6358403e-40
0.097257398 0.20431592 0.86000001 1.0213322e-39
0.070115797 0.21185526 0.86000001 1.5070965e-41
0.073885463 0.20959346 0.86000001 1.3277303e-41
0.077655137 0.20959346 0.86000007 1.3641641e-41
0.082932666 0.20883952 0.86000001 1.3645844e-41
0.070115805 0.21336314 0.86000001 1.578843e-41
0.062163115 0.21775918 0.85950005 1.5083577e-41
0.064084329 0.21939459 0.86000001 1.5072366e-41
0.062430933 0.22189307 0.85799998 8.9795206e-42
0.064084336 0.22241032 0.86000001 6.4711963e-42
0.051398963 0.22690764 0.85799998 0
0.053906232 0.22690764 0.85799998 0
0.05761015 0.22629397 0.85899997 1.4012985e-45
0.061750647 0.22591788 0.85900003 0
0.05403189 0.23020099 0.86000007 0
0.057751294 0.22904494 0.86000007 0
0.061822534 0.2284418 0.86000001 0
0.027960405 0.050631002 0.86199999 8.1379624e-39
0.030227466 0.050631002 0.86199999 8.4141905e-39
0.034005903 0.050631002 0.86199999 8.2301608e-39
0.037784331 0.050631002 0.86199999 8.3209467e-39
0.049119629 0.050631002 0.86199999 8.0454136e-39
0.0060454933 0.055165123 0.86199999 8.3202082e-39
0.0090682395 0.055165123 0.86199999 7.6773513e-39
0.013602359 0.053653751 0.86199999 8.0457863e-39
0.018136479 0.052142378 0.86199999 8.2294517e-39
0.021914912 0.052142378 0.86199999 7.5855046e-39
0.027960405 0.052142378 0.86199999 7.9550158e-39
0.029471779 0.052142378 0.86199999 8.0472115e-39
0.054409437 0.052142378 0.86199999 8.2290916e-39
0.058187872 0.052142378 0.86199999 8.2287343e-39
0.061966304 0.052898064 0.86199999 7.7688295e-39
0.065442465 0.053049203 0.86199999 7.3071395e-39
0.069976591 0.054560572 0.86199999 7.4922342e-39
0.073301598 0.055165123 0.86199999 8.594291e-39
-0.0012594777 0.059195455 0.86199999 7.3082087e-39
0.0022670601 0.057180293 0.86199999 7.4918951e-39
0.071790233 0.0566765 0.86199999 8.3223536e-39
0.074057281 0.05743219 0.86199999 7.674829e-39
0.076324344 0.059699245 0.86199999 6.3862258e-39
-0.0083125532 0.06272199 0.86199999 6.8468312e-39
-0.0060454933 0.061966304 0.86199999 7.5840697e-39
-0.0037784332 0.061210617 0.86199999 7.3993534e-39
0.083125532 0.061210617 0.86199999 7.0305554e-39
0.08690396 0.06272199 0.86199999 6.7536084e-39
0.088415332 0.06272199 0.86199999 6.5692227e-39
-0.018136479 0.067256115 0.86199999 6.4795438e-39
-0.014660321 0.06634929 0.86199999 7.3071227e-39
-0.010579612 0.064233363 0.86199999 7.3057032e-39
0.089926705 0.064737156 0.86199999 7.2142362e-39
0.09446083 0.067256115 0.86199999 7.6755395e-39
-0.023426285 0.070278861 0.86199999 7.4897399e-39
-0.018136479 0.068767488 0.86199999 7.2149607e-39
0.095216513 0.068767488 0.86199999 6.6617337e-39
0.097483575 0.071790233 0.86199999 6.3851944e-39
-0.024937658 0.073301598 0.86199999 6.291882e-39
0.1020177 0.074309185 0.86199999 5.4646576e-39
0.10352907 0.076324344 0.86199999 5.6497495e-39
0.10541829 0.078213565 0.86199999 7.4900804e-39
-0.034005899 0.083881214 0.86199999 5.3696328e-39
-0.030983152 0.080858469 0.86199999 4.728875e-39
0.10655182 0.080858469 0.86199999 6.5674123e-39
0.10881887 0.083125532 0.86199999 5.0933752e-39
-0.035517272 0.085392587 0.86199999 6.7511029e-39
0.11108593 0.085392587 0.86199999 5.551831e-39
0.11486436 0.089171022 0.86199999 4.4472827e-39
0.11713143 0.089926705 0.86199999 5.3688873e-39
-0.042318452 0.095972203 0.86199999 4.5376791e-39
-0.042570349 0.097987369 0.86199999 4.2636075e-39
0.12015417 0.098994948 0.86199999 5.7355188e-39
-0.043074138 0.101262 0.86199999 4.5376987e-39
0.12015417 0.101262 0.86199999 4.3547157e-39
-0.044585511 0.10579613 0.86199999 4.6284104e-39
-0.046600677 0.11058214 0.86199999 2.049853e-39
0.12242123 0.10881887 0.86199999 5.2748798e-39
-0.049119633 0.11410868 0.86199999 3.9852228e-39
-0.047608256 0.113353 0.86199999 4.3532892e-39
-0.049119629 0.11788711 0.86199999 1.9572931e-39
0.12619966 0.11788711 0.86199999 3.7972414e-39
-0.049119633 0.12166554 0.86199999 3.1515188e-39
0.12771104 0.12015417 0.86199999 4.531959e-39
0.12922241 0.12015417 0.86199999 4.624156e-39
-0.049119633 0.12619966 0.86199999 3.1554649e-39
-0.049119629 0.12997809 0.86199999 1.4044556e-39
0.12695536 0.12997809 0.86199999 3.3369905e-39
0.12922241 0.12997809 0.86199999 3.0607525e-39
-0.04972418 0.13345425 0.86199999 2.0494817e-39
0.12695536 0.13375653 0.86199999 4.1671127e-39
0.12982695 0.13345425 0.86199999 2.9649892e-39
0.13224515 0.13300085 0.86199999 6.5559609e-39
-0.049623422 0.13829067 0.86199999 3.2458543e-39
0.12922241 0.13753498 0.86199999 3.0600421e-39
-0.050631002 0.14206909 0.86199999 2.5061242e-39
0.12922241 0.14206909 0.86199999 2.5082962e-39
-0.050631002 0.14584751 0.86199999 7.5766246e-40
0.12922242 0.14584753 0.86199999 1.8647219e-39
-0.052142378 0.15793851 0.86199999 2.3085005e-39
-0.049623422 0.15844232 0.86199999 2.0451951e-40
-0.047608256 0.163984 0.86199999 2.9383547e-40
-0.047608256 0.16625106 0.86199999 1.5084978e-41
0.12317692 0.16625106 0.86199999 2.0458972e-39
-0.047608256 0.16851811 0.86199999 1.5840278e-41
0.12090986 0.17002949 0.86199999 1.4934366e-39
-0.041184925 0.18174264 0.86199999 1.1120985e-39
-0.038540017 0.18363185 0.86199999 4.7138559e-40
0.1186428 0.18363185 0.86199999 8.4837958e-39
0.12015417 0.18363185 0.86199999 8.8525783e-39
-0.038540017 0.18514323 0.86199999 7.4581168e-40
-0.035517272 0.18816598 0.86199999 1.029604e-40
0.10579613 0.19874558 0.86199999 2.3095655e-39
0.10806319 0.19874558 0.86199999 6.0874297e-39
0.10201769 0.20252402 0.86199999 1.6638331e-39
0.10504045 0.20025696 0.86199999 2.953137e-39
0.080858469 0.20781383 0.86199999 1.3991965e-41
0.089926705 0.20781383 0.86199999 1.4740259e-41
0.095972203 0.20630245 0.86199999 6.5542653e-40
0.098491155 0.20579867 0.86199999 1.3879581e-39
0.10050632 0.20554677 0.86199999 1.7553141e-39
0.070581138 0.21023202 0.86199999 1.2561239e-41
0.081992 0.21045873 0.86199999 1.4354901e-41
0.086148277 0.20932519 0.86199999 1.4005978e-41
0.089926712 0.20932519 0.86199999 1.9697772e-40
0.093705148 0.20932519 0.86199999 7.4618443e-40
0.066047013 0.21476613 0.86199999 1.5429697e-41
0.070278868 0.2153707 0.86199999 1.5072366e-41
0.074057288 0.21385932 0.86199999 2.9058026e-40
0.077835724 0.21310364 0.86199999 1.5436704e-41
0.081614152 0.21234794 0.86199999 1.9659797e-40
0.06593366 0.21820453 0.86199999 1.072764e-40
0.069271281 0.21738586 0.86199999 1.0763934e-40
0.066248529 0.22191998 0.86199999 2.8738109e-40
0.064989045 0.22595032 0.86199999 0
0.057432186 0.23199581 0.86199999 0
0.055165123 0.23350717 0.86199999 4.2038954e-45
0.057432186 0.23350717 0.86199999 1.4012985e-45
0.038003497 0.047884405 0.86699998 8.0461507e-39
0.04636427 0.047884405 0.86699998 8.1376092e-39
0.055485107 0.047884405 0.86699998 7.6770024e-39
0.057005249 0.047884405 0.86699998 7.6770024e-39
0.07524693 0.046364266 0.86699998 7.3053276e-39
0.076767065 0.046364266 0.86699998 6.476646e-39
0.014441329 0.050924689 0.86699998 8.2290874e-39
0.018241677 0.050924689 0.86699998 8.1376162e-39
0.022329751 0.050281394 0.86640006 8.045408e-39
0.025797669 0.050076511 0.86549997 8.137961e-39
0.029606786 0.049347565 0.86600006 8.4138318e-39
0.034084801 0.049233597 0.86400002 8.3219991e-39
0.037872002 0.049233597 0.86400002 8.0454318e-39
0.041659199 0.049233597 0.86400002 8.1383281e-39
0.046203844 0.049233597 0.86400002 8.0457695e-39
0.050300505 0.049795546 0.86500001 8.0450493e-39
0.053778239 0.049991038 0.86400002 8.0443332e-39
0.058060404 0.050176717 0.8646 8.1365358e-39
0.061457839 0.050076514 0.86550003 8.2287385e-39
0.065975301 0.050807219 0.86500001 7.2146006e-39
0.069926433 0.050924689 0.86699998 8.044343e-39
0.073726788 0.050164618 0.86699998 7.9507026e-39
0.0022802099 0.055485111 0.86699998 7.8610279e-39
0.0060687247 0.053871602 0.86549997 8.2283783e-39
0.0098638153 0.053111531 0.86550009 8.0446989e-39
0.01442292 0.052384339 0.86600006 8.5056757e-39
0.06741216 0.05226336 0.86400002 7.1212853e-39
0.070820644 0.052642077 0.86400002 8.3202012e-39
0.074380606 0.053475261 0.86400002 7.3982687e-39
0.077080689 0.054297008 0.86624998 6.9369235e-39
-0.00530208 0.059837762 0.86400002 8.0447256e-39
-0.0026543273 0.058373503 0.86475003 7.0319932e-39
0.00075743999 0.056807999 0.86400002 7.032003e-39
0.07834243 0.058233459 0.86549991 6.478455e-39
-0.013681259 0.063085809 0.86699998 7.8595804e-39
-0.0098638143 0.061710756 0.86549997 7.5840809e-39
-0.0068287947 0.060699083 0.86549997 8.0453968e-39
0.082087554 0.060045525 0.86699998 7.7684736e-39
0.090135358 0.062867522 0.86400002 6.6617785e-39
-0.017946243 0.065466836 0.86500001 7.3989652e-39
-0.014391361 0.064382397 0.86400002 7.6751863e-39
0.09165024 0.064382397 0.86400002 7.2131544e-39
0.094085611 0.065251611 0.86549997 7.2134963e-39
0.096361883 0.066769123 0.86549997 7.5829823e-39
-0.025038915 0.071321651 0.86549997 5.0076185e-39
-0.023562169 0.069166362 0.86699998 7.4897399e-39
0.098552018 0.070501752 0.86475003 6.7528867e-39
0.10147943 0.071109936 0.86600006 6.3848329e-39
-0.028122587 0.07524693 0.86699998 6.566692e-39
-0.026602449 0.073726788 0.86699998 6.1996863e-39
0.10287771 0.073049992 0.86500001 4.360831e-39
0.10584216 0.073683396 0.86650002 5.2817055e-39
0.10869 0.07524693 0.86699998 6.3848007e-39
-0.029277159 0.077819593 0.86520004 6.5666668e-39
0.10679904 0.077258877 0.86400002 7.4897483e-39
0.10991471 0.0780771 0.86466664 6.0135238e-39
0.11325043 0.078287207 0.86699998 5.364214e-39
-0.03332736 0.081803516 0.86400002 3.8051433e-39
0.1102091 0.081708312 0.8646 5.0011726e-39
0.11325043 0.082087554 0.86699998 5.0912186e-39
-0.037114561 0.087105595 0.86400002 6.474146e-39
-0.035599679 0.084075838 0.86400002 6.1071978e-39
0.11134367 0.084075838 0.86400002 4.9093553e-39
0.11421376 0.086065993 0.86442858 5.3670726e-39
0.11740319 0.086348161 0.86400002 5.0915801e-39
-0.04028371 0.091968462 0.86699998 5.1787381e-39
-0.038629442 0.088620484 0.86400002 5.2752511e-39
0.11588831 0.088620484 0.86400002 4.0781485e-39
0.11868839 0.090345763 0.86600006 4.9061015e-39
-0.044844128 0.095008746 0.86699998 4.7195172e-39
-0.041388966 0.094546519 0.86625004 4.9957523e-39
0.11912453 0.0940843 0.86549997 4.4462093e-39
-0.044844132 0.09804903 0.86699998 3.3405806e-39
0.11891808 0.096194878 0.86400002 4.3547396e-39
0.12085112 0.097288951 0.86699998 4.6306006e-39
-0.044792406 0.10248934 0.86600006 5.9199129e-39
-0.049404547 0.10716986 0.86699998 3.0600477e-39
-0.046704192 0.10593706 0.86624998 4.3521976e-39
0.12313133 0.10716986 0.86699998 4.2600034e-39
-0.05366094 0.11112223 0.86700004 3.7965099e-39
-0.050078269 0.11001772 0.86549997 3.8912363e-39
-0.047213763 0.10881888 0.86400002 2.2342429e-39
0.12346271 0.10831392 0.86400002 5.3663509e-39
0.1249776 0.11134367 0.86400002 4.9057399e-39
-0.053367522 0.11406529 0.86549997 3.1533237e-39
-0.050748479 0.11437345 0.86400002 3.1558222e-39
0.1249776 0.11437344 0.86400002 4.3525732e-39
-0.053651124 0.1181808 0.86600006 1.6799985e-39
-0.050748479 0.11816064 0.86400002 1.7725417e-39
0.12693168 0.11781084 0.86699998 2.6019436e-39
0.12845182 0.11781084 0.86699998 3.9783788e-39
-0.052444827 0.12085112 0.86699998 1.4062521e-39
-0.050924689 0.12237126 0.86699998 3.612497e-39
-0.050924689 0.12693168 0.86699998 3.1550978e-39
-0.050807219 0.1296704 0.86500001 1.496654e-39
0.13103712 0.13027968 0.86400002 5.3548911e-39
0.132552 0.13027968 0.86400002 6.8303813e-39
-0.050748479 0.13558176 0.86400002 3.2451424e-39
0.13103712 0.13558176 0.86400002 4.2521351e-39
0.132552 0.13558176 0.86400002 7.2942321e-39
-0.052444827 0.1390928 0.86699998 3.0607539e-39
-0.050748479 0.13785407 0.86400002 3.0618189e-39
0.13103712 0.13785407 0.86400002 5.2630584e-39
0.132552 0.13785407 0.86400002 7.4757535e-39
-0.052444827 0.14137301 0.86699998 2.5104556e-39
0.13065839 0.14126256 0.86400002 4.1610255e-39
0.13377231 0.14213309 0.86700004 7.1037382e-39
-0.057005249 0.1466935 0.86699998 6.8293486e-39
-0.053624641 0.14598393 0.86640006 7.5373883e-40
-0.050748479 0.14467104 0.86400002 7.5766246e-40
0.13103712 0.14618592 0.86400002 5.9059083e-39
0.13352825 0.1462869 0.86640006 8.0242512e-39
-0.057005249 0.14821364 0.86699998 9.0387815e-39
-0.054725036 0.14821364 0.86699998 1.2093346e-39
-0.053114165 0.15933722 0.86549997 5.4445896e-39
-0.050748479 0.15981983 0.86400002 1.7619927e-41
0.12876481 0.15981983 0.86400002 5.2662996e-39
-0.053204898 0.16113482 0.86699998 5.169809e-39
-0.050079145 0.16237357 0.86549997 4.7748124e-40
0.12649249 0.16284961 0.86400002 4.6255615e-39
0.12898836 0.16237488 0.86550003 7.5639849e-39
-0.049656369 0.1656433 0.86475003 1.9447612e-39
0.12588143 0.16607046 0.86500001 5.4478084e-39
0.1292119 0.16797546 0.86699998 7.7462308e-39
-0.049233597 0.16890912 0.86400002 3.8761849e-39
0.12346272 0.17042401 0.86400002 4.8088584e-39
0.12573504 0.17042401 0.86400002 6.9197155e-39
0.12845182 0.16949561 0.86699998 7.7462308e-39
-0.049233597 0.17421119 0.86400002 7.5629143e-39
0.1249776 0.17345375 0.86400002 8.9429705e-39
-0.046203841 0.17951328 0.86400002 5.5335301e-39
-0.045245644 0.18174438 0.86500001 4.519713e-39
-0.04241664 0.18254302 0.86400002 1.8474999e-39
-0.044844128 0.18545707 0.86699998 4.608334e-39
-0.041921545 0.1860863 0.86550003 2.0301003e-39
-0.037872002 0.18708767 0.86400002 5.6071417e-40
0.11740319 0.18405792 0.86400002 5.8202189e-39
-0.041043777 0.19001749 0.86699998 1.7531659e-39
-0.037971281 0.18985376 0.86625004 5.6071837e-40
-0.034842238 0.19087487 0.86400002 4.692318e-40
-0.037243426 0.1922977 0.86699998 8.3299767e-40
-0.033794843 0.19365019 0.86625004 1.0009475e-40
-0.030586023 0.19438241 0.86500001 8.9683102e-42
-0.028025279 0.19617695 0.86400002 1.937155e-40
0.10376928 0.20375136 0.86400002 1.7549638e-39
0.10622438 0.20183013 0.86549997 3.4126886e-39
0.10831392 0.20072159 0.86400002 6.3611453e-39
0.1022544 0.20526624 0.86400002 2.0315409e-39
0.086348161 0.21132575 0.86400002 1.3645844e-41
0.090892799 0.21132575 0.86400002 4.6960314e-40
0.093922555 0.21132575 0.86400002 4.6636614e-40
0.097406782 0.20890193 0.86400002 1.2961268e-39
0.064382397 0.21435551 0.86400002 1.4712233e-41
0.078016326 0.21587041 0.86400002 3.7954449e-40
0.081803516 0.21435551 0.86400002 1.1852182e-41
0.085361913 0.21358886 0.86549997 1.9480571e-40
0.090068288 0.21319962 0.86699998 7.4439357e-40
0.094248675 0.21357965 0.86699998 1.385447e-39
0.096528888 0.21205951 0.86699998 1.4790733e-39
0.071451843 0.2183952 0.86400002 5.6500915e-40
0.074294209 0.21833274 0.86475003 1.0656875e-40
0.077527136 0.21890014 0.86699998 5.6178336e-40
0.082087554 0.21661994 0.86699998 2.8592374e-40
0.084367767 0.21661994 0.86699998 2.8520207e-40
0.06741216 0.22344479 0.86400002 2.16921e-42
0.069745623 0.22136512 0.86475003 3.7957112e-40
0.07271336 0.22168708 0.86699998 3.7703897e-40
0.06698522 0.22673666 0.86500001 0
0.069673076 0.22472736 0.86699998 3.643376e-43
0.067646228 0.22878104 0.86699998 0
0.023289086 0.0423785 0.87099999 8.5056715e-39
0.0190675 0.047286525 0.87 8.5053043e-39
0.022315547 0.046727646 0.87024993 8.3216362e-39
0.025941735 0.046541359 0.87033337 8.3212732e-39
0.029745299 0.047286522 0.87 8.1372477e-39
0.034619041 0.047428191 0.86980003 8.1376106e-39
0.038178831 0.046578176 0.87099999 7.8620943e-39
0.041948497 0.047286522 0.87000006 8.1372519e-39
0.045709401 0.046471223 0.86900002 8.3220033e-39
0.049891621 0.047144856 0.87019998 7.9532138e-39
0.05385942 0.047144853 0.8702001 7.4933118e-39
0.058241349 0.047050409 0.87033337 7.9532208e-39
0.06148817 0.047144856 0.87019998 8.6889964e-39
0.066431165 0.04657818 0.87099999 7.8588784e-39
0.070249051 0.046578176 0.87099999 7.9507139e-39
0.072539784 0.046578176 0.87099999 7.8588798e-39
0.0038178831 0.051159631 0.87099999 7.583732e-39
0.0061007235 0.051100895 0.87 7.6762808e-39
0.0099151004 0.050337326 0.87 8.1376064e-39
0.014188498 0.04897603 0.87019998 8.0446877e-39
0.017541222 0.04881192 0.87 8.5052945e-39
0.020569229 0.049518514 0.86900002 8.5056659e-39
0.063304096 0.04881192 0.87 7.6755759e-39
0.066354901 0.048811924 0.87 7.4904616e-39
0.070168398 0.04881192 0.87 7.8592413e-39
0.072373211 0.049518514 0.86900002 7.5837348e-39
-0.0061086132 0.055741094 0.87099999 7.4918783e-39
-0.0019849488 0.055104639 0.87060004 8.04648e-39
0.0022881001 0.053388126 0.87 8.32129e-39
0.0061007235 0.052626297 0.87 8.044343e-39
0.079274774 0.054119699 0.86949998 7.122028e-39
0.0816558 0.054181941 0.87050003 7.4907979e-39
-0.012980803 0.058795404 0.87099999 8.6904159e-39
-0.0096172085 0.058157541 0.87060004 7.3071423e-39
-0.0060945866 0.057898574 0.86900002 6.7553993e-39
-0.0030472935 0.057136752 0.86900002 6.7561209e-39
0.082372472 0.057965197 0.87 7.4922566e-39
0.084757008 0.058031823 0.87099999 6.4773802e-39
-0.017039768 0.062310249 0.87033337 7.3975289e-39
-0.014182538 0.06145836 0.86980003 7.8603007e-39
-0.010665527 0.060184043 0.86900002 8.0446877e-39
0.086234629 0.061050627 0.87050003 6.7532328e-39
0.093704268 0.063231334 0.86900008 6.4766628e-39
-0.023670875 0.067958318 0.87099999 6.8440146e-39
-0.019045582 0.064754978 0.86900002 7.1213091e-39
0.098007381 0.06597311 0.87 7.3060479e-39
0.10199203 0.066649333 0.87099999 8.1351079e-39
0.10461 0.066431165 0.87099999 6.93622e-39
0.099798858 0.069325924 0.86900002 7.7681064e-39
0.10208432 0.069325924 0.86900002 7.3056864e-39
0.10573564 0.070337243 0.8702001 6.1993626e-39
-0.028949283 0.074658684 0.86900002 6.4748649e-39
0.1076643 0.072539784 0.87099999 5.9231373e-39
0.11053652 0.073944449 0.86957145 5.8294829e-39
-0.0327961 0.079319924 0.87 3.160141e-39
-0.031270698 0.077794522 0.87 5.4639626e-39
-0.035124525 0.082466274 0.87099999 4.9100657e-39
0.11503533 0.08303874 0.86900002 4.9983041e-39
0.11732079 0.08303874 0.86900002 5.7315405e-39
-0.037372299 0.085421517 0.87 6.199357e-39
0.11503533 0.084562384 0.86900002 5.4589165e-39
0.11853234 0.085754648 0.86949998 5.9166647e-39
0.12173072 0.087167844 0.8696667 6.8335861e-39
-0.040376633 0.090656973 0.86900002 4.3504222e-39
0.11960626 0.08913333 0.86900002 5.3656447e-39
0.122032 0.089999475 0.87 5.8215908e-39
-0.045709401 0.09446609 0.86900002 4.3539703e-39
-0.042662106 0.092942446 0.86900002 6.8382202e-39
0.12179048 0.093538135 0.87099999 4.3514928e-39
-0.046471223 0.098275207 0.86900008 3.9837836e-39
-0.049632482 0.10308284 0.87099999 5.09012e-39
-0.046471223 0.10208432 0.86900002 6.1053439e-39
0.12293585 0.1015557 0.87099999 5.1816024e-39
0.12446298 0.10079212 0.87099999 4.7199081e-39
-0.052606136 0.10597585 0.8696667 4.161345e-39
-0.050478995 0.10568479 0.86980003 3.0625686e-39
-0.047994871 0.10513162 0.86900002 4.5358602e-39
0.1227947 0.10525171 0.87 3.6168032e-39
0.12508279 0.10601442 0.87 4.2585755e-39
-0.052565809 0.10894074 0.86900002 3.2451452e-39
0.12660907 0.1098288 0.87 5.2720057e-39
0.12904446 0.10995504 0.87099999 6.6459789e-39
0.1275173 0.11453649 0.87099999 3.4313329e-39
0.12904446 0.11453649 0.87099999 5.4510104e-39
-0.055613101 0.11732079 0.86900002 3.6071132e-39
0.12722449 0.11655897 0.86900002 2.5083088e-39
0.1305757 0.11812733 0.86933339 6.1874922e-39
0.13209875 0.11682723 0.87099999 8.3934023e-39
-0.053664565 0.12233269 0.87033337 1.5888426e-39
-0.052686788 0.1275173 0.87099999 3.2451424e-39
-0.051042162 0.12570085 0.86900002 3.2465899e-39
-0.0536444 0.13016719 0.87 2.5994157e-39
-0.053919092 0.13352305 0.87033337 2.5064984e-39
-0.053529795 0.13771152 0.86980003 2.6919728e-39
-0.053708546 0.14284186 0.86900002 1.2179161e-39
-0.055613101 0.14550826 0.86900002 1.3887176e-39
-0.053581577 0.16328414 0.86900008 8.1179084e-39
-0.053389877 0.16626859 0.87 1.0418091e-38
-0.051042162 0.1668393 0.86900002 7.5658178e-39
0.12950996 0.16607748 0.86900002 8.1142916e-39
-0.052626297 0.16932029 0.87 9.4968547e-39
-0.051042162 0.16912478 0.86900002 7.5647388e-39
-0.046471223 0.18664671 0.86900002 4.8834747e-39
-0.045709401 0.18969402 0.86900008 4.3310282e-39
-0.043423928 0.19045582 0.86900002 3.2250492e-39
-0.040376633 0.1927413 0.86900002 1.3861714e-39
-0.038091168 0.19426495 0.86900002 7.4116217e-40
-0.035297818 0.19528072 0.86900008 2.8126302e-40
-0.033578523 0.1984164 0.87049997 2.8053435e-40
-0.030028814 0.19831795 0.86940002 1.9084564e-40
-0.026725182 0.19929349 0.87099999 9.3368517e-42
-0.033597372 0.20082065 0.87099999 4.6312914e-40
-0.030543063 0.20082065 0.87099999 3.7128804e-40
0.086847857 0.21559599 0.86900002 1.0045488e-40
0.089895152 0.21559599 0.86900002 8.333564e-40
0.092942446 0.21559599 0.86900002 1.294336e-39
0.079991452 0.21864329 0.86900002 2.8520207e-40
0.082276918 0.21864329 0.86900002 1.9049251e-40
0.086234629 0.21825801 0.87050003 5.567611e-40
0.090102047 0.21761934 0.87099999 7.4080204e-40
0.092392772 0.21761934 0.87099999 1.9361082e-39
0.07491263 0.22270635 0.86900008 3.5873241e-42
0.0781992 0.22209807 0.86940002 2.1565983e-42
0.0816558 0.22131054 0.87050003 3.9544643e-42
0.084757008 0.22067364 0.87099999 3.7272577e-40
0.070341691 0.22727728 0.86900008 0
0.073706403 0.22607106 0.86900002 3.61535e-43
0.077571265 0.22559176 0.87033337 1.8582899e-40
0.070087746 0.22930881 0.86900002 3.5873241e-43
0.073983647 0.22880912 0.87 9.2559967e-41
0.02066391 0.043623809 0.87300003 8.7804731e-39
0.02602122 0.042858481 0.87300003 8.5049736e-39
0.029894626 0.043690436 0.87433338 7.9532124e-39
0.046025001 0.043723747 0.875 8.3205698e-39
0.058298331 0.043723747 0.875 7.9528592e-39
0.062133748 0.043340206 0.875 8.0439885e-39
0.013775939 0.046685129 0.87300003 8.2290846e-39
0.016837258 0.046685129 0.87300003 8.2283559e-39
0.02066391 0.045154467 0.87300003 8.3213026e-39
0.029847868 0.045154467 0.87300003 8.1372533e-39
0.033470839 0.045733653 0.87433338 8.0457807e-39
0.037528642 0.045188949 0.8736667 8.0457667e-39
0.04209315 0.045154467 0.87300003 8.1376092e-39
0.045919798 0.045154467 0.87300003 8.3216432e-39
0.049093328 0.045257915 0.875 8.3212802e-39
0.054338425 0.045154467 0.87300003 7.4926084e-39
0.058165077 0.045154467 0.87300003 7.7688337e-39
0.061991733 0.045154467 0.87300003 8.4123969e-39
0.065053046 0.045154467 0.87300003 8.1351037e-39
-0.0015332899 0.051335845 0.87400001 8.8744512e-39
0.0022973048 0.050540272 0.87349999 8.0443514e-39
0.0061226399 0.04974645 0.87300003 7.5847928e-39
0.0099633168 0.048289429 0.87433338 8.5982244e-39
-0.013040416 0.055997081 0.875 8.5063847e-39
-0.0097665042 0.054575566 0.87375009 7.5840795e-39
-0.0061296532 0.053633589 0.87400007 7.6769814e-39
-0.0026808465 0.053220678 0.87349999 8.5067435e-39
0.082910746 0.05382821 0.87300003 7.3986135e-39
0.084951624 0.055869088 0.87300003 4.5452349e-39
-0.016875833 0.059065413 0.875 6.4795551e-39
-0.014042154 0.057953801 0.8736667 8.2297979e-39
-0.01147995 0.057399746 0.87300003 8.5046303e-39
0.086680412 0.059065413 0.875 5.924547e-39
0.088214576 0.059065413 0.875 7.0305358e-39
-0.017996212 0.061644569 0.87349999 7.1209448e-39
0.08877828 0.061226401 0.87300003 7.1223741e-39
0.097419582 0.063667916 0.875 6.3848189e-39
-0.022221746 0.065894648 0.87400001 7.0283974e-39
0.10025823 0.065818377 0.87300003 8.4116822e-39
0.1057374 0.066659972 0.87400001 7.210286e-39
-0.028382082 0.07133875 0.875 3.713689e-39
-0.026080832 0.070571661 0.875 3.7161903e-39
0.10740131 0.068624586 0.87300003 6.8415006e-39
0.10995241 0.070665471 0.87300003 7.2088398e-39
-0.029882059 0.073938496 0.87400001 5.6472805e-39
-0.026786549 0.072706349 0.87300003 3.9916603e-39
-0.033751667 0.078242496 0.875 4.6323872e-39
-0.036052916 0.082077913 0.875 5.5554281e-39
-0.034439847 0.080359645 0.87300003 3.0690356e-39
0.11556482 0.081124976 0.87300003 4.3536578e-39
0.11786081 0.081124976 0.87300003 4.8106674e-39
-0.041678198 0.090260141 0.875 5.4607256e-39
0.12335928 0.095008746 0.87400001 5.3609672e-39
0.12554596 0.095374033 0.875 6.0034695e-39
0.12321813 0.097962238 0.87300003 5.8244662e-39
0.12503457 0.097419582 0.875 6.2836395e-39
-0.052807771 0.10025823 0.87300003 6.5519686e-39
-0.049363784 0.10102355 0.87300003 5.2756043e-39
0.12596211 0.10296597 0.87433338 4.5329861e-39
0.12704477 0.10638086 0.87300003 5.1772906e-39
0.12902692 0.10705356 0.87433338 6.1864356e-39
0.12781011 0.11250351 0.87300003 4.3529249e-39
0.13048875 0.11365151 0.87300003 6.8328742e-39
0.13240209 0.11556482 0.87300003 8.7607302e-39
-0.055997081 0.12273332 0.875 2.7809272e-39
-0.057531249 0.12656875 0.875 3.1511321e-39
-0.05456176 0.12616 0.87350005 3.5210104e-39
-0.058254495 0.12953773 0.87433338 4.2517623e-39
-0.055869088 0.12934077 0.87300003 3.4284448e-39
-0.058092315 0.13381071 0.87420005 3.3305221e-39
-0.055869088 0.13469809 0.87300003 2.5983311e-39
-0.057531249 0.13807499 0.875 2.1384319e-39
-0.055869088 0.13775939 0.87300003 2.5994101e-39
-0.057531249 0.14037624 0.875 2.5980003e-39
-0.055869088 0.14082071 0.87300003 2.6876806e-39
-0.057531249 0.16722415 0.875 1.0140426e-38
-0.05591175 0.16620228 0.8736667 1.0509213e-38
-0.057531249 0.16952541 0.875 9.8660044e-39
-0.055229999 0.1702925 0.875 9.8656415e-39
-0.035970509 0.19898582 0.87300003 3.7237965e-40
-0.029916249 0.2027657 0.875 4.6204734e-40
-0.021734027 0.20736818 0.875 3.5929293e-42
-0.021478333 0.21018082 0.875 8.3370813e-40
0.08877828 0.2196497 0.87300003 6.4860641e-40
0.08342097 0.22271103 0.87300003 9.5432629e-41
0.07882899 0.227303 0.87300003 5.5317378e-40
0.080869868 0.22475192 0.87300003 9.5435432e-41
0.018344074 0.043007862 0.87919998 8.2276511e-39
0.021601066 0.041659199 0.88 8.7811864e-39
0.030018819 0.042334236 0.87800002 8.229086e-39
0.033893105 0.042365208 0.87866676 8.2305181e-39
0.037774399 0.043169405 0.87933344 8.0457709e-39
0.042397939 0.043168824 0.87933338 8.2283713e-39
0.0461828 0.042334232 0.87800002 8.5038904e-39
0.050145335 0.043973602 0.88 8.2276511e-39
0.054002665 0.043973599 0.88 7.5829865e-39
0.057442266 0.042791411 0.87949997 8.1372477e-39
0.060945861 0.042430665 0.88 8.2287118e-39
0.010006273 0.046952512 0.87800002 8.3220019e-39
0.014657865 0.045516528 0.88 8.2287259e-39
0.017715681 0.045447569 0.87866676 7.8603119e-39
0.051570792 0.045413088 0.87800002 7.9528508e-39
-0.016163979 0.051570792 0.87800002 9.3228765e-39
-0.01359827 0.051057648 0.87800002 8.0375033e-39
-0.010012703 0.051609948 0.87866676 7.1216833e-39
-0.0061647198 0.050858062 0.87900007 8.4134871e-39
-0.0026979416 0.050501697 0.87949997 8.8740967e-39
0.00076971331 0.050031364 0.87800002 8.4142185e-39
0.0069274199 0.04849194 0.87800002 7.4929461e-39
-0.016933693 0.054649644 0.87800002 7.3953975e-39
-0.013854841 0.053879932 0.87800002 8.3191124e-39
-0.0115457 0.05311022 0.87800002 7.7666813e-39
-0.021190785 0.058178227 0.87900007 7.2084671e-39
-0.017941609 0.057344515 0.87885725 6.751456e-39
-0.014624554 0.056189071 0.87800002 7.9535697e-39
0.091033056 0.059402931 0.88 8.7786584e-39
-0.028479392 0.063886203 0.87800002 7.2045406e-39
-0.021705916 0.061731011 0.87800008 6.6585275e-39
-0.019242832 0.060807351 0.87800002 6.2000366e-39
0.091152295 0.06136667 0.87866676 8.1357988e-39
0.093719169 0.06187981 0.87866676 7.5837236e-39
0.096433327 0.062488798 0.88 5.4661024e-39
-0.028992534 0.066451922 0.87800002 6.839693e-39
-0.026199182 0.066270739 0.87900007 5.8302186e-39
-0.023118576 0.065500155 0.87900001 7.4875735e-39
-0.030047571 0.070416324 0.87880003 5.8291368e-39
-0.026426826 0.069017634 0.87800002 4.816068e-39
-0.033944532 0.074832261 0.88 4.6334522e-39
-0.031594187 0.073975757 0.87900001 5.8338101e-39
-0.036258932 0.07946106 0.88 5.2784867e-39
-0.034150258 0.076772623 0.87866676 5.2781182e-39
-0.037231453 0.082421862 0.87866676 5.6461874e-39
-0.039344799 0.084861323 0.88 5.1837632e-39
-0.040887732 0.08871866 0.88 5.8266102e-39
-0.039344799 0.08871866 0.88 5.3677999e-39
0.12658599 0.09885411 0.87866676 6.3733436e-39
0.12883493 0.099519193 0.88 7.3864152e-39
0.1270027 0.10083245 0.87800002 6.9250587e-39
0.1296064 0.10183359 0.88 7.3824495e-39
0.12945911 0.10479937 0.87900007 5.9098347e-39
-0.057728495 0.12315413 0.87800002 3.3341024e-39
-0.060807351 0.12623298 0.87800002 8.7639826e-39
-0.058754783 0.12597641 0.87800002 5.4485189e-39
-0.060807351 0.12854213 0.87800002 8.8550965e-39
-0.059267931 0.13777868 0.87800002 5.7204479e-39
-0.058498211 0.14162725 0.87800002 5.7236792e-39
-0.057088532 0.14426425 0.88 3.0539618e-39
-0.057728495 0.17164607 0.87800002 9.5883399e-39
-0.056189071 0.1739552 0.87800002 9.8638534e-39
-0.054649644 0.1739552 0.87800002 9.4972233e-39
-0.025913684 0.20192146 0.87800002 3.7704738e-40
-0.023915466 0.20289573 0.88 1.0763374e-41
-0.028929997 0.20598158 0.88 9.2552961e-41
-0.026210576 0.20582497 0.87933338 3.5929293e-42
-0.023489844 0.20562962 0.87850004 6.817317e-42
-0.028544266 0.20906745 0.88 4.2038954e-45
-0.025800738 0.20986566 0.87850004 4.2038954e-45
-0.023861114 0.21013175 0.87800002 1.0818024e-42
-0.019242832 0.20936203 0.87800002 7.4439217e-40
-0.019286666 0.21215333 0.88 3.0492577e-39
0.037887782 0.040980659 0.88200009 8.5056631e-39
0.041753881 0.040980659 0.88200003 8.5957035e-39
0.049486078 0.042527098 0.88200003 8.3198537e-39
0.057991497 0.040980659 0.88200009 8.8730247e-39
0.061084379 0.040980659 0.88200003 8.8726744e-39
0.0115983 0.04561998 0.88200003 8.3223564e-39
0.01366022 0.04458902 0.88200009 8.2283657e-39
-0.0085054198 0.0502593 0.88200003 6.7536042e-39
0.0038661002 0.048712861 0.88200003 7.4007659e-39
0.0054125399 0.048712861 0.88200003 7.4929615e-39
-0.027062699 0.062630817 0.88200003 6.7482344e-39
-0.022423379 0.062630817 0.88200003 6.5659871e-39
-0.02628948 0.06417726 0.88200003 6.9329732e-39
-0.0231966 0.06417726 0.88200003 7.2124145e-39
-0.036341339 0.077321999 0.88200003 5.3695978e-39
-0.038661003 0.081961319 0.88200003 5.9234932e-39
