# .PCD v0.7 - Point Cloud Data file format
VERSION 0.7
FIELDS x y z rgb
SIZE 4 4 4 4
TYPE F F F F
COUNT 1 1 1 1
WIDTH 319
HEIGHT 1
VIEWPOINT 0 0 0 1 0 0 0
POINTS 319
DATA ascii
-0.016716279 0.19979934 0.90799999 6.63447e-39
-0.014169036 0.19852571 0.90799999 3.0431915e-39
-0.010575606 0.19866219 0.90800005 3.4119782e-39
-0.0071641197 0.19900332 0.90799999 2.4893058e-39
-0.02467641 0.20298338 0.90799999 4.7030365e-39
-0.022288373 0.20298338 0.90799999 3.8725696e-39
-0.016716279 0.20139137 0.90799999 6.5437387e-39
-0.014328239 0.20218737 0.90799999 3.8722319e-39
-0.010348173 0.20218736 0.90799999 2.2145224e-39
-0.0071641197 0.20218737 0.90799999 3.4998788e-39
-0.025074419 0.20656545 0.90799999 1.0141842e-39
-0.022447577 0.20616746 0.90799999 1.4751567e-39
-0.014328239 0.20616744 0.90799999 1.5651845e-39
-0.010348173 0.20616744 0.90799999 2.3963941e-39
-0.0067661135 0.20656545 0.90799999 4.1502663e-39
0.0021890365 0.20596845 0.90799999 1.3808073e-39
-0.029452493 0.2101475 0.90799999 2.8602562e-39
-0.026259378 0.21007007 0.90766668 1.845021e-39
-0.02227566 0.21003135 0.90750003 1.66025e-39
-0.014328239 0.21014751 0.90799999 2.2137965e-39
-0.010348173 0.2101475 0.90799999 3.2279457e-39
-0.0063681062 0.21014751 0.90799999 1.3826079e-39
-0.0031840531 0.2101475 0.90799999 1.1027672e-39
0.0015920266 0.20935149 0.90799999 1.8435623e-39
-0.037412625 0.21492359 0.90799999 8.4077908e-45
-0.034626577 0.21532159 0.90799999 3.6842379e-40
-0.030237693 0.21404837 0.90766668 3.8740213e-39
-0.026235905 0.21386516 0.90688884 3.2279134e-39
-0.0222799 0.21404955 0.90766668 2.5825412e-39
-0.014328239 0.21412759 0.90799999 2.671895e-39
-0.010348173 0.21412757 0.90799999 1.4754832e-39
-0.0063681072 0.21412757 0.90799999 1.5673117e-39
-0.003343256 0.21380916 0.90799999 1.382203e-39
-0.037412625 0.21731164 0.90799999 7.3470919e-40
-0.033830564 0.21770963 0.90799999 4.2038954e-45
-0.030216066 0.21786745 0.90700006 1.4012985e-45
-0.026229281 0.21778679 0.90666676 4.6061521e-40
-0.022263827 0.21786657 0.90700006 1.9357285e-39
-0.019900333 0.21890366 0.90799999 4.6107876e-39
-0.010348173 0.21731165 0.90799999 4.6097731e-39
-0.032636546 0.22049567 0.90799999 6.4284847e-40
-0.029983168 0.22102635 0.90799999 1.5673019e-39
-0.026220806 0.22088581 0.90633339 3.0395747e-39
-0.022239279 0.22080427 0.90600002 4.236669e-39
-0.019355047 0.22086331 0.90733337 3.5016122e-39
-0.0095731998 0.19704837 0.91000003 5.626453e-39
-0.0063821333 0.19784614 0.91000003 1.3869029e-39
-0.018348634 0.2030316 0.91000003 3.4090901e-39
-0.0055843666 0.20183496 0.91000003 3.5020368e-39
-0.0028491665 0.2020629 0.91000003 4.8863908e-39
0.0023932999 0.2034305 0.91000003 2.6733047e-39
0.0055843666 0.20343049 0.91000003 3.7764433e-39
-0.029517367 0.20582379 0.91000003 2.3956585e-39
-0.027124066 0.20582378 0.91000003 1.8432119e-39
-0.021539701 0.20662156 0.91000003 5.5176968e-40
-0.018348632 0.20582378 0.91000003 8.2941034e-40
-0.0143598 0.20662156 0.91000003 1.2896822e-39
-0.0055843666 0.20582379 0.91000003 5.2526258e-39
-0.0023932999 0.20582378 0.91000003 4.7008911e-39
-0.038292799 0.21061039 0.91000003 7.5553487e-39
-0.034303971 0.21061039 0.91000003 7.372419e-39
-0.030581057 0.20981263 0.91000003 3.3197924e-39
-0.027921833 0.2082171 0.91000003 1.1049407e-39
-0.018348631 0.20981264 0.90999997 1.6595227e-39
-0.0017550866 0.20917442 0.91000003 2.1194247e-39
0.0023932999 0.20981264 0.91000003 1.6588207e-39
-0.038558722 0.21353555 0.91000003 1.2882081e-39
-0.033984859 0.21364191 0.91000003 6.9114254e-39
-0.018348632 0.21380147 0.91000003 4.6086717e-39
-0.00079776667 0.2130037 0.91000003 7.3504691e-40
-0.039090566 0.21619476 0.91000003 4.5992157e-40
-0.035101734 0.21938582 0.91000003 3.673616e-40
-0.01814919 0.21759084 0.90999997 2.3020041e-39
-0.0143598 0.21858805 0.91000003 3.0381776e-39
-0.0119665 0.21938582 0.91000003 2.7630018e-39
-0.034303967 0.2225769 0.91000003 2.4871114e-39
-0.0311129 0.2225769 0.91000003 3.8728751e-39
0.0064172 0.18289021 0.91500002 1.5858772e-38
-0.0096258 0.1860988 0.91500002 1.4012985e-45
-0.0064172 0.18690094 0.91500002 1.8156061e-38
0.0059246882 0.18593381 0.91340011 2.0004697e-38
-0.0064172 0.19010955 0.91500008 1.1705991e-38
0.00240645 0.19010955 0.91500008 2.3412643e-38
0.0054110056 0.18980598 0.9145 1.9728449e-38
0.00882365 0.19010955 0.91500002 0
-0.0059302994 0.1941103 0.91420001 4.2399606e-39
-0.0013369167 0.19438767 0.91500008 2.4043143e-39
0.0016043 0.19412029 0.91500002 1.4375976e-38
0.00561505 0.19412029 0.91500008 8.4777058e-39
0.00882365 0.19492245 0.91500002 5.8061415e-39
-0.049465917 0.19920057 0.91500008 6.9171806e-39
-0.045722552 0.19893318 0.91500008 3.2355127e-39
-0.0417118 0.19813105 0.91500008 7.0998006e-39
-0.038159423 0.19836025 0.91500008 7.3763917e-39
-0.033690296 0.1989332 0.91500002 5.2584047e-39
-0.0088043632 0.19609717 0.91299999 7.2820479e-39
-0.0050706398 0.19723597 0.91333336 1.9372279e-39
-0.0016019623 0.19784115 0.91366673 4.9775102e-39
0.0016019621 0.19784117 0.91366673 1.0135787e-38
0.0056103752 0.1979378 0.91411114 3.7764279e-39
0.00882365 0.1973289 0.91500002 6.9143163e-39
-0.049465917 0.20187442 0.91500008 1.0230109e-38
-0.045722552 0.20214179 0.91500008 4.1527956e-39
-0.041667089 0.20192087 0.91400003 5.809073e-39
-0.037644945 0.20184724 0.91366673 6.1767653e-39
-0.033690296 0.20214181 0.91500002 6.8221263e-39
-0.030704666 0.20211345 0.91366673 7.3763805e-39
-0.00080039661 0.20169994 0.91299999 7.3767602e-39
0.0016007932 0.20169994 0.91299999 5.3488165e-39
0.0052826181 0.20153987 0.91300005 2.5771574e-39
-0.048931152 0.20454825 0.91500002 1.0413422e-38
-0.045497466 0.20583849 0.9145 5.2548104e-39
-0.041636117 0.20577644 0.91333336 6.1767681e-39
-0.03762741 0.20575161 0.91322219 5.440275e-39
-0.033629224 0.20577645 0.91333336 3.7800432e-39
-0.03025499 0.20506163 0.91300005 4.516867e-39
-0.044555418 0.20943713 0.91299999 4.3292542e-39
-0.041620627 0.20970392 0.91299999 4.3303079e-39
-0.037618645 0.20890352 0.91299999 5.9012476e-39
-0.033616658 0.20890352 0.91299999 3.5970911e-39
-0.031215467 0.20890352 0.91299999 3.3161882e-39
-0.041460548 0.21338573 0.91300005 1.8439967e-40
-0.013370568 0.17897709 0.9188 1.8367099e-40
-0.0096678799 0.17885488 0.91900003 8.3826193e-39
-0.0056457329 0.17985694 0.92000002 1.6409809e-38
0.0020163332 0.17864713 0.92000002 2.3509874e-38
0.0040326668 0.17824386 0.92000002 2.3509874e-38
-0.013278869 0.18147787 0.91799998 0
-0.0096573597 0.18188027 0.91799998 2.2998587e-39
-0.0056404732 0.18214445 0.9193334 2.3417331e-38
-0.0016130665 0.18227652 0.92000002 2.1760684e-38
0.0016117516 0.18217702 0.91950005 2.3509886e-38
0.0040282831 0.18207753 0.91900003 2.3509886e-38
-0.050005067 0.18792225 0.92000002 2.9502868e-39
-0.046778932 0.18792225 0.92000002 2.582914e-39
-0.0096573597 0.18429461 0.91799998 1.4012985e-45
-0.005404775 0.18550166 0.91828585 2.2126923e-38
-0.0016107289 0.186038 0.91866672 2.3509886e-38
0.0016098521 0.18597111 0.91833341 2.3509886e-38
0.0040238998 0.18509939 0.91799998 2.3509886e-38
-0.049736224 0.19007301 0.92000002 2.6722804e-39
-0.045972403 0.19034187 0.92000002 4.5194047e-39
-0.041939735 0.19034186 0.92000002 9.8645905e-39
-0.039520133 0.19034186 0.92000002 1.0878033e-38
-0.0338744 0.19034186 0.92000002 5.5712404e-40
-0.0088525796 0.18912329 0.91799998 3.2229865e-44
-0.0040238998 0.18992807 0.91799998 1.0415542e-38
-0.00160956 0.18992807 0.91799998 2.018313e-38
0.00080477993 0.18992807 0.91799998 2.3509886e-38
-0.052310698 0.19475675 0.91799998 1.1700921e-38
-0.049896356 0.19395196 0.9180001 5.6214559e-39
-0.045872457 0.19395196 0.9180001 4.52119e-39
-0.041848563 0.19395196 0.9180001 7.0065147e-39
-0.038319349 0.19436301 0.91885722 8.6671291e-39
-0.0338744 0.19276147 0.92000002 1.4780168e-39
-0.0040238998 0.19314718 0.91799998 6.4648204e-40
-0.00187782 0.19287893 0.91799998 1.200016e-39
0.00080477993 0.1923424 0.91799998 1.3722368e-38
0.0072430195 0.1923424 0.91799998 7.5452187e-39
0.0093891006 0.19341545 0.91799998 4.2352452e-39
-0.052310698 0.19797587 0.91799998 1.0878004e-38
-0.050164618 0.19770762 0.91799998 8.2986801e-39
-0.045872461 0.19717108 0.91799998 4.5157908e-39
-0.036215097 0.19797587 0.91799998 6.6399084e-39
-0.052310698 0.2003902 0.91799998 1.1061323e-38
-0.038839839 0.16668764 0.92299998 4.7023779e-39
-0.044503979 0.17477927 0.92299998 1.1063574e-39
-0.042885654 0.17477927 0.92299998 3.5030836e-39
-0.025084062 0.17558843 0.92299998 0
-0.021523742 0.17494111 0.92299998 1.8510732e-40
-0.016992429 0.17558843 0.92299998 1.1963754e-39
-0.013755776 0.17558843 0.92300004 1.013252e-38
-0.0097099598 0.17558843 0.92299998 8.4856385e-39
-0.0056641432 0.17558843 0.92300004 4.3403987e-39
-0.0016183266 0.17477927 0.92299998 1.1707434e-38
0.0013486056 0.17504899 0.92300004 1.253968e-38
-0.046122309 0.17801593 0.92299998 6.4502469e-40
-0.042346209 0.17828564 0.92300004 3.2250716e-39
-0.025084062 0.17720675 0.92299998 0
-0.021523744 0.17785409 0.92299998 0
-0.017801594 0.17801592 0.92299998 0
-0.014160357 0.17761134 0.92299998 1.7516917e-39
-0.0097099598 0.17720675 0.92299998 1.115388e-38
-0.0056641432 0.17801593 0.92299998 2.8635478e-39
-0.0016183266 0.17801592 0.92299998 1.4200596e-38
0.00080916326 0.17801592 0.92299998 2.3507691e-38
-0.04935896 0.18125257 0.92299998 3.6734198e-40
-0.045920018 0.18185943 0.92299992 1.9361335e-39
-0.042076495 0.18206173 0.92299998 1.2904179e-39
-0.038030677 0.18287091 0.92299998 1.9361166e-39
-0.034254581 0.18314062 0.92300004 2.1194121e-39
-0.0016183266 0.18044341 0.92299998 1.4021705e-38
-0.049898401 0.18637727 0.92300004 1.3843806e-39
-0.046122309 0.18610756 0.92299998 3.6899916e-39
-0.042076491 0.18610755 0.92299998 2.0304787e-39
-0.038030673 0.18610756 0.92299998 3.7807439e-39
-0.033984859 0.18610755 0.92299998 1.3836505e-39
-0.031557366 0.18610755 0.92299998 1.4012985e-45
-0.050977286 0.1917717 0.92299998 7.9281656e-39
-0.044503979 0.18853503 0.92299998 6.7339005e-39
-0.042076491 0.18853503 0.92299998 6.8235808e-39
-0.037568297 0.18992218 0.92299998 5.5299848e-39
-0.033984859 0.18853503 0.92299998 3.7057478e-40
-0.036412347 0.19419919 0.92299998 2.1215995e-39
-0.033984859 0.19500835 0.92299998 2.7626417e-39
-0.033984859 0.19662668 0.92299998 1.3858786e-39
-0.030814832 0.16299425 0.92500001 8.387989e-39
-0.036491249 0.16704883 0.92500001 3.3233881e-39
-0.033917885 0.16666906 0.92560005 4.2413787e-39
-0.030024374 0.16635713 0.92566669 3.7785901e-39
-0.025991412 0.1673184 0.92649996 4.9767788e-39
-0.021903224 0.16629724 0.92533332 4.8856621e-39
-0.017840166 0.16623792 0.92500007 6.1756821e-39
-0.014017274 0.1667013 0.92500007 7.0032735e-39
-0.0097310003 0.16704883 0.92500001 1.0230478e-38
-0.0072982493 0.16785975 0.92500001 1.2902741e-38
-0.041829273 0.17016056 0.92649996 2.2087827e-39
-0.03817489 0.17056996 0.92650002 3.5931479e-39
-0.0340585 0.1702925 0.92500001 3.7793132e-39
-0.030003916 0.1702925 0.92500007 3.4116054e-39
-0.025949333 0.1702925 0.92500001 4.7016422e-39
-0.021894749 0.1702925 0.92500007 5.3477221e-39
-0.017840166 0.1702925 0.92500001 5.6246607e-39
-0.013785584 0.1702925 0.92500007 3.78146e-39
-0.0097310003 0.1702925 0.92500001 6.2660476e-39
-0.0060007828 0.17045468 0.92500001 1.234917e-38
-0.046222251 0.17596892 0.92500001 2.4799171e-39
-0.041762203 0.17394163 0.92500001 3.1346682e-39
-0.038154285 0.1745338 0.92599994 2.6736971e-39
-0.034132142 0.1747223 0.92700005 2.949907e-39
-0.030003915 0.17434707 0.92500007 2.4903526e-39
-0.026111517 0.1740227 0.92500001 2.1201506e-39
-0.022300208 0.17313071 0.92500001 4.3324743e-39
-0.01800235 0.17402272 0.92500001 3.8739765e-39
-0.013785584 0.17353617 0.92500007 6.915066e-39
-0.0097310003 0.17353615 0.92500001 4.6090991e-39
-0.0056764162 0.17353615 0.92500007 6.8199655e-39
-0.0024327501 0.17272525 0.92500001 1.3178249e-38
-0.041356746 0.17759074 0.92500001 4.3324912e-39
-0.038113084 0.17840168 0.92500007 2.2112742e-39
-0.0340585 0.17840166 0.92500001 1.6609465e-39
-0.030003916 0.17840168 0.92500007 1.4012985e-45
-0.02621964 0.17867199 0.92500007 0
-0.023516582 0.17921259 0.92500001 0
-0.038113084 0.18083441 0.92500007 1.6591682e-39
-0.033788197 0.18137503 0.92500007 5.5352971e-40
-0.030328283 0.18148315 0.92500001 0
-0.025990097 0.18112765 0.92649996 0
-0.050547138 0.1846187 0.92500007 3.136815e-39
-0.047844082 0.18407808 0.92500001 0
-0.031625748 0.18407808 0.92500001 0
-0.026089599 0.1655059 0.93000001 2.7655172e-39
-0.02862755 0.16440393 0.93300003 9.7709795e-39
-0.026173759 0.16440393 0.93300003 3.8783906e-39
-0.00081968331 0.22049481 0.935 7.0064923e-45
0.0016446267 0.21873534 0.93800002 1.9332664e-39
0.0099203596 0.20667417 0.94300002 6.4475886e-39
-0.025308928 0.18628246 0.94649994 0
-0.022391818 0.18493983 0.94599998 0
-0.033604823 0.20287687 0.94649994 3.3194182e-39
-0.029902659 0.20267612 0.94749999 2.9506343e-39
-0.027425639 0.20361459 0.94800001 0
0.010781245 0.20235568 0.94599998 8.2951278e-39
0.014349782 0.20218287 0.94685715 9.7705802e-39
0.018117545 0.20228486 0.94800007 6.2696966e-39
-0.032343738 0.20567301 0.94599998 3.6889168e-39
-0.029886441 0.20589042 0.94700003 3.6896371e-39
-0.027425639 0.20610783 0.94800001 1.2925535e-39
0.010781245 0.20484369 0.94599998 9.3989516e-39
0.014104106 0.20574519 0.94633335 1.0415595e-38
0.01828376 0.20610783 0.94800001 7.1923549e-39
0.020777 0.20693891 0.94800001 7.3742211e-39
-0.030685084 0.20816098 0.94599998 6.5455394e-39
0.0074639395 0.21064895 0.94599998 3.0399461e-39
0.0099519193 0.21064895 0.94599998 3.5019962e-39
0.014105956 0.20991862 0.94644451 6.8217648e-39
0.01828376 0.21026324 0.94800007 6.5473415e-39
0.037319697 0.24133404 0.94599998 1.1426144e-38
-0.029179849 0.18758473 0.95099998 0
-0.022510169 0.18758473 0.95099998 0
-0.029179849 0.18925217 0.95099998 0
-0.02584501 0.18925218 0.95099998 0
-0.022510169 0.18925217 0.95099998 0
0.015840489 0.19925669 0.95099998 8.6620858e-39
0.017507909 0.19925669 0.95099998 6.6377378e-39
-0.032514688 0.2009241 0.95099998 2.0311877e-39
-0.030847268 0.2009241 0.95099998 2.2159377e-39
-0.027512427 0.20259151 0.95099998 2.1019477e-44
0.021676458 0.20676006 0.95099998 8.8493511e-39
0.024177589 0.20759378 0.95099998 1.1060604e-38
-0.020908499 0.18650381 0.954 0
-0.018438052 0.18689479 0.95599997 0
-0.03038702 0.19096431 0.954 0
-0.025926542 0.19152185 0.954 0
-0.021326669 0.19026735 0.954 2.5223372e-44
-0.018438052 0.19024718 0.95599997 3.5032462e-44
-0.014582822 0.19125289 0.95599997 2.1019477e-44
-0.030156016 0.19433638 0.95550001 5.6051939e-45
-0.025926542 0.19403087 0.954 1.2907416e-39
-0.02174484 0.19403087 0.954 9.4922304e-39
-0.018438052 0.19443765 0.95599997 9.8657101e-39
-0.014247585 0.19443765 0.95599997 7.0079889e-39
-0.032651447 0.19925667 0.95499998 1.5655433e-39
-0.03015032 0.19848841 0.95533335 1.2886144e-39
-0.02592654 0.19821256 0.95400006 4.329959e-39
-0.02174484 0.19821256 0.954 8.4755408e-39
-0.018438052 0.19779001 0.95599997 5.7121886e-39
-0.014031049 0.19831382 0.95549995 6.6366981e-39
-0.010216322 0.19879572 0.95520002 7.3731743e-39
-0.029271899 0.20155793 0.954 1.9618179e-44
-0.014475268 0.20227781 0.95514286 1.0407683e-38
-0.010036079 0.20239428 0.954 1.5752527e-38
0.014247585 0.2011424 0.95599997 1.0599993e-38
0.019276146 0.2011424 0.95599997 5.1633294e-39
0.021496451 0.20295593 0.95533335 7.0061672e-39
0.036038011 0.24220896 0.95599997 1.1886755e-38
-0.03278821 0.19756998 0.95899999 5.3249342e-44
0.01513302 0.19925143 0.95899999 1.1243573e-38
0.018495914 0.19925143 0.95899999 9.1241234e-39
