# .PCD v0.7 - Point Cloud Data file format
VERSION 0.7
FIELDS x y z rgb
SIZE 4 4 4 4
TYPE F F F F
COUNT 1 1 1 1
WIDTH 284
HEIGHT 1
VIEWPOINT 0 0 0 1 0 0 0
POINTS 284
DATA ascii
-0.028062101 0.14116086 0.97000003 0
-0.026361367 0.14116086 0.97000003 0
-0.02957435 0.12325495 0.97500002 2.2261658e-38
-0.025471551 0.12257115 0.97500002 1.508486e-38
-0.022223499 0.12222925 0.97500002 5.513015e-39
-0.037324082 0.12678793 0.97500008 2.1516896e-38
-0.034189999 0.12650301 0.97500002 2.0603567e-38
-0.029916247 0.12650299 0.97500002 2.1076109e-38
-0.025642499 0.12650301 0.97500002 8.6451021e-39
-0.022223499 0.12650299 0.97500002 0
-0.037608996 0.129922 0.97500002 1.5336529e-38
-0.034189999 0.129922 0.97500002 1.8471553e-38
-0.029896963 0.12983318 0.97433329 1.54579e-38
-0.025602611 0.12972167 0.97350001 9.1835496e-40
-0.022223499 0.12906726 0.97500002 0
-0.019659251 0.12906726 0.97500002 0
-0.040173247 0.13419574 0.97500008 1.3224332e-38
-0.037608996 0.13419574 0.97500002 1.3867187e-38
-0.034189999 0.13419574 0.97500002 1.4148814e-38
-0.029896962 0.13410398 0.97433335 6.3395317e-39
-0.025589902 0.13392048 0.97299999 0
-0.040173247 0.13761476 0.97500002 1.2305969e-38
-0.037608996 0.1384695 0.97500002 1.1846789e-38
-0.034189999 0.1384695 0.97500002 1.0471403e-38
-0.029886736 0.1383272 0.97399998 1.1938629e-39
-0.025874231 0.13790111 0.97299999 0
-0.037324082 0.14160359 0.97500008 9.5566509e-39
-0.034189999 0.1418885 0.97500002 6.1540586e-39
-0.030707879 0.14159745 0.97299999 7.3468397e-40
-0.03333525 0.14616224 0.97500008 3.6734198e-40
-0.029876504 0.14596237 0.97366673 0
-0.025589902 0.14586243 0.97299999 0
-0.023030909 0.14671542 0.97299999 0
-0.03333525 0.15043598 0.97500002 0
-0.029876506 0.15023027 0.97366667 0
-0.025589898 0.15012741 0.97299999 0
-0.029916249 0.15300027 0.97500008 0
-0.026497249 0.15300025 0.97500002 0
-0.046298519 0.1071725 0.97799999 1.296177e-38
-0.043726377 0.10631511 0.97799999 1.6175382e-38
-0.046298519 0.10888726 0.97799999 1.9140706e-38
-0.043726377 0.10888726 0.97799999 2.3469553e-38
-0.037438925 0.11517471 0.97800004 2.3284427e-38
-0.034295198 0.11488892 0.97799999 2.3288466e-38
-0.030008297 0.11488893 0.97800004 2.2348531e-38
-0.025721397 0.11488892 0.97799999 2.3472475e-38
-0.02229188 0.1157463 0.97799999 2.3485813e-38
-0.040296856 0.11831843 0.97799999 2.2078423e-38
-0.037724718 0.11831843 0.97799999 2.2165944e-38
-0.034295198 0.11831843 0.97799999 2.1889699e-38
-0.030008299 0.11831843 0.97800004 2.262758e-38
-0.025721397 0.11831843 0.97799999 2.2819138e-38
-0.022291878 0.11831843 0.97799999 1.7486991e-38
-0.041668665 0.12191943 0.97799999 2.2261657e-38
-0.037724718 0.12174796 0.97799999 2.3097566e-38
-0.034295198 0.12174796 0.97799999 2.0885249e-38
-0.030436989 0.12131926 0.97799999 2.1439498e-38
-0.026578778 0.12089057 0.97799999 2.3476463e-38
-0.018433668 0.12217665 0.97799999 0
-0.045441139 0.12689224 0.97799999 1.3959012e-38
-0.042011619 0.12603486 0.97799999 1.8100949e-38
-0.038010515 0.12489168 0.97800004 2.2351292e-38
-0.034295198 0.12432009 0.97799999 2.3463824e-38
-0.018576566 0.12546328 0.97800004 0
-0.045441139 0.13032176 0.97799999 1.3591663e-38
-0.042011619 0.13032177 0.97800004 1.4694397e-38
-0.045441139 0.13375127 0.97799999 1.2214128e-38
-0.042868998 0.13375127 0.97799999 1.2948818e-38
-0.045441139 0.13718079 0.97799999 1.0378493e-38
-0.042501554 0.13828313 0.97800004 1.0930221e-38
-0.041582927 0.14189638 0.97799999 8.9105641e-39
-0.038582098 0.14318246 0.97799999 9.9250607e-39
-0.040296856 0.14489721 0.97799999 6.7958337e-39
-0.037724718 0.14575458 0.97799999 5.2360638e-39
-0.035152577 0.14575458 0.97799999 4.2244328e-39
-0.036867339 0.14832674 0.97799999 0
-0.035152577 0.15004151 0.97800004 1.8367099e-40
-0.033437818 0.15432838 0.97799999 0
-0.03172306 0.15518576 0.97799999 0
-0.033437818 0.15690053 0.97799999 9.1835496e-41
-0.03172306 0.15690053 0.97799999 9.1835496e-41
-0.046582557 0.11128056 0.98400003 2.0242732e-38
-0.041924302 0.11059045 0.98400003 2.3471382e-38
-0.037927888 0.1103331 0.98325002 2.2999224e-38
-0.034723014 0.11047929 0.98200005 2.3467021e-38
-0.030159963 0.11116748 0.98300004 2.3495849e-38
-0.025879201 0.11128056 0.98400003 2.2289421e-38
-0.02329128 0.11128056 0.98400003 2.1512997e-38
-0.045719918 0.11300584 0.98400003 1.5530283e-38
-0.042227279 0.11375188 0.98300004 2.2176013e-38
-0.038127109 0.11323465 0.98100007 2.3478152e-38
-0.034400396 0.11266131 0.98100001 2.189529e-38
-0.030100349 0.11266132 0.98100007 2.3487843e-38
-0.025800299 0.11266131 0.98100001 2.3490151e-38
-0.022394449 0.11369358 0.98250002 2.3471801e-38
-0.018115439 0.11473113 0.98400009 1.3794426e-38
-0.056071602 0.11990695 0.98400003 0
-0.05348368 0.11904432 0.98400003 5.879271e-39
-0.045719918 0.11818168 0.98400009 2.2911796e-38
-0.042651083 0.11762637 0.98142862 2.2458271e-38
-0.018083004 0.11798093 0.98233342 4.419977e-39
-0.056646697 0.12278243 0.98400009 0
-0.05348368 0.12249488 0.98400003 8.2659149e-39
-0.050895758 0.12335752 0.98400003 1.3407982e-38
-0.046248551 0.12265706 0.98300004 1.931241e-38
-0.04386051 0.1212614 0.98100001 2.1342217e-38
-0.017225184 0.12144682 0.98250002 1.4012985e-45
-0.01380224 0.12163224 0.98400003 0
-0.056646697 0.1256579 0.98400009 8.2651947e-40
-0.053443573 0.12584879 0.98325002 8.1733648e-39
-0.049956847 0.12575214 0.98250002 1.304102e-38
-0.046775427 0.12540191 0.98200005 1.5244699e-38
-0.056071602 0.12853335 0.98400003 1.5612034e-39
-0.053246982 0.12975578 0.98280001 7.6227091e-39
-0.049880579 0.12986152 0.98100007 1.1847505e-38
-0.047300555 0.1298615 0.98100007 1.3499832e-38
-0.05262104 0.13370919 0.98400003 6.5232153e-39
-0.049919367 0.1342648 0.98175001 9.6438047e-39
-0.047300551 0.13416156 0.98100001 1.1754946e-38
-0.050033119 0.13715976 0.98400003 8.0829586e-39
-0.047372878 0.13781333 0.98250002 9.6427271e-39
-0.045719918 0.14147295 0.98400003 6.4299253e-39
-0.042140488 0.14362165 0.98100001 6.0626057e-39
-0.045719918 0.14492351 0.98400003 1.8367099e-40
-0.04258864 0.14604232 0.98340005 1.6530389e-39
-0.041406717 0.14923672 0.98400003 0
-0.03816656 0.15008181 0.98200005 0
-0.037630916 0.15310721 0.98300004 0
-0.035260409 0.15480179 0.98100001 0
-0.02924034 0.15566181 0.98100001 0
-0.026660308 0.15566181 0.98100001 0
-0.02924034 0.15738182 0.98100001 0
-0.041532956 0.10642821 0.98699999 2.0686157e-38
-0.049320389 0.11161982 0.98699999 5.8785494e-39
-0.041532956 0.10815874 0.98699999 2.0227285e-38
-0.038071878 0.10815874 0.98699999 2.3487246e-38
-0.033745527 0.10931244 0.98699999 2.3494433e-38
-0.029419178 0.10988928 0.98699999 2.3496224e-38
-0.02682337 0.10988928 0.98699999 2.3481061e-38
-0.021631747 0.11161982 0.98699999 2.1881421e-38
-0.05278147 0.1150809 0.98699999 9.1835496e-40
-0.050185658 0.11421563 0.98699999 1.0110186e-38
-0.047013 0.11450405 0.98699999 1.7093333e-38
-0.01817067 0.11335036 0.98699999 1.9499034e-38
-0.014709589 0.1150809 0.98699999 5.5101298e-39
-0.010383239 0.1150809 0.98699999 0
-0.0069221593 0.1150809 0.98699999 2.7550649e-40
-0.0017305398 0.1150809 0.98699999 0
-0.05278147 0.11681144 0.98699999 2.8476178e-39
-0.050185658 0.11767671 0.98699999 1.470635e-38
-0.047589846 0.11767671 0.98699999 1.9023382e-38
-0.014709589 0.11767671 0.98699999 9.1835496e-41
-0.010383239 0.11681144 0.98699999 4.2038954e-45
-0.0069221593 0.11681144 0.98699999 1.8367099e-40
-0.0017305398 0.11767671 0.98699999 0
-0.0500126 0.12165695 0.98699999 1.6998587e-38
-0.047589846 0.12113778 0.98699999 1.9125957e-38
-0.014709589 0.12027252 0.98699999 7.0064923e-45
-0.058838356 0.12719469 0.98699999 0
-0.057973087 0.12950209 0.98699999 4.5953761e-40
-0.053935163 0.13411686 0.98699999 5.3271846e-39
-0.065760523 0.13930847 0.98699999 3.0402768e-39
-0.050185658 0.13930847 0.98699999 6.889816e-39
-0.068356328 0.14190426 0.98699999 2.530745e-42
-0.065760523 0.14190426 0.98699999 1.6566389e-39
-0.063164711 0.141039 0.98699999 1.0044264e-38
-0.049320389 0.14190426 0.98699999 4.5986047e-39
-0.047589846 0.14190426 0.98699999 6.3373695e-39
-0.04629194 0.14666325 0.98699999 0
-0.040667687 0.15142223 0.98699999 0
-0.038937148 0.15488333 0.98699999 0
-0.040750097 0.10317577 0.98900002 1.960093e-38
-0.032611996 0.10218426 0.99199998 2.3284044e-38
-0.029568214 0.10174944 0.99200004 2.1813293e-38
-0.026089599 0.10174944 0.99200004 1.8033636e-38
-0.02290087 0.10290897 0.99199998 1.5549749e-38
-0.0381773 0.1058564 0.98975003 2.3476794e-38
-0.033865191 0.10593596 0.99050009 2.3112672e-38
-0.029523503 0.10593596 0.99050003 2.326904e-38
-0.02605015 0.10593595 0.99049997 2.347749e-38
-0.022061842 0.10614224 0.99080002 2.1632895e-38
-0.018262718 0.10696735 0.99199998 1.8023628e-38
-0.032946885 0.10837791 0.98900002 2.3496241e-38
-0.029478792 0.10837791 0.98900002 2.3003951e-38
-0.025721692 0.10895593 0.98900002 2.1901882e-38
-0.02203449 0.10913729 0.9896 2.3186884e-38
-0.018003883 0.11041091 0.98974997 2.3003222e-38
-0.013893412 0.11114599 0.99049997 1.4906193e-38
-0.011271304 0.11184601 0.98900002 1.0101905e-39
-0.013583365 0.11415808 0.98900002 3.0305756e-39
-0.01040428 0.11358006 0.98900002 1.8367099e-40
-0.0043351166 0.11444708 0.98900002 0
-0.0026010699 0.11358006 0.98900002 0
-0.01300535 0.11791517 0.98900002 2.7550649e-40
-0.01040428 0.11878219 0.98900002 2.7550649e-40
-0.0056356513 0.11834867 0.98900002 9.1835496e-41
-0.01300535 0.12051625 0.98900002 0
-0.01042006 0.12156868 0.99050003 0
-0.0060783681 0.12156868 0.99049997 0
-0.0017340465 0.12138326 0.98900002 2.2134112e-39
-0.010435839 0.12436043 0.99199998 0
-0.0060875732 0.12436043 0.99199998 0
-0.0026089598 0.12436043 0.99199998 0
-0.05809056 0.13092051 0.98900002 0
-0.056356516 0.13352159 0.98900002 1.8367099e-40
-0.056527462 0.13740522 0.99199998 0
-0.053796869 0.13796125 0.98975003 1.3775451e-39
-0.053575143 0.14161059 0.99100006 2.578619e-39
-0.051154375 0.14219183 0.98900002 6.4425173e-39
-0.066093653 0.1452321 0.99199998 9.1878936e-41
-0.050287351 0.1447929 0.98900002 1.8435427e-39
-0.04421819 0.14999503 0.98900002 0
-0.040750097 0.15433015 0.98900002 2.8025969e-45
-0.020062516 0.10554628 0.995 1.6281241e-38
-0.0095951157 0.12648107 0.995 0
-0.0061059832 0.12648109 0.99500006 0
-0.061059825 0.13171478 0.995 1.1953524e-39
-0.061059825 0.13433163 0.995 3.3161672e-39
-0.05844298 0.13433163 0.995 0
-0.061059825 0.13694848 0.995 2.9491812e-39
-0.05844298 0.13782077 0.995 0
-0.061583202 0.14322892 0.995 4.4232224e-39
-0.056698415 0.14130989 0.995 0
-0.054953847 0.14305446 0.995 2.5782645e-39
-0.06629353 0.14741588 0.995 1.565867e-39
-0.063095167 0.14625284 0.99500006 4.7916434e-39
-0.013123699 0.12598753 0.99800003 0
-0.011373873 0.12686244 0.99800003 0
-0.013123699 0.12948719 0.99800003 0
-0.010790598 0.12919556 0.99800003 0
-0.0061243935 0.12861226 0.99800003 0
-0.062556304 0.13867377 0.99800003 6.6330155e-39
-0.062118851 0.14086106 0.99800003 5.3455389e-39
-0.058619194 0.14173597 0.99800003 0
-0.060952298 0.14727709 0.99800003 3.4994528e-39
-0.056869365 0.14436069 0.99800003 2.4892792e-39
-0.065618493 0.14961018 0.99800003 0
-0.063868672 0.14961018 0.99800003 3.9676365e-39
-0.03256641 0.099459581 1.0039999 7.3468397e-39
-0.030806065 0.099459581 1.0039999 7.7142517e-39
-0.037734363 0.10179503 1.001 1.7012932e-38
-0.035101734 0.10179503 1.001 1.9869902e-38
-0.037734363 0.10442766 1.001 2.3459119e-38
-0.035979275 0.10442766 1.001 2.346128e-38
-0.014918236 0.12636624 1.001 0
-0.016698308 0.13007234 1.0025001 0
-0.014918236 0.12987641 1.001 0
-0.0096529769 0.13075395 1.001 0
-0.0061428039 0.13075396 1.0010002 0
-0.016723292 0.13378634 1.0039999 0
-0.014063047 0.13358645 1.0025001 0
-0.010544985 0.13358647 1.0025001 0
-0.0065132822 0.13396238 1.0039999 1.291099e-39
-0.014069622 0.13805045 1.003 9.2123463e-40
-0.01053052 0.13777432 1.001 2.8025969e-45
-0.0063812556 0.13796715 1.0039998 4.0555539e-39
-0.014082773 0.1417079 1.0039999 1.1967551e-39
-0.01053052 0.14128448 1.001 0
-0.058210373 0.14596471 1.0010002 6.1770526e-39
-0.05528523 0.14654973 1.001 1.0230122e-38
-0.067773342 0.15050963 1.0039999 1.6815582e-44
-0.061428033 0.15005991 1.001 8.2964871e-39
-0.058091432 0.14874928 1.0039999 9.766976e-39
-0.016773263 0.13771731 1.007 0
-0.017479505 0.14177822 1.007 1.4012985e-45
-0.014124852 0.14389692 1.007 8.4077908e-45
-0.01059364 0.14389692 1.007 1.8370182e-40
-0.0070624258 0.14213133 1.007 7.741919e-39
-0.013242049 0.14566255 1.007 0
-0.011476442 0.14566255 1.007 1.2907388e-39
-0.018594099 0.13192956 1.01 0
-0.018594099 0.13458586 1.01 0
-0.020364966 0.13901302 1.01 0
-0.018594099 0.1381276 1.01 0
-0.021693118 0.14211205 1.01 0
-0.025677567 0.1460965 1.01 0
-0.022135833 0.14609648 1.0100001 0
-0.017885752 0.14645067 1.0100001 0
-0.014462078 0.14727706 1.01 0
-0.010625199 0.14698192 1.01 3.9640477e-39
-0.022201583 0.13587368 1.013 0
-0.02255681 0.13836026 1.013 0
-0.023089645 0.14120206 1.013 0
-0.0079925703 0.14475432 1.013 7.0937288e-39
