# .PCD v0.7 - Point Cloud Data file format
VERSION 0.7
FIELDS x y z rgb
SIZE 4 4 4 4
TYPE F F F F
COUNT 1 1 1 1
WIDTH 349
HEIGHT 1
VIEWPOINT 0 0 0 1 0 0 0
POINTS 349
DATA ascii
-0.072995648 0.18609878 0.91500002 3.1270984e-39
-0.071391352 0.18609878 0.91500002 5.0635668e-39
-0.072995648 0.18850525 0.91500002 6.249885e-39
-0.071391352 0.18850525 0.91500002 6.8030574e-39
-0.077427194 0.17985693 0.92000002 2.3509886e-38
-0.074201062 0.17985693 0.92000002 2.3509886e-38
-0.071781471 0.17985693 0.92000002 2.3509886e-38
-0.062909596 0.17985693 0.92000002 0
-0.057263862 0.17985693 0.92000002 8.3947167e-40
-0.055650797 0.17985693 0.92000002 2.4986329e-39
-0.077427194 0.18227652 0.92000002 2.1477235e-38
-0.074201062 0.18227652 0.92000002 1.3273346e-38
-0.070974931 0.18227652 0.92000002 9.95967e-39
-0.065329202 0.18308306 0.92000002 1.3050965e-39
-0.062103063 0.18227653 0.92000002 1.8428406e-39
-0.05776006 0.18241271 0.9193334 3.8664795e-39
-0.054336149 0.18235822 0.91960001 4.7855155e-39
-0.076454096 0.18590419 0.91799998 4.5925399e-39
-0.074442148 0.18550178 0.91799998 2.2040701e-39
-0.069577269 0.18573159 0.91828585 2.211242e-39
-0.06603989 0.186038 0.91866672 3.2189059e-39
-0.061983448 0.18594877 0.91822231 5.0577976e-39
-0.057965487 0.18597111 0.91833341 6.2570765e-39
-0.053971302 0.18608379 0.91888893 7.4530805e-39
-0.074416727 0.19047219 0.9193334 7.8096311e-39
-0.069693945 0.19008903 0.91800004 5.7975151e-39
-0.066027462 0.19003195 0.91850001 6.993166e-39
-0.062103063 0.19034187 0.92000002 6.9027808e-39
-0.058070399 0.18953532 0.92000002 5.5234645e-39
-0.054725036 0.18912329 0.91799998 5.1518164e-39
-0.07339453 0.19356799 0.92000002 8.908804e-39
-0.069966763 0.1941729 0.92000002 7.4412171e-39
-0.066942267 0.19437453 0.92000002 6.2505661e-39
-0.072824694 0.17477927 0.92299998 2.3509886e-38
-0.069426209 0.17429377 0.92299998 2.3509881e-38
-0.066351391 0.1739701 0.92299998 2.3509886e-38
-0.063519321 0.17437468 0.92299998 2.3509886e-38
-0.076870508 0.1788251 0.92299998 2.3509886e-38
-0.073633857 0.17801592 0.92299998 2.3509886e-38
-0.069588043 0.17801592 0.92299998 2.3509886e-38
-0.066351391 0.17801592 0.92299998 2.3509886e-38
-0.062629245 0.17817776 0.92299998 1.9272508e-38
-0.058259755 0.1788251 0.92299998 1.1112297e-42
-0.055023104 0.1788251 0.92299998 0
-0.093053773 0.18368007 0.92299998 1.1240642e-38
-0.091435447 0.18368007 0.92299998 6.5383059e-39
-0.08091633 0.18206173 0.92299998 1.9720444e-38
-0.069183461 0.18165715 0.92299998 1.2080879e-38
-0.066513225 0.18173806 0.92299998 4.0581604e-42
-0.060687248 0.18044341 0.92299998 0
-0.059068918 0.18125257 0.92299998 2.1197932e-39
-0.05313506 0.18098286 0.92300004 3.133578e-39
-0.050168123 0.18287091 0.92299998 5.6109602e-39
-0.0463246 0.18185943 0.92299992 6.166292e-39
-0.093053773 0.18529838 0.92299998 9.9477505e-39
-0.091435447 0.18529838 0.92299998 6.6287079e-39
-0.080646612 0.18583784 0.92300004 4.7754458e-39
-0.078488842 0.18610755 0.92299998 6.4313658e-39
-0.050168123 0.18610755 0.92299998 6.7191154e-39
-0.046445973 0.18594572 0.92299998 5.6181699e-39
-0.077841513 0.19047704 0.92299998 9.55883e-39
-0.058259755 0.1917717 0.92299998 4.1426839e-39
-0.054213941 0.19096254 0.92299998 4.5989971e-39
-0.050977286 0.18853503 0.92299998 4.7909161e-39
-0.075252183 0.19419919 0.92299998 9.461933e-39
-0.065542229 0.19419919 0.92299998 5.9790154e-39
-0.062629245 0.19403736 0.92299998 5.5155374e-39
-0.072554976 0.19716613 0.92300004 9.4590813e-39
-0.069588043 0.198245 0.92299998 9.2753977e-39
-0.066081673 0.19770557 0.92300004 8.6328954e-39
-0.06311474 0.19662668 0.92299998 7.8978905e-39
-0.061546382 0.17424785 0.92620003 2.3509886e-38
-0.058011483 0.17533508 0.92679995 2.3509886e-38
-0.054930769 0.17561679 0.926 2.2314228e-38
-0.081902586 0.1792126 0.92500007 2.2031513e-38
-0.077847995 0.17840166 0.92500001 2.3509886e-38
-0.060818747 0.17759074 0.92500001 1.4747488e-38
-0.058385998 0.17759074 0.92500001 4.798968e-39
-0.053716876 0.17770489 0.92559999 3.1364619e-39
-0.050179876 0.17814444 0.92620003 1.9364824e-39
-0.046272218 0.17778097 0.92600006 2.7644284e-39
-0.043025047 0.17778099 0.926 4.6040404e-39
-0.090011746 0.18245624 0.92500007 4.880965e-39
-0.08623594 0.18223444 0.92799997 1.7481254e-39
-0.083524413 0.18164533 0.92500001 9.1049872e-39
-0.050276831 0.18083441 0.92500001 3.680289e-39
-0.042978581 0.18164533 0.92500001 4.4199854e-39
-0.089200839 0.184889 0.92500001 7.6363928e-39
-0.08623594 0.18630219 0.92799997 7.0814324e-39
-0.083118953 0.18610537 0.92500001 6.0651168e-39
-0.044600416 0.18407808 0.92500001 6.3575006e-39
-0.042978581 0.18407808 0.92500001 5.8961623e-39
-0.08199288 0.18995963 0.926 9.6528361e-39
-0.050359674 0.19006351 0.92649996 5.2428909e-39
-0.047844082 0.18894358 0.92500001 3.8682508e-39
-0.081289567 0.19346826 0.92724997 1.1579578e-38
-0.077847995 0.19461998 0.92500001 1.1118949e-38
-0.060818747 0.1954309 0.92500001 7.2550042e-39
-0.058385998 0.19462 0.92500001 8.0865655e-39
-0.055412643 0.19380908 0.92500007 7.9036302e-39
-0.077829294 0.1982342 0.92799997 1.0837687e-38
-0.07487464 0.19813398 0.92500007 9.9182434e-39
-0.064062417 0.19867457 0.92500001 9.550907e-39
-0.061359357 0.19813398 0.92500007 9.4594471e-39
-0.05772981 0.19839887 0.92750001 1.0291004e-38
-0.073507622 0.20102799 0.92649996 9.9182616e-39
-0.06985192 0.20143476 0.92649996 9.6427649e-39
-0.065790765 0.20143476 0.92650002 9.6427439e-39
-0.062033221 0.20127186 0.92699999 1.0655116e-38
-0.069151461 0.20420019 0.92799997 1.0285629e-38
-0.065897278 0.20420019 0.92799997 1.0652932e-38
-0.097835995 0.1752895 0.93000001 8.3886967e-39
-0.057886295 0.17365889 0.93000001 2.3509886e-38
-0.053809799 0.17447419 0.93000001 2.3509884e-38
-0.048646234 0.17474596 0.93000001 9.4033251e-39
-0.045928568 0.17474596 0.93000001 7.8366426e-39
-0.042395599 0.17365889 0.93000001 7.379965e-39
-0.097835995 0.17773539 0.93000001 1.0232639e-38
-0.051363897 0.17692009 0.93000001 2.5645163e-41
-0.041580297 0.17692009 0.93000001 1.0409089e-38
-0.097835995 0.18018129 0.93000001 1.0140449e-38
-0.093107268 0.18148577 0.93000001 7.6486584e-39
-0.089682996 0.1809966 0.93000001 3.9626044e-39
-0.086421803 0.18018129 0.93000001 4.3184291e-39
-0.088867702 0.18833429 0.93000001 8.1859764e-39
-0.086421795 0.19078019 0.93000001 9.4705902e-39
-0.049733296 0.19159549 0.93000001 8.276335e-39
-0.083975896 0.1940414 0.93000001 1.11186e-38
-0.053809799 0.1940414 0.93000001 6.525016e-39
-0.08125823 0.19703083 0.93000001 1.0931335e-38
-0.079084098 0.1997485 0.93000001 1.1112152e-38
-0.054625098 0.19648729 0.93000001 1.0383183e-38
-0.077997029 0.20192263 0.93000001 1.0653314e-38
-0.075007595 0.20300969 0.93000001 1.0193757e-38
-0.061147496 0.20300969 0.93000001 1.0475405e-38
-0.057886299 0.20219439 0.93000001 1.1119347e-38
-0.077453494 0.2054556 0.93000001 1.0657968e-38
-0.073988475 0.20606709 0.92999995 9.5516273e-39
-0.070278868 0.20659702 0.93000001 1.0012967e-38
-0.066039294 0.20708619 0.93000001 9.7381723e-39
-0.061962806 0.20627092 0.93000001 1.0478617e-38
-0.058352187 0.20603797 0.93000001 9.2872976e-39
-0.072561704 0.20953208 0.93000001 1.102026e-39
-0.069844037 0.21007562 0.93000001 2.9394561e-39
-0.066039294 0.21034738 0.93000001 1.0105506e-39
-0.061962798 0.21034738 0.93000001 4.2038954e-45
-0.059516896 0.21034738 0.93000001 4.2038954e-45
-0.042532362 0.16767564 0.93300003 1.7538974e-39
-0.053279415 0.17131381 0.935 2.3509886e-38
-0.050000682 0.17131381 0.93500006 2.3509886e-38
-0.045878161 0.17040251 0.93449998 2.3509886e-38
-0.042532362 0.17012945 0.93300003 1.3456273e-38
-0.09733367 0.17421909 0.93300003 5.901221e-39
-0.094352253 0.1738579 0.93357152 4.7938154e-39
-0.090984851 0.17459254 0.935 5.8072261e-39
-0.061476246 0.17295317 0.935 2.3509886e-38
-0.058115691 0.17270654 0.93366671 2.3509886e-38
-0.053748723 0.17325184 0.93366671 2.3509886e-38
-0.050457425 0.17373547 0.9333334 2.1573448e-38
-0.045531437 0.17312852 0.93300003 2.194581e-38
-0.10060539 0.17830873 0.93300003 1.1338248e-38
-0.093907431 0.17778952 0.93350005 4.5168782e-39
-0.090100877 0.17774329 0.93433332 5.2540537e-39
-0.086320281 0.17870131 0.93419999 6.2649686e-39
-0.09733367 0.18239839 0.93300003 1.0876914e-38
-0.095697805 0.18158045 0.93300003 9.3103251e-39
-0.095697805 0.18403424 0.93300003 1.1429364e-38
-0.090244941 0.19003241 0.93300003 8.0008621e-39
-0.089763366 0.19289736 0.93366671 8.0012237e-39
-0.086747482 0.19477209 0.93350005 1.0019433e-38
-0.053165447 0.19548526 0.93300003 8.2702561e-39
-0.050820366 0.19508462 0.935 9.8318043e-39
-0.086006552 0.19822192 0.93433332 1.0106598e-38
-0.082610928 0.19875699 0.93300003 1.0746945e-38
-0.053710736 0.19821171 0.93300003 1.0472151e-38
-0.050000679 0.19836336 0.93500006 1.084057e-38
-0.084913641 0.20122568 0.93433332 1.0287743e-38
-0.081793003 0.20202869 0.93300003 1.093062e-38
-0.079339206 0.20366456 0.93300003 1.0470733e-38
-0.053983375 0.20202872 0.93300003 1.1210082e-38
-0.049973942 0.20214769 0.93449998 8.4546306e-39
-0.046263017 0.20265332 0.93400002 2.5713953e-39
-0.084427379 0.20574051 0.93500006 7.7159823e-39
-0.081924938 0.20645018 0.93449998 9.7439275e-39
-0.079339206 0.20611836 0.93300003 9.9254503e-39
-0.056437168 0.20693628 0.93300003 9.2887521e-39
-0.053983379 0.20611836 0.93300003 4.410657e-39
-0.049909011 0.20583019 0.93328577 1.8367169e-39
-0.04580408 0.20611836 0.93300003 8.4077908e-45
-0.084427379 0.20983893 0.935 1.4693679e-39
-0.08196833 0.20983893 0.935 1.9285454e-39
-0.077541389 0.21011573 0.93349999 2.3877285e-39
-0.07388635 0.21129858 0.93300003 7.3468677e-40
-0.071159914 0.21184386 0.93300003 9.1835496e-40
-0.057091516 0.21053517 0.93300003 3.3157861e-39
-0.054146964 0.20988083 0.93300003 2.1187549e-39
-0.04996445 0.2096899 0.93433332 4.5154139e-39
-0.04672195 0.20983893 0.935 4.9785276e-39
-0.08196833 0.21229796 0.935 0
-0.077869914 0.21339089 0.93500006 2.7551349e-40
-0.073771499 0.21393734 0.935 9.1978989e-40
-0.069635823 0.21464263 0.93449998 2.1158037e-39
-0.065981261 0.21431854 0.93380004 0
-0.062162675 0.21429767 0.93300003 0
-0.058073029 0.21429768 0.93300003 6.6348554e-39
-0.053888172 0.21408148 0.93419999 7.367415e-39
-0.050469067 0.21370313 0.93500006 4.0508666e-39
-0.065574661 0.21721607 0.935 0
-0.062162675 0.21675146 0.93300003 0
-0.058135271 0.21780345 0.93400002 5.625025e-39
-0.054069731 0.2179196 0.93449998 2.8018402e-40
-0.051093593 0.21776253 0.93500006 1.4737008e-39
-0.04861993 0.16646145 0.94 1.1708926e-38
-0.046098638 0.16628349 0.93900001 1.0141194e-38
-0.043582607 0.1669296 0.93800002 1.6584199e-39
-0.093876973 0.17045963 0.93933338 5.1622322e-39
-0.091471396 0.17058179 0.94 5.5299399e-39
-0.057623297 0.17122263 0.93900001 2.3509867e-38
-0.054506924 0.17010629 0.93920004 2.0925872e-38
-0.050161116 0.17021887 0.93800008 2.3509886e-38
-0.046049543 0.16857423 0.93800002 2.268229e-38
-0.090001814 0.17314313 0.93900001 5.6231977e-39
-0.086447105 0.1741894 0.93914294 5.4388079e-39
-0.083230734 0.17552619 0.94 2.5800287e-39
-0.060156867 0.17222993 0.94 2.3509886e-38
-0.085976884 0.17730276 0.93849999 2.3045502e-39
-0.082362391 0.17790328 0.93950003 7.7411959e-39
-0.082318112 0.1802786 0.93900001 2.3509886e-38
-0.079934463 0.18047059 0.94 2.3509886e-38
-0.043675531 0.19035938 0.94 5.4280389e-39
-0.091471396 0.1953038 0.94 8.0934151e-39
-0.048516486 0.19406594 0.93800002 1.0202387e-38
-0.045710713 0.19396381 0.93950003 9.5667543e-39
-0.042851463 0.19365567 0.94 6.1655773e-39
-0.090245239 0.19722077 0.9386667 7.8186078e-39
-0.048516486 0.19653289 0.93800002 1.1393736e-38
-0.046484809 0.19828315 0.93849999 1.1216182e-38
-0.089823261 0.20107226 0.94 7.0806715e-39
-0.087439321 0.2025632 0.93800008 8.9134255e-39
-0.045323666 0.20189634 0.94 4.1344134e-39
-0.088175133 0.20601666 0.94 5.4186586e-39
-0.086342901 0.20557833 0.93800002 5.8803486e-39
-0.088175133 0.20931292 0.94 8.2759847e-40
-0.086342901 0.2096899 0.93800008 9.1836897e-41
-0.085368037 0.21383128 0.93933338 0
-0.082319871 0.21485259 0.93900001 0
-0.079764389 0.21462378 0.93800002 0
-0.048516486 0.21462378 0.93800002 3.2221597e-39
-0.046971798 0.21425733 0.94 4.9749361e-39
-0.049877368 0.16230811 0.94300002 5.6228502e-39
-0.047121707 0.16285923 0.94300002 5.9909153e-39
-0.094243415 0.16781941 0.94300002 3.4115536e-39
-0.090936631 0.16781941 0.94300002 5.8774718e-39
-0.057868764 0.16781941 0.94300002 0
-0.053735282 0.16699271 0.94300002 7.2801729e-39
-0.050015148 0.16575268 0.94300002 5.8082868e-39
-0.04629501 0.16451263 0.94300002 1.0130659e-39
-0.089779258 0.17013417 0.94300002 2.9484525e-39
-0.085976452 0.1702995 0.94300002 2.8569771e-39
-0.08266966 0.1711262 0.94300002 5.9919929e-39
-0.060348857 0.1702995 0.94300002 1.1708362e-38
-0.057868764 0.16947281 0.94300002 2.766585e-39
-0.052081887 0.16947281 0.94300002 2.3509886e-38
-0.049601801 0.16947281 0.94300002 2.3509886e-38
-0.085149758 0.1727796 0.94300002 5.072189e-39
-0.082173645 0.17377165 0.94300002 4.2417122e-39
-0.077709489 0.17360631 0.94300002 3.671402e-43
-0.062002245 0.1727796 0.94300002 2.3501238e-38
-0.080602922 0.17732644 0.94300002 9.5850693e-39
-0.077709489 0.17773978 0.94300002 1.5673214e-38
-0.047121707 0.19344702 0.94300002 6.8080685e-39
-0.091763332 0.19923389 0.94300002 7.9104433e-39
-0.045468315 0.19758049 0.94300002 9.7514496e-39
-0.042988226 0.19840717 0.94300002 4.5038938e-39
-0.091763332 0.20088728 0.94300002 7.5430831e-39
-0.043263793 0.20143841 0.94300002 3.214248e-39
-0.090109937 0.20584747 0.94300002 3.1292508e-39
-0.04381492 0.20419407 0.94300002 1.928572e-39
-0.090109937 0.20998096 0.94300002 7.3614692e-40
-0.089756638 0.16372275 0.94800001 2.3509886e-38
-0.086432323 0.16372275 0.94800001 2.3509886e-38
-0.060668841 0.16289167 0.94800001 2.8630616e-39
-0.058052868 0.16254802 0.94599998 4.9764018e-39
-0.053698897 0.16192603 0.94600004 5.6221314e-39
-0.092884578 0.16586533 0.94599998 6.9927708e-39
-0.089567274 0.16586533 0.94599998 2.3507316e-38
-0.086295113 0.16595256 0.94650006 2.2221678e-38
-0.08338502 0.16649303 0.94800007 1.0144801e-38
-0.061137564 0.16625926 0.94666666 2.9498972e-39
-0.058052868 0.16586533 0.94599998 5.4355723e-39
-0.053906232 0.16503599 0.94599998 2.0268661e-39
-0.08873795 0.1683533 0.94599998 4.7754458e-39
-0.086249962 0.1683533 0.94599998 1.7448744e-39
-0.081890687 0.16958889 0.94628584 1.5676816e-39
-0.078011639 0.1701306 0.94666672 0
-0.075628273 0.17037138 0.94800001 0
-0.062692694 0.16982587 0.94628584 3.7789124e-39
-0.080444686 0.17332925 0.94599998 2.215572e-39
-0.075521909 0.17345026 0.94666672 0
-0.075468719 0.17664658 0.94599998 1.836808e-40
-0.092055254 0.20318502 0.94599998 7.4480204e-39
-0.092055254 0.20567301 0.94599998 4.9717173e-39
-0.089206964 0.16257344 0.95099998 2.3509886e-38
-0.085872129 0.16257344 0.95099998 2.3509886e-38
-0.064195663 0.16257344 0.95099998 0
-0.062528245 0.16257344 0.95099998 2.5111268e-42
-0.084204704 0.16424087 0.95099998 2.3509886e-38
-0.081536822 0.16557479 0.95100003 9.9579814e-39
-0.078368738 0.16590829 0.95100009 7.8366299e-39
-0.075867608 0.166742 0.95099998 0
-0.069197923 0.16590828 0.95099998 0
-0.065863088 0.16611671 0.95100009 9.219563e-41
-0.062528245 0.16507457 0.95099998 2.1204701e-39
-0.075033896 0.17007682 0.95099998 0
-0.069197923 0.17007682 0.95099998 0
-0.066696793 0.17007682 0.95099998 0
-0.074200183 0.17424539 0.95099998 0
-0.069197923 0.17257796 0.95099998 0
-0.065863088 0.17313378 0.95099998 3.6874847e-39
-0.086202048 0.15929383 0.95466661 1.7421677e-38
-0.082971238 0.15839963 0.95599997 2.2570258e-38
-0.078615949 0.15974094 0.954 2.3509886e-38
-0.073422 0.15884674 0.95533335 2.3509886e-38
-0.070252553 0.1589046 0.954 2.3509886e-38
-0.065686435 0.15940562 0.95449996 2.2772679e-38
-0.062211767 0.15929383 0.95466661 9.8687201e-39
-0.056034777 0.15974094 0.954 2.8526695e-39
-0.08948838 0.16141361 0.954 2.3509886e-38
-0.085769117 0.16107917 0.95449996 2.3509886e-38
-0.082018599 0.16152525 0.95466661 2.3509886e-38
-0.077563457 0.16193937 0.95428574 2.3509886e-38
-0.073796391 0.16181512 0.9544 1.8717574e-38
-0.070252553 0.16224995 0.954 1.1708926e-38
-0.066405393 0.16208269 0.954 1.0332054e-38
-0.061889157 0.16141361 0.954 2.9455294e-42
-0.058091085 0.16087849 0.95479995 2.0272417e-39
-0.076106936 0.16475898 0.954 1.9098553e-38
-0.073597923 0.16559532 0.954 2.7723695e-39
-0.071088895 0.16559532 0.954 1.5414283e-44
-0.066070855 0.16475898 0.954 0
-0.07343065 0.16944249 0.954 0
-0.071088895 0.16977702 0.954 0
-0.07276158 0.17395872 0.954 0
-0.070531338 0.17423749 0.954 0
-0.066907197 0.17479505 0.954 8.4077908e-45
-0.073319145 0.17758285 0.954 1.3634808e-38
-0.070325315 0.1766527 0.95499998 2.2309369e-38
-0.066209368 0.17683768 0.95600003 2.3509851e-38
-0.09450642 0.19988525 0.954 5.7110746e-39
