# .PCD v0.7 - Point Cloud Data file format
VERSION 0.7
FIELDS x y z rgb
SIZE 4 4 4 4
TYPE F F F F
COUNT 1 1 1 1
WIDTH 1005
HEIGHT 1
VIEWPOINT 0 0 0 1 0 0 0
POINTS 1005
DATA ascii
-0.042167664 0.18407808 0.92500001 1.1431895e-38
-0.039863784 0.18467508 0.92799997 1.115747e-38
-0.0269049 0.14430809 0.93000001 2.3509886e-38
-0.0211978 0.14430809 0.93000001 2.3509886e-38
-0.017936599 0.14593869 0.93000001 2.3509886e-38
-0.014675399 0.146754 0.93000001 2.3509886e-38
-0.037232026 0.15028697 0.93000001 2.3509886e-38
-0.0342426 0.1491999 0.93000001 2.3509886e-38
-0.012229499 0.1491999 0.93000001 2.3509886e-38
-0.0097835995 0.15083049 0.93000001 2.3509886e-38
-0.0089683002 0.1540917 0.93000001 2.3325496e-38
-0.0066854595 0.1544178 0.93000001 2.2680491e-38
-0.0048917998 0.1581682 0.93000001 2.0377052e-38
-0.0024458999 0.1589835 0.93000001 2.0375953e-38
-0.0040765 0.1606141 0.93000001 1.9823881e-38
-0.0016306 0.16224469 0.93000001 2.0098664e-38
0.00081529998 0.16305999 0.93000001 1.9453658e-38
-0.056255694 0.16632119 0.93000001 1.1059507e-38
-0.054625098 0.16632119 0.93000001 1.2722998e-38
-0.00081529998 0.1655059 0.93000001 1.8069284e-38
0.0016306 0.16632119 0.93000001 1.7884533e-38
0.0040765 0.16713649 0.93000001 1.723953e-38
-0.052994497 0.1695824 0.93000001 1.5575994e-38
0.0024458999 0.1695824 0.93000001 1.6225374e-38
0.0052994499 0.16999005 0.93000001 1.4935706e-38
0.0089683002 0.17039768 0.93000001 7.1916123e-39
-0.052994497 0.17202829 0.93000001 1.2903107e-38
-0.050548598 0.1752895 0.93000001 1.3733511e-38
-0.0456568 0.1752895 0.93000001 1.2447146e-38
-0.043210898 0.17447419 0.93000001 1.2356032e-38
-0.0089683002 0.1752895 0.93000001 1.1154952e-38
-0.0057071 0.1752895 0.93000001 1.0878365e-38
-0.0016306 0.1752895 0.93000001 1.1524085e-38
0.0019023668 0.17311536 0.93000001 1.4381808e-38
0.0057071 0.17284361 0.93000001 1.382754e-38
0.0089683002 0.17202829 0.93000001 6.9117379e-39
-0.050548598 0.17773539 0.93000001 1.1799204e-38
-0.046472099 0.17773539 0.93000001 1.1709218e-38
-0.0138601 0.17855069 0.93000001 8.2072313e-39
-0.048102695 0.1826272 0.93000001 1.1705964e-38
-0.046472099 0.18018129 0.93000001 1.1339712e-38
-0.033427298 0.1809966 0.93000001 8.8522462e-39
-0.029839978 0.18246412 0.93000001 9.9560658e-39
-0.025817832 0.18235545 0.93000001 1.1246059e-38
-0.022420749 0.18303484 0.93000001 1.0971272e-38
-0.017936599 0.18018129 0.93000001 1.1710293e-38
-0.014675399 0.18018129 0.93000001 1.023588e-38
-0.0456568 0.1867037 0.93000001 1.2346259e-38
-0.029508598 0.13524774 0.935 2.3509886e-38
-0.027049549 0.13524774 0.935 2.3509886e-38
-0.029508598 0.13770679 0.935 2.3509886e-38
-0.026211163 0.13842654 0.93433332 2.3509886e-38
-0.02254129 0.13811663 0.935 2.3509886e-38
-0.037432205 0.14289813 0.93500006 2.3509886e-38
-0.034408726 0.1425482 0.93449998 2.3509886e-38
-0.030320683 0.14177112 0.9347778 2.3509886e-38
-0.026173759 0.14231983 0.93300003 2.3509886e-38
-0.022104762 0.14163552 0.93388885 2.3509886e-38
-0.018033031 0.14344458 0.935 2.3509886e-38
-0.013606744 0.14278884 0.93500006 2.3509886e-38
-0.010109427 0.14289813 0.93500006 2.2957434e-38
-0.0073771495 0.14344458 0.935 1.9455444e-38
-0.040164482 0.14590362 0.935 2.3509886e-38
-0.037665982 0.14574757 0.93400002 2.3509886e-38
-0.034353059 0.14559153 0.93300003 2.3509886e-38
-0.030274807 0.14564385 0.9333334 2.3509886e-38
-0.01799446 0.1447736 0.93300003 2.3509886e-38
-0.01359412 0.14561485 0.93419999 2.3509886e-38
-0.0098361988 0.14590362 0.935 2.3509886e-38
-0.0073771495 0.14590362 0.935 2.2126951e-38
-0.041228756 0.15044098 0.93433332 2.2957078e-38
-0.037924893 0.14869639 0.93366671 2.3509886e-38
-0.035170987 0.14804533 0.93300003 2.3509886e-38
-0.030286204 0.14815111 0.93366671 2.3509886e-38
-0.01226895 0.14804533 0.93300003 2.3509886e-38
-0.0098199816 0.14894259 0.93350005 2.3509886e-38
-0.0059387591 0.15012631 0.93449998 2.1758541e-38
-0.04508258 0.15492015 0.935 1.9179227e-38
-0.04171443 0.15295291 0.93300003 2.2772689e-38
-0.0046407813 0.15371796 0.93433332 2.1205735e-38
-0.0019125945 0.15437369 0.93500006 2.0468154e-38
0.00081968331 0.15492015 0.935 1.9546218e-38
-0.048361316 0.15819888 0.93500006 1.9269989e-38
-0.045902263 0.15819889 0.93500006 1.98228e-38
-0.0040896498 0.15704256 0.93300003 2.0561797e-38
-0.0014726245 0.1576003 0.93339998 2.0007173e-38
0.0016387821 0.15808551 0.93433332 1.9177792e-38
0.0040984168 0.15983824 0.935 1.8992665e-38
-0.05737783 0.16311698 0.935 9.2188189e-39
-0.054918781 0.16311698 0.935 1.3643531e-38
-0.048907772 0.16257052 0.93500006 1.7425708e-38
-0.045902267 0.16229729 0.935 1.954513e-38
-0.00081792998 0.16113222 0.93300003 1.9914632e-38
0.0019102566 0.16179264 0.93366671 1.926783e-38
0.0046419501 0.16245422 0.93433332 1.7701928e-38
-0.05737783 0.16475634 0.935 9.0308025e-39
-0.053632274 0.16580702 0.93400002 1.4292129e-38
-0.050000682 0.16557604 0.93500006 1.6136054e-38
-0.045820739 0.16609852 0.9333334 1.862281e-38
-0.042805009 0.1654945 0.93300003 2.3509886e-38
0.0024537898 0.16522186 0.93300003 1.7701939e-38
0.0050760754 0.16585429 0.93380004 1.668815e-38
-0.049976129 0.16959339 0.93455547 1.6962209e-38
-0.045804083 0.17012945 0.93300003 1.9450765e-38
-0.043443214 0.16803508 0.935 2.3509886e-38
0.0068213432 0.16888604 0.93366671 1.4473648e-38
0.0090165157 0.16885476 0.935 7.9277564e-39
-0.053165447 0.17421909 0.93300003 1.3089907e-38
-0.049674816 0.17380455 0.93328577 1.3828616e-38
-0.045804083 0.17340115 0.93300003 1.5672552e-38
-0.043350291 0.17258322 0.93300003 1.5301994e-38
0.00163586 0.17585494 0.93300003 1.2444981e-38
0.0057255104 0.17585495 0.93300003 1.207617e-38
-0.048257869 0.17830873 0.93300003 1.2538978e-38
-0.01226895 0.17830873 0.93300003 9.5886986e-39
-0.0098151602 0.17830874 0.93300003 9.6794621e-39
-0.0057275556 0.17837274 0.9333334 9.7705872e-39
-0.0016358598 0.17830873 0.93300003 1.0323409e-38
0.00163849 0.17849985 0.93400002 1.0786907e-38
0.0057331077 0.17856413 0.93433332 9.5883455e-39
0.0089972299 0.1774908 0.93300003 6.8231604e-39
-0.050220903 0.18141687 0.93300003 8.663829e-39
-0.01799446 0.18239839 0.93300003 1.1892488e-38
-0.01350242 0.18208717 0.93349999 1.1800325e-38
-0.0098256804 0.18177596 0.93400002 1.0232277e-38
-0.0061476249 0.18155986 0.935 9.5865574e-39
-0.0016393666 0.18115 0.935 9.7713074e-39
0.0016393666 0.18115 0.935 9.8656737e-39
0.0049180998 0.18115 0.935 8.8522252e-39
-0.048257869 0.18567011 0.93300003 8.5687187e-39
-0.036846299 0.18505117 0.93400002 1.1894322e-38
-0.034390174 0.18587027 0.93400002 1.1340802e-38
-0.030524906 0.18630959 0.9338572 1.0233729e-38
-0.026359787 0.1861579 0.93380004 8.8500686e-39
-0.02210778 0.18668878 0.93400002 9.7698543e-39
-0.018292818 0.1848437 0.93433332 1.1984349e-38
-0.013934616 0.18442874 0.93500006 1.2813403e-38
-0.010655883 0.18442874 0.935 1.1707072e-38
-0.037632376 0.13542162 0.94 2.3509886e-38
-0.033750791 0.13500229 0.93900001 2.3509886e-38
-0.028842334 0.13349879 0.94 2.3509886e-38
-0.026356544 0.13425055 0.93950003 2.3509886e-38
-0.022233434 0.13505051 0.93933338 2.3509886e-38
-0.041203331 0.1384432 0.94 2.3509886e-38
-0.037867617 0.13829592 0.93900001 2.3509886e-38
-0.033714846 0.13814865 0.93800008 2.3509886e-38
-0.021380147 0.13732633 0.93800002 2.3509886e-38
-0.018110178 0.13829504 0.93900001 2.3509886e-38
-0.01399423 0.13829505 0.93900007 2.3141466e-38
-0.0098677594 0.13897096 0.93800002 2.1483751e-38
-0.00740082 0.13897096 0.93800002 2.1667788e-38
-0.045323666 0.14256352 0.94 1.7517914e-38
-0.041766811 0.14216748 0.93875003 2.3141467e-38
-0.038100522 0.1411638 0.93800008 2.3509886e-38
-0.034537159 0.14061558 0.93800002 2.3509886e-38
-0.018090893 0.14143789 0.93800002 2.3509886e-38
-0.014390483 0.14102674 0.93800002 2.3509886e-38
-0.0095936554 0.1411638 0.93800008 2.0377768e-38
-0.0055506146 0.14205463 0.93800008 2.1391562e-38
-0.0016481332 0.14256352 0.94 2.1298282e-38
-0.045323666 0.14585981 0.94 1.8993045e-38
-0.042980511 0.14606458 0.93920004 2.2864885e-38
-0.0049338797 0.14637178 0.93800002 2.0654716e-38
-0.0016481332 0.14585979 0.94 2.0837663e-38
-0.043096349 0.14959967 0.93933338 2.1943294e-38
-0.033786733 0.14915606 0.94 2.3509886e-38
-0.0041115666 0.14883871 0.93800002 2.0928423e-38
-0.0016455034 0.14982058 0.93900001 2.0376687e-38
0.00082406664 0.15080419 0.94 2.04678e-38
-0.049443997 0.15574859 0.94 1.9639492e-38
-0.046971798 0.15574859 0.94 1.890265e-38
-0.0013711066 0.15278429 0.9386667 2.0008617e-38
0.001810492 0.15357341 0.93880004 1.9453659e-38
0.0057617454 0.15475944 0.93900007 1.7242042e-38
0.0090454463 0.1545949 0.93800002 8.5742104e-39
-0.0568606 0.1582208 0.94 1.5212265e-38
-0.055212464 0.1582208 0.94 1.6043482e-38
-0.051038656 0.15805247 0.93900001 1.825403e-38
0.0057614534 0.15799639 0.93866676 1.7333871e-38
0.0090647331 0.1582208 0.94 9.680188e-39
-0.057623297 0.16134435 0.93900001 9.8656162e-39
-0.054154504 0.16180356 0.93880004 1.5487064e-38
-0.05116998 0.16173518 0.93839997 1.751574e-38
0.0067429692 0.1616668 0.93800002 1.6319354e-38
0.0090454463 0.16199572 0.93800008 9.8656569e-39
0.00740082 0.1661073 0.93800002 1.5395975e-38
0.0090454463 0.1661073 0.93800002 9.2188679e-39
-0.0049338797 0.18337588 0.93800002 9.4036081e-39
-0.0016446267 0.18337588 0.93800002 9.4947206e-39
0.0016446267 0.18337588 0.93800002 9.3110622e-39
0.0049338797 0.18337588 0.93800002 7.0053979e-39
-0.017268579 0.18666513 0.93800002 1.2536089e-38
-0.014833199 0.18706313 0.94 1.1707756e-38
-0.0054370868 0.18599534 0.93959999 8.94263e-39
-0.0016459415 0.18594232 0.93850005 9.0337438e-39
0.0016446267 0.18584281 0.93800002 7.5575417e-39
0.0041115666 0.18502049 0.93800002 6.8224542e-39
-0.032892533 0.18995439 0.93800002 1.07869e-38
-0.02960328 0.18995439 0.93800002 1.0326285e-38
-0.026314026 0.18995439 0.93800002 9.3110566e-39
-0.02220246 0.18995439 0.93800008 8.4805826e-39
-0.01811018 0.18933456 0.93900001 1.0598544e-38
-0.015657267 0.18871126 0.94 1.1431179e-38
-0.0049443999 0.18871126 0.94 8.6674906e-39
-0.0016481332 0.18871126 0.94 8.7564212e-39
-0.025546065 0.19200753 0.94 9.0355599e-39
-0.022249801 0.19200753 0.94 8.298355e-39
-0.037201349 0.13144477 0.94300002 2.3509886e-38
-0.033894565 0.13144478 0.94300002 2.3509886e-38
-0.029485514 0.13089365 0.94300002 2.3509886e-38
-0.026454292 0.13061807 0.94300002 2.3509886e-38
-0.022320811 0.13061807 0.94300002 2.3509886e-38
-0.041334834 0.13475154 0.94300002 2.3509886e-38
-0.038303614 0.13364929 0.94300002 2.3509886e-38
-0.033894565 0.13309816 0.94300002 2.3509886e-38
-0.030587774 0.13392484 0.94300002 2.3509886e-38
-0.025627596 0.13309816 0.94300002 2.3509886e-38
-0.022320811 0.13309816 0.94300002 2.3509886e-38
-0.019014023 0.13475154 0.94300002 2.3509886e-38
-0.01488054 0.13475154 0.94300002 2.3233299e-38
-0.045468315 0.13888504 0.94300002 2.0005751e-38
-0.04282289 0.13739698 0.94300002 2.3232943e-38
-0.018187325 0.13640495 0.94300002 2.3509886e-38
-0.014053844 0.13640496 0.94300002 2.3049629e-38
-0.04629501 0.14219183 0.94300002 1.7703017e-38
-0.047121711 0.14632532 0.94300002 1.8164718e-38
0.00082669663 0.14715201 0.94300002 1.9823514e-38
-0.04629501 0.15045878 0.94300002 1.8993761e-38
0.0019289588 0.15018323 0.94300002 2.0006824e-38
0.0057868771 0.1512855 0.94300002 1.7608306e-38
0.0057868771 0.15293887 0.94300002 1.7425352e-38
-0.060348857 0.15872577 0.94300002 3.8668243e-39
-0.058695462 0.15872577 0.94300002 7.7444189e-39
-0.053184152 0.15789907 0.94300002 1.7518258e-38
-0.060348857 0.16203254 0.94300002 3.1332347e-39
-0.01240045 0.18766014 0.94300002 1.0879828e-38
-0.0096447943 0.18710902 0.94300002 9.403255e-39
-0.0074402699 0.18766014 0.94300002 8.1121659e-39
-0.013227146 0.18931353 0.94300002 1.0142612e-38
-0.033067867 0.19344702 0.94300002 1.097092e-38
-0.029761078 0.19344702 0.94300002 1.0234449e-38
-0.026729858 0.19372259 0.94300002 9.9578665e-39
-0.022320811 0.19427374 0.94300002 9.4965282e-39
-0.019014023 0.19262032 0.94300002 8.1143042e-39
-0.038229678 0.12383091 0.94800001 2.3509886e-38
-0.03407428 0.12383091 0.94800007 2.3509886e-38
-0.030749958 0.12383091 0.94800001 2.3509886e-38
-0.044047236 0.12715524 0.94800001 2.3509886e-38
-0.041553997 0.12632415 0.94800001 2.3509886e-38
-0.038189352 0.12619001 0.94700003 2.3509886e-38
-0.034013789 0.12610176 0.94633335 2.3509886e-38
-0.029902659 0.12625709 0.94749999 2.3509886e-38
-0.026095912 0.12649037 0.94800007 2.3509886e-38
-0.046002556 0.13070048 0.9472 2.1851096e-38
-0.042099506 0.13044558 0.94625002 2.3325496e-38
-0.03831489 0.12987256 0.94600004 2.3509886e-38
-0.03400239 0.12937497 0.94600004 2.3509886e-38
-0.030132201 0.1290985 0.94599998 2.3509886e-38
-0.025709126 0.12854561 0.94599998 2.3509886e-38
-0.021562491 0.12854561 0.94599998 2.3509886e-38
-0.018258044 0.13029489 0.94666666 2.3509886e-38
-0.015773863 0.13117126 0.94700003 2.3509886e-38
-0.049033716 0.13380387 0.94800007 2.046853e-38
-0.046442293 0.13435091 0.94599998 2.2127683e-38
-0.042710323 0.13393626 0.94599998 2.2956717e-38
-0.017968744 0.13407448 0.94599998 2.3509886e-38
-0.013564372 0.13343218 0.94733334 2.3141466e-38
-0.0099659469 0.13370861 0.94733334 2.2220597e-38
-0.0074718297 0.13449205 0.94700003 2.1944375e-38
-0.049033716 0.13795927 0.94800001 1.9268534e-38
-0.046718739 0.13739179 0.94599998 2.1481589e-38
-0.0099519193 0.13766822 0.94599998 2.1759619e-38
-0.0074639395 0.13766822 0.94599998 2.1851817e-38
0.0024932399 0.13879037 0.94800001 1.9823875e-38
-0.049813073 0.14196476 0.94700003 1.779558e-38
-0.047271617 0.14098552 0.94599998 1.7887051e-38
-0.0058052861 0.14015619 0.94599998 2.1206815e-38
0.0018255707 0.14220583 0.94639999 2.009974e-38
0.0048185112 0.14238644 0.94760001 1.5491411e-38
-0.060668841 0.14710116 0.94800001 1.0041748e-38
-0.059006676 0.14710116 0.94800001 1.3366571e-38
-0.049864799 0.14627008 0.94800001 1.8625696e-38
0.0019350955 0.14568506 0.94599998 1.9731672e-38
0.0049790284 0.1460382 0.94650006 1.6874344e-38
-0.060668841 0.1495944 0.94800001 8.8460707e-39
-0.059006676 0.1495944 0.94800001 1.1614489e-38
-0.049812492 0.15026563 0.94700003 1.8440229e-38
0.0024879798 0.14844947 0.94599998 1.9731317e-38
0.0049759597 0.14927879 0.94599998 1.8623887e-38
-0.060668841 0.15374981 0.94800007 7.1879955e-39
-0.058591139 0.15416533 0.94800001 1.2074746e-38
-0.054020204 0.15541196 0.94800007 1.7056217e-38
-0.049759597 0.15425475 0.94599998 1.9177794e-38
-0.046442293 0.15425475 0.94599998 1.9086316e-38
-0.061370172 0.15757205 0.94599998 5.2501062e-39
-0.058052868 0.15674272 0.94599998 1.2905218e-38
-0.054735556 0.15674272 0.94599998 1.7056211e-38
-0.062199496 0.16088937 0.94599998 5.8040297e-39
-0.014098553 0.19157445 0.94599998 8.8511392e-39
-0.0099519193 0.19074512 0.94599998 8.021401e-39
-0.0074639395 0.19074513 0.94599998 8.7575283e-39
-0.017968744 0.19433889 0.94599998 8.9433418e-39
-0.014113456 0.19426847 0.94700003 7.468939e-39
-0.01023596 0.19392334 0.94666672 7.0076134e-39
-0.029579317 0.19710331 0.94599998 7.0057847e-39
-0.025717599 0.19744959 0.94633341 5.5317336e-39
-0.021585286 0.19758926 0.94699997 4.4257588e-39
-0.018560788 0.19752002 0.94800007 5.5313875e-39
-0.01412836 0.19779705 0.94800007 2.1237435e-39
-0.010804039 0.19779703 0.94800001 4.6601862e-40
-0.038350657 0.12255536 0.95099998 2.3509886e-38
-0.035015814 0.12255536 0.95099998 2.3509886e-38
-0.045020338 0.12672392 0.95099998 2.2310995e-38
-0.041685499 0.12422278 0.95099998 2.3233302e-38
-0.029179849 0.12422278 0.95099998 2.3509886e-38
-0.025428152 0.12463963 0.95099998 2.3509886e-38
-0.021676458 0.12672392 0.95099998 2.3509886e-38
-0.018619522 0.12700182 0.95099998 2.3509886e-38
-0.045854047 0.12922505 0.95099998 2.2495032e-38
-0.015006779 0.13005875 0.95099998 2.3509886e-38
-0.050856307 0.13589473 0.95099998 1.9821713e-38
-0.052523725 0.13839585 0.95099998 1.6043147e-38
-0.050856307 0.13839585 0.95099998 1.705694e-38
-0.052523725 0.1417307 0.95099998 1.7243492e-38
-0.061416633 0.14589924 0.95099998 8.5687874e-39
-0.059193403 0.14506555 0.95099998 1.4013754e-38
-0.05319069 0.14556576 0.95100003 1.7980331e-38
-0.062528245 0.15006778 0.95099998 3.2221443e-39
-0.057525985 0.1509015 0.95099998 1.6777081e-38
-0.053357437 0.1509015 0.95099998 1.8438427e-38
-0.062528245 0.15340263 0.95099998 4.3313659e-39
-0.057525985 0.15340263 0.95099998 1.5946966e-38
-0.054191142 0.15340263 0.95100009 1.7424639e-38
-0.017507909 0.19925669 0.95099998 0
-0.014173068 0.2009241 0.95099998 2.7658689e-40
-0.020952333 0.11481878 0.95599997 2.3509886e-38
-0.018438052 0.11481878 0.95599997 2.3509886e-38
-0.014247585 0.11481878 0.95600003 2.3509886e-38
-0.041904662 0.11984733 0.95599997 2.3509886e-38
-0.037714198 0.11984734 0.95600003 2.3509886e-38
-0.033523731 0.11984733 0.95599997 2.3509886e-38
-0.030171357 0.11984733 0.95599997 2.3509886e-38
-0.025561843 0.11942829 0.95599997 2.3509886e-38
-0.021775229 0.11808758 0.95533323 2.3509886e-38
-0.018431332 0.11812937 0.95566666 2.3509886e-38
-0.014000615 0.1176211 0.9554286 2.3509886e-38
-0.010880018 0.11800518 0.95466661 2.3233657e-38
-0.045233805 0.12229719 0.95550001 2.2034051e-38
-0.041816995 0.12210564 0.954 2.3417333e-38
-0.038471639 0.12126929 0.954 2.3509886e-38
-0.033888862 0.12175102 0.95449996 2.3509886e-38
-0.030139798 0.12223275 0.95499992 2.3509886e-38
-0.025936183 0.12214801 0.95433331 2.3509886e-38
-0.021744838 0.12210564 0.954 2.3509886e-38
-0.018417889 0.12223363 0.95499992 2.3509886e-38
-0.014666632 0.12278067 0.95599997 2.3509886e-38
-0.046605643 0.12586099 0.95500004 2.1114261e-38
-0.02174484 0.12461465 0.954 2.3509886e-38
-0.0181207 0.12517223 0.954 2.3509886e-38
-0.014233949 0.12643325 0.95511109 2.3509886e-38
-0.010220179 0.1261632 0.95559996 2.2865241e-38
-0.0075428397 0.12655209 0.95599997 2.1667788e-38
-0.049971752 0.13093017 0.95533335 2.0008991e-38
-0.047671378 0.1296327 0.954 2.1760706e-38
-0.01310266 0.13019025 0.954 2.3509886e-38
-0.0098803835 0.13013029 0.95520002 2.323366e-38
-0.0075428402 0.12990445 0.95600003 2.2680852e-38
-0.052744649 0.13395378 0.95499998 1.8808283e-38
-0.051016737 0.13381439 0.954 2.056036e-38
-0.0075428397 0.13325684 0.95599997 2.2312789e-38
-0.061739534 0.13940284 0.95600003 9.3121202e-39
-0.057828438 0.13912348 0.95599997 1.521302e-38
-0.05400091 0.13772169 0.95499998 1.6412284e-38
-0.061954908 0.14232682 0.95499992 6.9128548e-39
-0.057707459 0.14217779 0.954 1.5672915e-38
-0.054362096 0.14217779 0.954 1.7333527e-38
-0.062725499 0.14552315 0.954 2.1165394e-39
-0.056871116 0.14552315 0.954 1.6411921e-38
-0.056703847 0.14937033 0.954 1.6962928e-38
-0.053804539 0.1491473 0.954 1.8070718e-38
-0.030944578 0.19988525 0.954 9.3629158e-41
-0.030408643 0.20225751 0.95466661 9.3277432e-41
-0.025926542 0.20155793 0.954 0
-0.02174484 0.20155793 0.954 0
-0.018399481 0.20155793 0.954 0
-0.024380974 0.11517908 0.95899999 2.3509886e-38
-0.021858806 0.11433837 0.95899999 2.3509886e-38
-0.019336635 0.11349764 0.95899999 2.3049626e-38
-0.042036165 0.11854198 0.95899999 2.2679053e-38
-0.037832547 0.11770125 0.95900005 2.3509886e-38
-0.033909176 0.11798149 0.95899999 2.3509886e-38
-0.029985797 0.11798149 0.95899999 2.3509886e-38
-0.026398713 0.11753311 0.95900005 2.3509886e-38
-0.049602676 0.1227456 0.95899999 1.8255119e-38
-0.04666014 0.12148451 0.95899999 2.1112459e-38
-0.014292296 0.12106415 0.95899999 2.3509886e-38
-0.010088679 0.1227456 0.95899999 2.2589017e-38
-0.049602676 0.1261085 0.95899999 1.8256933e-38
-0.0058850637 0.12638874 0.95899999 2.0377416e-38
-0.0504434 0.12947139 0.95899999 1.9548015e-38
-0.0050443402 0.13031211 0.95900005 2.1207172e-38
-0.0025221698 0.13115284 0.95899999 2.0377764e-38
-0.054647014 0.13535646 0.95899999 1.8438069e-38
-0.0050443402 0.13451573 0.95899999 2.2129122e-38
-0.0019616876 0.13479598 0.95899999 2.1483028e-38
-0.063054249 0.13871935 0.95899999 3.1360807e-39
-0.057169184 0.1370379 0.95899999 1.5582164e-38
-0.0050443402 0.13787863 0.95899999 2.0930949e-38
-0.0019616876 0.1375984 0.95899999 2.0285928e-38
-0.0042036166 0.14208223 0.95899999 2.1390846e-38
-0.0019616876 0.1432032 0.95899999 2.1482675e-38
-0.036339585 0.10732854 0.96399999 2.3509886e-38
-0.034649372 0.10732854 0.96399999 2.3509886e-38
-0.041410226 0.11070897 0.96399999 2.3509886e-38
-0.038029801 0.10986386 0.96399993 2.3509886e-38
-0.033804268 0.10986386 0.96399999 2.3509886e-38
-0.030423837 0.10986386 0.96399999 2.3509886e-38
-0.02788852 0.10986386 0.96399999 2.3509886e-38
-0.044790652 0.1149345 0.96399999 2.0376678e-38
-0.042051245 0.11433136 0.96320003 2.2772323e-38
-0.037977196 0.11393043 0.96266663 2.3509886e-38
-0.033768907 0.11396988 0.963 2.3509886e-38
-0.030402798 0.11400932 0.96333331 2.3509886e-38
-0.0263892 0.11378847 0.96324992 2.3509886e-38
-0.022238694 0.11288369 0.96333331 2.3509886e-38
-0.017723862 0.11336818 0.96266669 2.3048906e-38
-0.049016185 0.11831493 0.96399999 1.9177425e-38
-0.045565188 0.11813039 0.96249998 2.2495025e-38
-0.042167664 0.11722611 0.96200001 2.2218427e-38
-0.032890782 0.11722611 0.96200001 2.3509886e-38
-0.031204073 0.11722611 0.96200001 2.3509886e-38
-0.053241715 0.12254046 0.96399999 1.8622444e-38
-0.050179522 0.12186455 0.96200001 1.843914e-38
-0.0092768865 0.12059952 0.96200001 2.1390846e-38
-0.0064718453 0.12269388 0.963 2.0100818e-38
-0.053917803 0.12625894 0.96399993 1.6873982e-38
-0.051444549 0.12650299 0.96200001 1.7428958e-38
-0.0047819242 0.12518333 0.96266669 2.0930225e-38
-0.0021101367 0.12621194 0.96299994 2.1297923e-38
-0.065073207 0.13099153 0.96399999 5.1593399e-39
-0.061692785 0.13099155 0.96399999 1.2262379e-38
-0.057185546 0.13042814 0.96399999 1.7702294e-38
-0.054059207 0.13007848 0.96349996 1.7242395e-38
-0.051444549 0.12903306 0.96200001 1.9364342e-38
-0.0014061732 0.12968472 0.96266669 2.0561797e-38
0.00084510661 0.13099153 0.96399999 1.9731332e-38
-0.065073207 0.13352683 0.96399999 3.5945548e-39
-0.061692782 0.13352685 0.96399993 1.1709914e-38
-0.057251241 0.1339217 0.96320003 1.6135335e-38
-0.054255731 0.13296871 0.96200007 1.7795214e-38
-0.00084335334 0.13324982 0.96200001 2.0008615e-38
0.0016890445 0.13427785 0.96333331 1.8717892e-38
-0.065073207 0.13690728 0.96399999 2.9499098e-39
-0.061978925 0.13662395 0.96320003 1.0326981e-38
-0.059095219 0.13676438 0.963 1.4844599e-38
-0.00084335334 0.13915329 0.96200001 2.0193383e-38
0.0016867067 0.13830994 0.96200001 1.9363619e-38
-0.0050601196 0.14084001 0.96200001 2.1299008e-38
-0.0014067579 0.14159861 0.96333331 2.0838034e-38
0.00084510661 0.14197791 0.96399999 2.1206451e-38
-0.013563786 0.10257614 0.96700001 2.3509886e-38
-0.01017284 0.10257614 0.96700001 2.3509886e-38
-0.041539095 0.10766255 0.96700001 2.3509886e-38
-0.03814815 0.1070974 0.96700001 2.3509886e-38
-0.033485595 0.10596707 0.96700001 2.3509886e-38
-0.030518522 0.10596707 0.96700001 2.3509886e-38
-0.027127571 0.10766255 0.96700001 2.3509886e-38
-0.021871606 0.10630617 0.96700001 2.2495734e-38
-0.019497944 0.10596707 0.96700001 2.2586852e-38
-0.013563786 0.10596709 0.96700001 2.3509886e-38
-0.01017284 0.10596707 0.96700001 2.3233297e-38
-0.044930041 0.1110535 0.96700001 2.2494657e-38
-0.042669412 0.10992318 0.96700001 2.3048907e-38
-0.025432099 0.11020576 0.96700001 2.3509886e-38
-0.022041153 0.11020575 0.96700001 2.2403542e-38
-0.018367629 0.11048834 0.96700001 2.3048545e-38
-0.013563786 0.11020576 0.96700001 2.3509886e-38
-0.011020577 0.10935803 0.96700001 2.1758169e-38
-0.049168725 0.11359671 0.96700001 1.834839e-38
-0.046060361 0.11331414 0.96700001 2.065146e-38
-0.043234568 0.11274898 0.96700001 2.3140024e-38
-0.016954733 0.11274898 0.96700001 2.3509886e-38
-0.013563786 0.11359671 0.96700001 2.2773045e-38
-0.050016463 0.11727023 0.96700001 1.9544413e-38
-0.046625517 0.11613992 0.96700001 1.9269975e-38
-0.0093251029 0.11868313 0.96700001 2.1023139e-38
-0.0067818929 0.11868313 0.96700001 2.0009344e-38
0.0016954732 0.11953086 0.96700001 1.217453e-38
-0.057646088 0.12292181 0.96700001 1.6503759e-38
-0.054255143 0.12207408 0.96700001 1.7794129e-38
-0.051711936 0.12122634 0.96700001 1.9545108e-38
-0.0050864201 0.12122634 0.96700001 2.0653985e-38
-0.0019780523 0.12235665 0.96700001 2.138904e-38
0.0016954732 0.12207408 0.96700001 1.3186525e-38
-0.060189299 0.12546502 0.96700001 1.5948783e-38
-0.057646088 0.12546502 0.96700001 1.871609e-38
-0.055102881 0.12461729 0.96700001 1.6596305e-38
-0.00084773666 0.12546502 0.96700001 1.9914986e-38
0.0016954732 0.12546502 0.96700001 1.5214828e-38
-0.066406034 0.13026886 0.96700001 6.3575188e-39
-0.061884776 0.12885597 0.96700001 1.2814478e-38
-0.057928666 0.1285734 0.96700001 1.8715372e-38
0.0018650206 0.12936461 0.96700001 1.6781781e-38
-0.06697119 0.1339424 0.96700001 6.176031e-39
-0.013605866 0.0994929 0.97000003 2.0928414e-38
-0.011054766 0.098642528 0.97000003 2.3234379e-38
-0.033731211 0.10232746 0.97000003 2.3509886e-38
-0.030102981 0.10221408 0.97000009 2.3509886e-38
-0.021826079 0.10232746 0.97000003 2.3509886e-38
-0.017857701 0.10221408 0.97000009 2.341733e-38
-0.013605866 0.10119363 0.97000003 2.2864519e-38
-0.011054766 0.10119363 0.97000003 2.3509886e-38
-0.045919798 0.10799656 0.97000003 2.2679769e-38
-0.042518333 0.1071462 0.97000003 2.3417691e-38
-0.038606647 0.10527539 0.97000009 2.3509886e-38
-0.034865033 0.1045951 0.97000003 2.3509886e-38
-0.028062101 0.10544547 0.97000003 2.3509886e-38
-0.025340928 0.10595568 0.97000009 2.3509886e-38
-0.022959899 0.1045951 0.97000003 2.3509886e-38
-0.017007332 0.10629584 0.97000015 2.3509886e-38
-0.049321264 0.11139803 0.97000003 1.9454007e-38
-0.046203256 0.1102642 0.97000003 2.2954557e-38
-0.01729079 0.1102642 0.97000003 2.3509886e-38
-0.013605866 0.11054766 0.97000003 2.3140746e-38
-0.051872365 0.11479949 0.97000003 2.0006824e-38
-0.054423466 0.1199017 0.97000003 2.018906e-38
-0.051872365 0.11735059 0.97000003 2.0374539e-38
-0.0093540326 0.11650023 0.97000003 2.2403904e-38
-0.0055273836 0.11777578 0.97000003 2.0561076e-38
-0.001984189 0.11933479 0.97000003 1.9087389e-38
-0.061651587 0.12287799 0.97000003 1.5211927e-38
-0.057824932 0.12160243 0.97000003 1.6134968e-38
-0.055273835 0.12160243 0.97000003 1.6688501e-38
-0.00085036666 0.12160243 0.97000003 1.9177417e-38
-0.062927134 0.12585427 0.97000003 1.2444968e-38
-0.0290615 0.09487725 0.97500002 2.3509886e-38
-0.02478775 0.09487725 0.97500002 2.3509886e-38
-0.02307825 0.09487725 0.97500002 2.3509886e-38
-0.041882753 0.097441494 0.97500002 2.3509886e-38
-0.033301059 0.099048421 0.97399998 2.3509886e-38
-0.030232901 0.098214194 0.97420007 2.3509886e-38
-0.024762325 0.098193675 0.97399998 2.3509886e-38
-0.022478025 0.098729312 0.97366667 2.3509886e-38
-0.017486431 0.099374108 0.97299999 2.3509886e-38
-0.013647947 0.098094612 0.97299999 2.0561073e-38
-0.045871586 0.10285492 0.97500008 2.3509886e-38
-0.041873593 0.10169167 0.97477776 2.3509886e-38
-0.037557568 0.10157498 0.97366667 2.3509886e-38
-0.035008807 0.10075618 0.97399998 2.3509886e-38
-0.02817782 0.10075618 0.97399998 2.3509886e-38
-0.025771368 0.10188883 0.97340006 2.3509886e-38
-0.023030909 0.1015066 0.97299999 2.3509886e-38
-0.01791293 0.1015066 0.97299999 2.3509886e-38
-0.052139752 0.10598899 0.97500002 2.2496108e-38
-0.04952465 0.10587941 0.97399998 2.1942204e-38
-0.046109159 0.10587941 0.97399998 2.2771609e-38
-0.042934164 0.10548725 0.97299999 2.3140749e-38
-0.052994501 0.11026275 0.97500002 2.1757818e-38
-0.0494738 0.10918357 0.97299999 2.0282666e-38
-0.0099644857 0.11132585 0.97433341 2.1574142e-38
-0.054169755 0.11431891 0.97459996 2.0745115e-38
-0.010252178 0.11447732 0.97450006 2.1759253e-38
-0.0064036115 0.11484551 0.97399998 2.1482305e-38
-0.00256425 0.11539125 0.97500002 2.000719e-38
-0.060687248 0.11881025 0.97500002 1.6134979e-38
-0.058123 0.11795549 0.97500002 1.4842797e-38
-0.054620277 0.11777358 0.97350001 2.0558209e-38
-0.011088956 0.11686053 0.97299999 2.2680851e-38
-0.0042649829 0.11686053 0.97299999 2.0652197e-38
-0.0014222455 0.11750927 0.97366667 1.8256542e-38
0.0017059932 0.11856653 0.97299999 1.2539354e-38
-0.064106248 0.12222925 0.97500002 1.1340068e-38
-0.061784249 0.121006 0.97433329 1.6595225e-38
-0.058003772 0.12027252 0.97299999 1.456657e-38
-0.042011619 0.090882272 0.97800004 2.3509886e-38
-0.045441139 0.094311789 0.97799999 2.3509886e-38
-0.042011619 0.094311796 0.97800004 2.3509886e-38
-0.037724718 0.094311789 0.97799999 2.3509886e-38
-0.034295198 0.094311789 0.97799999 2.3509886e-38
-0.03172306 0.095169172 0.97799999 2.3509886e-38
-0.026578778 0.095169172 0.97799999 2.3509886e-38
-0.021434499 0.095169172 0.97799999 2.3509886e-38
-0.019719739 0.095169172 0.97799999 2.3509886e-38
-0.048870657 0.097741321 0.97799999 2.3325494e-38
-0.046298519 0.097741321 0.97799999 2.3509886e-38
-0.037724718 0.097741313 0.97799999 2.3509886e-38
-0.034580991 0.097455524 0.97800004 2.3509886e-38
-0.030008299 0.09802711 0.97800004 2.3509886e-38
-0.02600719 0.09802711 0.97800004 2.3509886e-38
-0.022006085 0.09802711 0.97800004 2.3509886e-38
-0.018576566 0.097455524 0.97800004 2.3509886e-38
-0.014575459 0.096883938 0.97799999 2.1389386e-38
-0.049299344 0.1024569 0.97799999 2.3140384e-38
-0.046584316 0.10088505 0.97800004 2.3509886e-38
-0.054586526 0.10660091 0.97800004 2.3140025e-38
-0.057444457 0.10974464 0.97799999 1.9819908e-38
-0.055729698 0.10974464 0.97799999 2.2954918e-38
-0.0077164196 0.11060201 0.97799999 2.157378e-38
-0.060873974 0.1157463 0.97799999 1.6318608e-38
-0.057873148 0.11446022 0.97799999 1.6779624e-38
-0.055729698 0.11231677 0.97799999 2.0926998e-38
-0.0060016597 0.11345994 0.97800004 2.1298284e-38
-0.00171476 0.11488892 0.97799999 1.917779e-38
0.00085737993 0.1157463 0.97799999 1.5581803e-38
-0.06201715 0.11803263 0.97800004 1.6317916e-38
0.00085737993 0.11746105 0.97799999 1.6778548e-38
-0.064303495 0.12089057 0.97799999 1.2168747e-38
-0.043132 0.087126635 0.98400003 2.3509886e-38
-0.01897808 0.087126635 0.98400003 2.3509886e-38
-0.045719918 0.089714557 0.98400003 2.3509886e-38
-0.04226936 0.088851921 0.98400009 2.3509886e-38
-0.03795616 0.090577193 0.98400003 2.3509886e-38
-0.034505598 0.090577193 0.98400003 2.3509886e-38
-0.031820368 0.090301044 0.98100001 2.3509886e-38
-0.025016559 0.090577193 0.98400003 2.3509886e-38
-0.022428639 0.090577193 0.98400003 2.3509886e-38
-0.01897808 0.089714557 0.98400003 2.3509886e-38
-0.049170479 0.094890401 0.98400003 2.3509886e-38
-0.046979032 0.093526088 0.98325002 2.3509886e-38
-0.037840441 0.09202107 0.98100001 2.3509886e-38
-0.034400396 0.09202107 0.98100001 2.3509886e-38
-0.022360258 0.092881083 0.98100001 2.3509886e-38
-0.01834688 0.093741089 0.98100007 2.3509886e-38
-0.050895758 0.098340958 0.98400003 2.3509886e-38
-0.018060209 0.098041132 0.98100001 2.3509886e-38
-0.053402148 0.10163503 0.98250002 2.2679772e-38
-0.050740588 0.10148117 0.98100001 2.3048189e-38
-0.061247434 0.10783 0.98400003 1.8619574e-38
-0.058035161 0.10625358 0.98220009 2.1479428e-38
-0.05418063 0.10463455 0.98100007 2.2493943e-38
-0.0068892851 0.10766562 0.98250002 2.0652555e-38
-0.061060708 0.11008128 0.98100001 1.8160396e-38
-0.059340689 0.11008128 0.98100001 2.0096145e-38
-0.0056823776 0.11004288 0.98220009 1.9915716e-38
-0.00172002 0.11008128 0.98100001 1.7243474e-38
-0.061760288 0.11403944 0.98300004 1.6872163e-38
-0.059340689 0.11352132 0.98100001 1.7608292e-38
-0.0051600598 0.11266131 0.98100001 2.0837304e-38
-0.00143335 0.11323465 0.98100007 1.8440582e-38
0.00086000998 0.11352132 0.98100001 1.4199597e-38
-0.064698003 0.11731903 0.98400003 1.4657663e-38
-0.062780723 0.11610134 0.98100001 1.6226062e-38
-0.042398226 0.083931185 0.98699999 2.3509886e-38
-0.044994038 0.08652699 0.98699999 2.3509886e-38
-0.041532956 0.08652699 0.98699999 2.3509886e-38
-0.038937148 0.087392263 0.98699999 2.3509886e-38
-0.049320389 0.089988075 0.98699999 2.3509886e-38
-0.047589846 0.089988075 0.98699999 2.3509886e-38
-0.038071878 0.089122802 0.98699999 2.3509886e-38
-0.034610797 0.089122802 0.98699999 2.3509886e-38
-0.016440129 0.090853348 0.98699999 2.3509886e-38
-0.014709589 0.090853348 0.98699999 2.2956712e-38
-0.050474085 0.093160741 0.98699999 2.3509886e-38
-0.016440129 0.09344916 0.98699999 2.3509886e-38
-0.01384432 0.09344916 0.98699999 2.2311705e-38
-0.010671663 0.093160741 0.98699999 2.2127323e-38
-0.053646736 0.09864077 0.98699999 2.2403542e-38
-0.051050927 0.096044965 0.98699999 2.3509886e-38
-0.013555897 0.096621811 0.98699999 2.1297916e-38
-0.056242548 0.10296712 0.98699999 2.0559998e-38
-0.062299438 0.10642821 0.98699999 1.7423187e-38
-0.057973087 0.10469767 0.98699999 2.1850367e-38
-0.063164711 0.10988929 0.98699999 1.6778545e-38
-0.0043263496 0.10815874 0.98699999 1.8348398e-38
-0.0017305398 0.10815874 0.98699999 1.5399932e-38
-0.06489525 0.1150809 0.98699999 1.3924777e-38
-0.063164711 0.11335036 0.98699999 1.6318587e-38
-0.053048849 0.087834984 0.99199998 2.3509886e-38
-0.05010004 0.087166667 0.99100006 2.3509886e-38
-0.04710827 0.086413324 0.98900002 2.3509886e-38
-0.040750097 0.084968284 0.98900002 2.3509886e-38
-0.038177297 0.085900396 0.98975003 2.3509886e-38
-0.035005882 0.086500108 0.99000001 2.3509886e-38
-0.053048849 0.090443939 0.99199998 2.3509886e-38
-0.051154375 0.090170428 0.98900002 2.3509886e-38
-0.056527462 0.09479221 0.99199998 1.8257631e-38
-0.05383829 0.09378054 0.99050003 2.1481949e-38
-0.0095372573 0.094505541 0.98900002 2.1206815e-38
-0.057154804 0.097803034 0.99080002 2.0284492e-38
-0.053755447 0.096239582 0.98900002 2.1851092e-38
-0.01040428 0.097106606 0.98900002 2.1758543e-38
-0.060875729 0.10261908 0.99199998 2.0374527e-38
-0.057745151 0.10159427 0.99050003 2.2403185e-38
-0.061558656 0.10490982 0.98900002 1.8253312e-38
-0.059824612 0.10490982 0.98900002 2.2493951e-38
-0.0060783681 0.10593595 0.99049997 1.991463e-38
-0.0017366766 0.10593595 0.99049997 1.5028985e-38
-0.065026753 0.11184601 0.98900002 1.6040966e-38
-0.065026753 0.11358006 0.98900002 1.5488828e-38
-0.053209282 0.086356044 0.995 2.3509886e-38
-0.050592434 0.08548376 0.995 2.3509886e-38
-0.047975581 0.084611475 0.995 2.3509886e-38
-0.041995838 0.079617113 0.99800003 2.3509886e-38
-0.038496189 0.079617113 0.99800003 2.3509886e-38
-0.034121618 0.079617113 0.99800003 2.3509886e-38
-0.030621966 0.079617113 0.99800003 2.3509886e-38
-0.049870059 0.08311677 0.99800003 2.3509886e-38
-0.045203857 0.082533494 0.99800003 2.3509886e-38
-0.041995842 0.082241856 0.99800003 2.3509886e-38
-0.038496189 0.082241856 0.99800003 2.3509886e-38
-0.034121618 0.082241856 0.99800009 2.3509886e-38
-0.029747054 0.082241856 0.99800003 2.3509886e-38
-0.026539039 0.082533494 0.99800003 2.3509886e-38
-0.021872833 0.08311677 0.99800003 2.3509886e-38
-0.054244623 0.085741505 0.99800003 2.2403184e-38
-0.051619884 0.084866591 0.99800003 2.3509886e-38
-0.045495495 0.084866591 0.99800003 2.3509886e-38
-0.037621275 0.084866591 0.99800003 2.3509886e-38
-0.034121618 0.084866598 0.99800003 2.3509886e-38
-0.030038692 0.085449867 0.99800003 2.3509886e-38
-0.026247399 0.085741505 0.99800003 2.3509886e-38
-0.021872833 0.085741505 0.99800009 2.3509886e-38
-0.056869365 0.09099099 0.99800003 1.9730955e-38
-0.055119537 0.090116076 0.99800003 2.037596e-38
-0.056869365 0.093615726 0.99800003 1.8439492e-38
-0.062118843 0.10061504 0.99800003 1.9545513e-38
-0.0043745665 0.10236486 0.99800003 1.8807555e-38
-0.0026247399 0.10236486 0.99800003 1.7703007e-38
-0.0043745665 0.10411468 0.99800003 1.7425347e-38
-0.0017498266 0.10411468 0.99800003 1.4659458e-38
-0.025525024 0.071294032 1.0039999 2.3509886e-38
-0.029045718 0.073934555 1.0039999 2.3509886e-38
-0.026386131 0.073878668 1.00325 2.3509886e-38
-0.022866752 0.073878668 1.00325 2.2773045e-38
-0.045632251 0.07985644 1.001 2.3509886e-38
-0.033893686 0.07744509 1.0016 2.3509886e-38
-0.029660964 0.077750348 1.001 2.3509886e-38
-0.026326302 0.078101359 1.001 2.3509886e-38
-0.022225378 0.077732161 1.0027142 2.3509886e-38
-0.054223876 0.082946397 1.003 2.3325137e-38
-0.050432004 0.081005231 1.0022 2.3509886e-38
-0.046509795 0.081611529 1.001 2.3509886e-38
-0.025448756 0.081611529 1.001 2.3509886e-38
-0.021624912 0.081054144 1.0028 2.3509886e-38
-0.057211258 0.086256981 1.0039999 2.0558553e-38
-0.05528523 0.085121706 1.001 2.2217348e-38
-0.05897161 0.090657845 1.0039999 2.0928777e-38
-0.058912873 0.094082981 1.003 2.0745468e-38
-0.060641222 0.098430812 1.0025001 2.148123e-38
-0.0070203468 0.10267257 1.001 2.0835861e-38
-0.0070203468 0.10442766 1.001 2.0744024e-38
-0.022070084 0.071507066 1.007 2.1851092e-38
-0.018538868 0.071507066 1.007 2.0191937e-38
-0.036194935 0.07415548 1.007 2.3509886e-38
-0.033546522 0.07415548 1.007 2.3509886e-38
-0.030898115 0.07415548 1.007 2.3509886e-38
-0.020304475 0.07415548 1.007 2.1668512e-38
-0.018538868 0.07415548 1.007 2.0931311e-38
-0.018538868 0.077686682 1.007 2.3049629e-38
-0.057382215 0.083866306 1.007 2.2863795e-38
-0.053851001 0.080335096 1.007 2.3509886e-38
-0.048554178 0.080335096 1.007 2.3509886e-38
-0.017950334 0.082689241 1.007 2.3509886e-38
-0.059147816 0.086514726 1.007 2.0465999e-38
-0.017656066 0.086514726 1.007 2.3509886e-38
-0.060913429 0.090928733 1.007 2.0281997e-38
-0.058265015 0.089163132 1.007 1.9085587e-38
-0.060913429 0.093577147 1.007 2.1205717e-38
-0.065327436 0.09975677 1.007 1.5574227e-38
-0.062237628 0.097549766 1.007 2.0559272e-38
-0.020364966 0.062865764 1.01 2.0377755e-38
-0.018594099 0.062865764 1.01 2.1576298e-38
-0.03276103 0.066407494 1.01 2.3509886e-38
-0.03010473 0.066407494 1.01 2.3509886e-38
-0.021250399 0.06552206 1.01 2.1851447e-38
-0.018594099 0.06552206 1.01 2.1483389e-38
-0.041615367 0.071720093 1.01 2.3509886e-38
-0.037630912 0.07127738 1.01 2.3509886e-38
-0.033469379 0.070303403 1.0100001 2.3509886e-38
-0.030104732 0.069949232 1.0100001 2.3509886e-38
-0.026563 0.068178363 1.01 2.3509886e-38
-0.022135835 0.069063798 1.0100001 2.304891e-38
-0.018594099 0.069063798 1.01 2.0928418e-38
-0.041615367 0.074376397 1.01 2.3509886e-38
-0.038959064 0.074376397 1.01 2.3509886e-38
-0.052240565 0.078803562 1.01 2.3509886e-38
-0.050469697 0.078803562 1.01 2.3509886e-38
-0.042205654 0.078213274 1.01 2.3509886e-38
-0.038427804 0.077741049 1.0100001 2.3509886e-38
-0.016823232 0.077918127 1.01 2.1575591e-38
-0.057553165 0.082345299 1.01 2.3509886e-38
-0.055782299 0.082345299 1.01 2.3509886e-38
-0.017413523 0.081755012 1.01 2.2865239e-38
-0.061094899 0.086772457 1.01 2.055963e-38
-0.05932403 0.084116161 1.01 2.2587206e-38
-0.061980329 0.090314195 1.01 1.8070003e-38
-0.062865764 0.093855925 1.01 1.7886674e-38
-0.064636625 0.097397663 1.01 1.9727666e-38
-0.037298661 0.059500244 1.013 2.3509886e-38
-0.021017497 0.058908202 1.013 2.3509886e-38
-0.01864933 0.058612179 1.013 2.3417333e-38
-0.013320949 0.059500244 1.013 2.3509886e-38
-0.037831496 0.062342048 1.013 2.3509886e-38
-0.034042425 0.062460452 1.013 2.3509886e-38
-0.030194152 0.063052498 1.013 2.3509886e-38
-0.021609541 0.061868411 1.013 2.2219147e-38
-0.017465247 0.061868411 1.013 2.2219511e-38
-0.014209013 0.062164433 1.013 2.2496098e-38
-0.042627037 0.065716684 1.013 2.3509886e-38
-0.038186725 0.065716684 1.013 2.3509886e-38
-0.034042429 0.065420665 1.013 2.3509886e-38
-0.030194152 0.064828619 1.013 2.3509886e-38
-0.025753837 0.065716684 1.013 2.3509886e-38
-0.023977708 0.065716684 1.013 2.3509886e-38
-0.016873203 0.065716684 1.013 2.1574862e-38
-0.014505035 0.065420665 1.013 2.1759253e-38
-0.042804651 0.06980177 1.013 2.3509886e-38
-0.03854195 0.06909132 1.013 2.3509886e-38
-0.034634467 0.06838087 1.013 2.3509886e-38
-0.016873203 0.070157006 1.013 2.0191584e-38
-0.014209013 0.070156999 1.013 2.009938e-38
-0.010656759 0.070156999 1.013 2.037524e-38
-0.0079925712 0.070157006 1.013 1.8899389e-38
-0.04529123 0.075485386 1.013 2.3509886e-38
-0.043515101 0.074597321 1.013 2.3509886e-38
-0.016873203 0.074597321 1.013 1.9641293e-38
-0.014209013 0.074597321 1.013 1.9087396e-38
-0.010656759 0.073709257 1.013 1.8992672e-38
-0.053579818 0.077853553 1.013 2.3509886e-38
-0.049731545 0.078149572 1.013 2.3509886e-38
-0.046179295 0.078149572 1.013 2.3509886e-38
-0.043515101 0.077261508 1.013 2.3509886e-38
-0.014209013 0.078149572 1.013 2.0191939e-38
-0.011544824 0.078149572 1.013 1.825511e-38
-0.058612179 0.081701823 1.013 2.2956713e-38
-0.055947989 0.080813758 1.013 2.3509886e-38
-0.014209013 0.081701823 1.013 2.0561433e-38
-0.011544824 0.081701823 1.013 1.8163988e-38
-0.062164433 0.086142138 1.013 2.1020615e-38
-0.014209013 0.086142138 1.013 2.2496458e-38
-0.011544824 0.085254073 1.013 1.8809712e-38
-0.063052498 0.089694396 1.013 1.9176691e-38
-0.065420665 0.094430737 1.013 1.5025755e-38
-0.068972915 0.097390942 1.013 3.6913845e-40
-0.066604748 0.097686961 1.013 9.3099187e-39
-0.033946287 0.050919432 1.0190001 2.3509886e-38
-0.031266317 0.050919432 1.0190001 2.3509886e-38
-0.052706078 0.054492723 1.0190001 2.3509886e-38
-0.050026108 0.054492723 1.0190001 2.3509886e-38
-0.03389632 0.053519186 1.0175 2.3509886e-38
-0.030670768 0.05389718 1.0190001 2.3509886e-38
-0.027693022 0.054492723 1.0190001 2.3509886e-38
-0.052706078 0.056279372 1.0190001 2.3508797e-38
-0.050026108 0.056279372 1.0190001 2.3509886e-38
-0.037519582 0.058066014 1.0190001 2.3509886e-38
-0.03386344 0.057923563 1.0165 2.3509886e-38
-0.030327847 0.057978787 1.0174999 2.3509886e-38
-0.026361618 0.058196887 1.0168571 2.3509886e-38
-0.016923174 0.05967645 1.016 2.3325494e-38
-0.015141787 0.05967645 1.016 2.3509886e-38
-0.040081199 0.061457843 1.016 2.3509886e-38
-0.032955654 0.061457843 1.016 2.3509886e-38
-0.030283574 0.061457843 1.016 2.3509886e-38
-0.025830109 0.062348537 1.016 2.3509886e-38
-0.056279372 0.066999249 1.0190001 2.3509886e-38
-0.053599402 0.066105925 1.0190001 2.32333e-38
-0.050026108 0.066105925 1.0190001 2.3509886e-38
-0.046452813 0.066105925 1.0190001 2.3509886e-38
-0.027611492 0.065911308 1.016 2.3509886e-38
-0.0133604 0.066802002 1.016 2.2219868e-38
-0.062532634 0.069679223 1.0190001 2.1113531e-38
-0.058066018 0.06967923 1.0190001 2.2772684e-38
-0.053599402 0.069679223 1.0190001 2.3417691e-38
-0.050026108 0.069679223 1.0190001 2.3509886e-38
-0.046419278 0.069627278 1.01825 2.3509886e-38
-0.0652126 0.074145839 1.0190001 2.0376338e-38
-0.062532634 0.074145846 1.0190001 2.2219517e-38
-0.058010202 0.074071914 1.018 2.3233659e-38
-0.053494196 0.073998563 1.0170001 2.3509886e-38
-0.04995203 0.074034944 1.0175002 2.3509886e-38
-0.04652207 0.073613882 1.0166 2.3509886e-38
-0.01068832 0.075708933 1.016 1.8255472e-38
-0.0652126 0.07771913 1.0190001 1.9914626e-38
-0.06223486 0.078314677 1.0190001 2.2403905e-38
-0.057953801 0.07845816 1.0170001 2.3509886e-38
-0.048988134 0.077490322 1.016 2.3509886e-38
-0.0097976271 0.078381017 1.016 1.7610098e-38
-0.061639313 0.082185745 1.0190001 2.185146e-38
-0.059852663 0.081292421 1.0190001 2.3509886e-38
-0.0097976271 0.081943788 1.016 1.7794484e-38
-0.066105925 0.086652361 1.0190001 2.0928055e-38
-0.063239224 0.085506558 1.016 2.1389043e-38
-0.0098265568 0.084865719 1.0190001 1.6505551e-38
-0.065850466 0.089761026 1.0178001 1.9911731e-38
-0.0092117218 0.090048574 1.0170001 1.890264e-38
-0.0062440587 0.09098354 1.0175 1.0150202e-38
-0.068583384 0.094413489 1.016 1.1149116e-38
-0.066900626 0.092767552 1.0175 1.5576017e-38
-0.0092231175 0.093111359 1.0180001 2.1852179e-38
-0.0062348535 0.093522795 1.016 1.6417363e-38
-0.02508669 0.046589568 1.022 2.3509886e-38
-0.022398831 0.046589568 1.022 2.3509886e-38
-0.050173379 0.050173379 1.022 2.3509886e-38
-0.046589572 0.050173383 1.022 2.3509886e-38
-0.036734082 0.051069334 1.022 2.3509886e-38
-0.033150271 0.049277429 1.022 2.3509886e-38
-0.03046241 0.050173379 1.022 2.3509886e-38
-0.024190737 0.049277429 1.022 2.3509886e-38
-0.022398831 0.049277429 1.022 2.3509886e-38
-0.054653149 0.054653149 1.022 2.3509886e-38
-0.050173379 0.05286124 1.022 2.3509886e-38
-0.046589572 0.053757194 1.022 2.3509165e-38
-0.042109802 0.053757191 1.022 2.3508449e-38
-0.037630036 0.053757194 1.022 2.3509527e-38
-0.029566457 0.05286124 1.022 2.3509886e-38
-0.025624264 0.053578001 1.022 2.3509886e-38
-0.021801529 0.054055847 1.0220001 2.3509886e-38
-0.061462391 0.0575202 1.022 2.0736839e-38
-0.057341009 0.057341006 1.022 2.313607e-38
-0.054055847 0.057639658 1.0220001 2.2675798e-38
-0.050173379 0.058236964 1.022 2.350988e-38
-0.046589572 0.057341006 1.022 2.3416612e-38
-0.042109802 0.057341009 1.022 2.3509886e-38
-0.037630036 0.056445051 1.022 2.3509886e-38
-0.024190737 0.057341009 1.022 2.3509886e-38
-0.021801529 0.057042357 1.0220001 2.3509886e-38
-0.018815018 0.056445051 1.022 2.3509886e-38
-0.061820779 0.061820779 1.022 2.0000359e-38
-0.057341009 0.061820772 1.022 2.3507013e-38
-0.053757198 0.061820775 1.022 2.3509525e-38
-0.050173383 0.061820775 1.022 2.3509886e-38
-0.046589568 0.061820775 1.022 2.3509886e-38
-0.042621776 0.061564788 1.022 2.3509886e-38
-0.066001892 0.06659919 1.0220001 1.7789798e-38
-0.061820775 0.066300541 1.022 2.0097235e-38
-0.057639658 0.066001892 1.0220001 2.3509886e-38
-0.066300541 0.06988436 1.022 1.7884887e-38
-0.067196488 0.073468164 1.022 1.8440233e-38
-0.066748515 0.078395911 1.022 1.9822795e-38
-0.063612677 0.079739839 1.022 2.0560001e-38
-0.066300541 0.083323658 1.022 2.0652187e-38
-0.063612677 0.082427703 1.022 2.0007546e-38
-0.0080635799 0.082427703 1.022 1.6780332e-38
-0.0053757196 0.082427703 1.022 1.4287461e-38
-0.0026878598 0.082427703 1.022 1.0136804e-38
-0.068988405 0.086907469 1.022 2.1480863e-38
-0.066300541 0.085115559 1.022 2.1020604e-38
-0.0086608818 0.086310171 1.0220001 1.530881e-38
-0.0053757196 0.086907469 1.022 1.13361e-38
-0.068988405 0.088699371 1.022 2.0738564e-38
-0.0092581837 0.089296669 1.0220001 1.7797364e-38
-0.0050770687 0.089296669 1.0220001 4.153869e-39
-0.0026878598 0.089595318 1.022 5.6192391e-39
-0.070183009 0.094075099 1.0220001 1.0226818e-38
-0.014036601 0.092880487 1.0220001 2.2587935e-38
-0.011647392 0.093179137 1.022 2.2587936e-38
-0.022464583 0.038639084 1.025 2.3509886e-38
-0.025609624 0.041784123 1.025 2.3509886e-38
-0.022464583 0.042233415 1.025 2.3509886e-38
-0.061282501 0.047764305 1.028 2.3509886e-38
-0.057677649 0.047764305 1.028 2.3509886e-38
-0.053772397 0.047163498 1.0280001 2.3509886e-38
-0.050670162 0.04707057 1.026 2.3509886e-38
-0.045511272 0.047313698 1.028 2.3509886e-38
-0.041275572 0.046322364 1.028 2.3509886e-38
-0.037850957 0.045961879 1.028 2.3509886e-38
-0.034221776 0.046828248 1.0272499 2.3509886e-38
-0.030581642 0.045870703 1.026 2.3509886e-38
-0.02677778 0.045108881 1.025 2.3509886e-38
-0.021566 0.045827746 1.025 2.3509886e-38
-0.018870249 0.047624912 1.025 2.3509886e-38
-0.072998278 0.051369157 1.028 2.0467057e-38
-0.070294634 0.051369157 1.028 2.0377046e-38
-0.065788567 0.051369157 1.028 2.2865961e-38
-0.062092982 0.050392997 1.0265 2.3509525e-38
-0.057509329 0.050320663 1.025 2.341769e-38
-0.053914994 0.050320663 1.025 2.3509886e-38
-0.044030581 0.050320663 1.025 2.3509886e-38
-0.041364416 0.050356828 1.02575 2.3509886e-38
-0.038040027 0.050021138 1.025 2.3509168e-38
-0.035044748 0.049422082 1.025 2.3509886e-38
-0.029653249 0.049422082 1.025 2.3509886e-38
-0.026418347 0.050500382 1.025 2.3509886e-38
-0.021266472 0.050620195 1.025 2.3509886e-38
-0.073899493 0.054072801 1.028 1.8991203e-38
-0.070294634 0.054072797 1.028 2.0743305e-38
-0.066689782 0.054072797 1.028 2.0835503e-38
-0.062002249 0.053915001 1.0250001 2.0923379e-38
-0.057509329 0.053914994 1.025 2.3509524e-38
-0.053914994 0.053016413 1.025 2.3509886e-38
-0.020667415 0.053016413 1.025 2.3509886e-38
-0.018870249 0.054813579 1.025 2.3509886e-38
-0.073738404 0.057552066 1.0257499 1.8345847e-38
-0.070140123 0.057550754 1.02575 1.9635169e-38
-0.066495165 0.057509329 1.025 1.9542252e-38
-0.063799419 0.056610744 1.025 2.0184754e-38
-0.017098069 0.057592176 1.0265 2.3509886e-38
-0.073792979 0.062092982 1.0265 1.6960002e-38
-0.070089504 0.062002249 1.0250001 1.9354617e-38
-0.066495165 0.062002249 1.0250001 1.9446807e-38
-0.073683828 0.066495165 1.025 1.6865269e-38
-0.070089497 0.066495165 1.025 1.8802166e-38
-0.06739375 0.065596581 1.025 1.889542e-38
-0.01081456 0.067590997 1.028 2.2035483e-38
-0.073683828 0.070089497 1.025 1.6868881e-38
-0.070089497 0.070089497 1.025 1.8161111e-38
-0.073683828 0.073683828 1.025 1.7885236e-38
-0.070089497 0.073683836 1.025 1.7885616e-38
-0.00811092 0.0748007 1.028 1.7885958e-38
-0.0054072798 0.073899493 1.028 1.4381093e-38
-0.073683828 0.078176752 1.0250001 1.5674333e-38
-0.070089504 0.078176752 1.0250001 1.8809374e-38
-0.0080951396 0.078251265 1.026 1.7609738e-38
-0.0053967601 0.078251265 1.026 1.4566563e-38
-0.076379582 0.08266966 1.025 1.0786519e-38
