# .PCD v0.7 - Point Cloud Data file format
VERSION 0.7
FIELDS x y z rgb
SIZE 4 4 4 4
TYPE F F F F
COUNT 1 1 1 1
WIDTH 1008
HEIGHT 1
VIEWPOINT 0 0 0 1 0 0 0
POINTS 1008
DATA ascii
-0.1540128 0.2229977 0.91500002 2.1276594e-38
-0.15000205 0.2229977 0.91500008 1.9986911e-38
-0.1459913 0.2229977 0.91500002 1.9528481e-38
-0.14198054 0.22219555 0.91500008 1.9064237e-38
-0.13796979 0.22219554 0.91500008 1.9248627e-38
-0.13556336 0.22379984 0.91500002 2.0817754e-38
-0.12593754 0.22379985 0.91500008 2.0262788e-38
-0.1219268 0.22379984 0.91500002 1.9527028e-38
-0.11791605 0.22379985 0.91500008 1.9157887e-38
-0.1139053 0.2229977 0.91500002 1.9801066e-38
-0.10989456 0.22379985 0.91500008 1.9801809e-38
-0.10588379 0.22379984 0.91500002 1.9616699e-38
-0.097862303 0.22379984 0.91500002 2.0631883e-38
-0.093851551 0.2229977 0.91500008 2.1000348e-38
-0.089792147 0.2228754 0.9145 1.8694354e-38
-0.085798196 0.22291616 0.91466665 1.8786913e-38
-0.081551909 0.22326508 0.91500008 1.9892532e-38
-0.077808551 0.2229977 0.91500008 2.0356053e-38
-0.0737978 0.2229977 0.91500002 1.4274024e-38
-0.069787055 0.2229977 0.91500008 7.915097e-39
-0.06604369 0.22326508 0.91500008 4.045068e-39
-0.21256974 0.2262063 0.91500002 5.7020726e-39
-0.20993447 0.22595908 0.91400003 1.5367083e-38
-0.20570192 0.22571185 0.91300005 2.0172031e-38
-0.20169994 0.22571185 0.91299999 1.8789826e-38
-0.19784115 0.22587666 0.91366673 1.805153e-38
-0.19412029 0.2262063 0.91500002 1.8789826e-38
-0.18997163 0.2260409 0.91433334 1.9250067e-38
-0.18579416 0.22583503 0.91350007 1.9895458e-38
-0.18169004 0.22571187 0.91300005 1.9619944e-38
-0.17768805 0.22571185 0.91299999 1.961671e-38
-0.17387632 0.2259582 0.91400003 2.0079096e-38
-0.16986994 0.2259582 0.91399997 1.9251511e-38
-0.16580367 0.22587608 0.91366667 1.9342629e-38
-0.16168012 0.22571185 0.91299999 1.9248258e-38
-0.15779212 0.22587667 0.91366667 1.915752e-38
-0.1540128 0.2262063 0.91500002 2.0170593e-38
-0.15000205 0.2262063 0.91500008 1.915893e-38
-0.14583173 0.2259582 0.91400003 1.9251162e-38
-0.14172134 0.22579396 0.91333336 2.0171666e-38
-0.13781901 0.2259582 0.91400003 1.9160041e-38
-0.13395905 0.2262063 0.91500008 1.9712123e-38
-0.12994829 0.2262063 0.91500002 1.9985462e-38
-0.12593755 0.2262063 0.91500008 2.0263499e-38
-0.12179355 0.2259582 0.91400003 2.0540096e-38
-0.11778718 0.2259582 0.91400003 1.9526308e-38
-0.11378081 0.2259582 0.91400003 1.9803206e-38
-0.10989454 0.2262063 0.91500008 2.0078767e-38
-0.10588379 0.2262063 0.91500002 1.878729e-38
-0.10187306 0.2262063 0.91500008 1.9340817e-38
-0.097862303 0.2262063 0.91500002 1.9526294e-38
-0.093748979 0.2259582 0.91400003 2.0078022e-38
-0.089693956 0.22583503 0.91349995 1.8971313e-38
-0.085673124 0.22579396 0.91333336 2.0076933e-38
-0.081729874 0.2259582 0.91400003 2.0630108e-38
-0.07766623 0.22579396 0.91333336 1.9250053e-38
-0.073636487 0.22571185 0.91299999 8.0958814e-39
-0.069659345 0.22579396 0.91333336 6.5361423e-39
-0.065739922 0.22608225 0.9145 2.390241e-39
-0.21321146 0.23053789 0.91500008 6.7187455e-39
-0.20970392 0.22971384 0.91300005 9.1064446e-39
-0.20590204 0.22951372 0.91300005 1.8692583e-38
-0.1973778 0.22875336 0.91300005 1.823411e-38
-0.19369598 0.22891343 0.91299999 1.9433057e-38
-0.18992271 0.22925647 0.91300011 1.9619218e-38
-0.18569203 0.22891343 0.91299999 1.9618145e-38
-0.18146136 0.22925647 0.91300011 1.9433738e-38
-0.17768805 0.22971383 0.91300005 1.9987627e-38
-0.17368607 0.22891343 0.91300005 1.9435168e-38
-0.16968408 0.22811303 0.91299999 1.9250422e-38
-0.15607734 0.22891343 0.91299999 1.9987992e-38
-0.15351608 0.22939368 0.91300005 1.9895439e-38
-0.14990287 0.22925647 0.91300011 1.9342617e-38
-0.14567217 0.22891344 0.91299999 2.0080898e-38
-0.14144152 0.22925648 0.91300011 2.0079843e-38
-0.13766822 0.22971383 0.91300005 1.9434114e-38
-0.13382852 0.22999223 0.91411114 1.9342638e-38
-0.12975895 0.22988039 0.91366667 1.9344788e-38
-0.12572382 0.22982486 0.91344452 1.8695125e-38
-0.12166028 0.22971384 0.91300005 2.0353901e-38
-0.117887 0.22925648 0.91300011 2.0261709e-38
-0.11365633 0.22891343 0.91299999 2.0540087e-38
-0.1099745 0.22875336 0.91300005 1.9802896e-38
-0.10538556 0.22864664 0.91299999 1.8697607e-38
-0.10165037 0.22891346 0.91300005 1.9159662e-38
-0.097648382 0.22811303 0.91299999 1.888235e-38
-0.093646407 0.22891346 0.91300005 1.9434454e-38
-0.089644425 0.22891344 0.91299999 1.9155719e-38
-0.085642442 0.22891346 0.91300005 1.998511e-38
-0.081640452 0.22971383 0.91300005 2.1552064e-38
-0.077409789 0.22925648 0.91300011 1.3717626e-38
-0.073636487 0.22971384 0.91300005 9.3884152e-39
-0.069634497 0.22971384 0.91299999 4.047589e-39
-0.065849416 0.22959426 0.91379994 2.0257983e-39
-0.20970392 0.2337158 0.91299999 6.9023955e-39
-0.20650232 0.2329154 0.91299999 1.4721352e-38
-0.13046466 0.2329154 0.91299999 1.7868586e-38
-0.072836094 0.2337158 0.91299999 4.9673676e-39
-0.070434898 0.2329154 0.91299999 5.5102138e-40
-0.076838076 0.23851821 0.91299999 4.8766181e-39
-0.1742112 0.21534438 0.92000002 1.9525949e-38
-0.17017853 0.21453786 0.92000002 1.9525228e-38
-0.16614586 0.21453786 0.92000002 2.0171299e-38
-0.16211319 0.21453786 0.92000002 2.0172388e-38
-0.15888706 0.21453786 0.92000002 1.9711043e-38
-0.14114332 0.21534438 0.92000002 2.0632274e-38
-0.13791721 0.2153444 0.92000002 2.0262428e-38
-0.20889212 0.21857053 0.92000002 1.9249334e-38
-0.20566599 0.21776401 0.92000002 1.8789458e-38
-0.20163332 0.21776399 0.92000002 1.8510731e-38
-0.18550266 0.21857053 0.92000002 2.0449357e-38
-0.18200767 0.21803284 0.92000002 1.814409e-38
-0.17824386 0.21776399 0.92000002 1.9433742e-38
-0.1742112 0.21776399 0.92000002 1.934263e-38
-0.16989575 0.21804127 0.91971433 1.8606141e-38
-0.16602546 0.21841097 0.9193334 1.9341536e-38
-0.16214176 0.21783765 0.91885722 1.9802882e-38
-0.15790871 0.21833207 0.91900003 2.0447882e-38
-0.15388042 0.21913771 0.91900003 1.9340471e-38
-0.14985214 0.21913773 0.91900003 1.9708866e-38
-0.14562266 0.21853325 0.91900003 2.1461665e-38
-0.14174414 0.21825258 0.91866672 2.0446814e-38
-0.13775024 0.21830539 0.91888893 1.989401e-38
-0.13421459 0.21845086 0.91950005 2.0076245e-38
-0.11291467 0.21857053 0.92000002 1.9617771e-38
-0.10968854 0.21857053 0.92000002 1.9802878e-38
-0.10565587 0.21857053 0.92000002 1.9711396e-38
-0.10162319 0.21857053 0.92000002 1.9526217e-38
-0.093354478 0.21970493 0.91799998 2.0354253e-38
-0.082266398 0.21857053 0.92000002 2.0908874e-38
-0.07772477 0.21843377 0.91942859 1.9709259e-38
-0.074147306 0.21841097 0.9193334 2.0357148e-38
-0.070782416 0.21847479 0.91960001 9.2926421e-39
-0.066942267 0.21857053 0.92000002 8.4722365e-39
-0.21695746 0.2226032 0.92000002 6.9038696e-39
-0.21392274 0.22171572 0.91966671 1.187014e-38
-0.20996036 0.22163534 0.91850007 1.8510694e-38
-0.20576769 0.22119755 0.91942859 1.7866424e-38
-0.20148723 0.22163478 0.9193334 1.8233061e-38
-0.19833502 0.22171572 0.91966671 1.8786948e-38
-0.19460498 0.22225754 0.92000008 1.8051541e-38
-0.1902732 0.22171573 0.91966671 1.8328485e-38
-0.18635894 0.22141334 0.91925001 2.0263863e-38
-0.18207839 0.22074905 0.91900003 1.888309e-38
-0.17780048 0.22129279 0.91875005 1.9433742e-38
-0.17395872 0.22147405 0.91866672 2.0262418e-38
-0.17010272 0.22163534 0.91850007 1.9708906e-38
-0.16658945 0.22131449 0.91799998 1.9157567e-38
-0.15693209 0.22131449 0.91799998 2.0076965e-38
-0.15371297 0.22131449 0.91799998 1.9708548e-38
-0.14968908 0.22131449 0.91799998 2.0538628e-38
-0.14646995 0.22131449 0.91799998 2.0724855e-38
-0.13600782 0.22211927 0.91799998 2.0630845e-38
-0.13349037 0.22173214 0.91839999 1.9433042e-38
-0.12998249 0.22147359 0.91949999 1.9711043e-38
-0.12621924 0.22209153 0.91900003 2.0817051e-38
-0.12200254 0.2222476 0.91920006 1.9434468e-38
-0.11795274 0.22175008 0.91885722 2.0630844e-38
-0.11394423 0.22063597 0.91920006 2.0262056e-38
-0.11011327 0.22163534 0.91850007 2.0263149e-38
-0.10577048 0.22141334 0.91925001 2.0449682e-38
-0.10187343 0.22181897 0.9191429 1.9711375e-38
-0.098254465 0.22147405 0.91866672 2.0815944e-38
-0.094613805 0.22103177 0.91850001 2.0353544e-38
-0.090233549 0.22074904 0.91899997 2.0079096e-38
-0.086205259 0.22074905 0.91900003 1.9802524e-38
-0.082320049 0.22118406 0.9188 2.0354623e-38
-0.078509435 0.22103177 0.91850001 2.0170597e-38
-0.074039757 0.22131449 0.91799998 1.971354e-38
-0.069754265 0.22086215 0.9188 8.4632332e-39
-0.065888517 0.22118405 0.9188 4.0486638e-39
-0.062874973 0.22248179 0.91950005 1.3825715e-39
-0.21712489 0.22638865 0.91900003 7.3659198e-39
-0.21487626 0.22614318 0.91799998 7.8211274e-39
-0.19717108 0.22453362 0.91799998 1.8696924e-38
-0.19395196 0.22453362 0.91799998 1.8421398e-38
-0.18992807 0.22453362 0.91799998 1.8328142e-38
-0.17302769 0.22453362 0.91799998 2.0908531e-38
-0.17061335 0.22453362 0.91799998 2.0078417e-38
-0.13359347 0.22453362 0.91799998 2.0171682e-38
-0.13037436 0.22453362 0.91799998 1.8788764e-38
-0.10220706 0.22453362 0.91799998 1.9524512e-38
-0.062987797 0.22601764 0.9188 3.4090859e-39
-0.21487625 0.22936229 0.91799998 7.4559392e-39
-0.062840343 0.22880562 0.91900003 4.0569454e-39
-0.16426013 0.20795497 0.92299998 1.9894704e-38
-0.16264182 0.20795497 0.92299998 2.0263486e-38
-0.17235178 0.21119162 0.92299998 1.8513587e-38
-0.16992429 0.21119162 0.92299998 1.9247892e-38
-0.16555481 0.21054427 0.92299998 2.0170576e-38
-0.16183266 0.21038245 0.92299998 2.0079447e-38
-0.15940516 0.21119162 0.92299998 1.9157492e-38
-0.20957328 0.21442828 0.92299998 1.7775669e-38
-0.20633665 0.21361911 0.92299998 1.9157164e-38
-0.20256054 0.21388885 0.92300004 2.0447184e-38
-0.19419919 0.21442828 0.92299998 1.7959673e-38
-0.1893442 0.21442828 0.92299998 1.8603612e-38
-0.18610755 0.21442828 0.92299998 1.9432281e-38
-0.18206173 0.21442828 0.92300004 1.8238093e-38
-0.17774621 0.21388882 0.92300004 1.9527038e-38
-0.17429377 0.21345727 0.92299998 1.9894729e-38
-0.16992429 0.21280994 0.92299998 1.9430518e-38
-0.16587847 0.21280995 0.92300004 2.0816681e-38
-0.16183266 0.21280994 0.92299998 2.0724477e-38
-0.15940516 0.21280994 0.92299998 1.9341184e-38
-0.14484023 0.21442828 0.92299998 2.0540792e-38
-0.14241274 0.21361911 0.92299998 2.1554959e-38
-0.13836694 0.2136191 0.92299998 2.0080198e-38
-0.13432109 0.21442828 0.92299998 2.1459884e-38
-0.12056533 0.21442828 0.92299998 2.0079833e-38
-0.11813784 0.21442828 0.92299998 2.0356055e-38
-0.11409202 0.21442828 0.92299998 2.0357142e-38
-0.11004621 0.21442828 0.92299998 1.9525209e-38
-0.10600039 0.21442828 0.92300004 2.0446807e-38
-0.10195458 0.21442828 0.92299998 1.998872e-38
-0.097908758 0.21442828 0.92300004 2.0724487e-38
-0.093862943 0.21361911 0.92299998 2.0263151e-38
-0.090626284 0.21442828 0.92299998 1.906532e-38
-0.082049154 0.21378092 0.92299998 1.9431933e-38
-0.077679679 0.21442828 0.92299998 2.1643189e-38
-0.073633865 0.21442828 0.92300004 2.1461683e-38
-0.069588043 0.21442828 0.92299998 1.4091815e-38
-0.2160466 0.21847409 0.92299998 9.8350119e-39
-0.21361911 0.21766493 0.92299998 2.0352124e-38
-0.2105443 0.21734126 0.92299998 1.8697988e-38
-0.20633665 0.21604662 0.92300004 1.9433396e-38
-0.20229082 0.2160466 0.92299998 1.9431621e-38
-0.198245 0.21766491 0.92299992 1.906532e-38
-0.19419919 0.21766493 0.92299998 1.8697261e-38
-0.19015336 0.21766491 0.92299992 1.9066035e-38
-0.18610755 0.21685576 0.92299998 1.8974196e-38
-0.18246631 0.21645117 0.92299998 1.8789476e-38
-0.17801592 0.2160466 0.92299998 1.9433772e-38
-0.15697768 0.21766491 0.92299998 2.0080187e-38
-0.15374103 0.21766491 0.92299998 2.0539748e-38
-0.14969522 0.21685575 0.92299998 2.1001079e-38
-0.1456494 0.2160466 0.92299998 2.0355672e-38
-0.1432219 0.2160466 0.92299998 2.1277619e-38
-0.13405138 0.21658604 0.92300004 2.2104533e-38
-0.13027529 0.21786721 0.92299992 2.0724847e-38
-0.12622947 0.21766493 0.92299998 1.943482e-38
-0.12218366 0.21766491 0.92299992 1.9987638e-38
-0.11813784 0.21766493 0.92299998 2.0447892e-38
-0.11432321 0.21720257 0.92299998 2.0263497e-38
-0.11004621 0.21685576 0.92299998 1.9617046e-38
-0.10600039 0.21685576 0.92299998 2.0354613e-38
-0.10195458 0.21685575 0.92299998 2.0170563e-38
-0.09790875 0.21766491 0.92299992 1.943482e-38
-0.093862943 0.21766493 0.92299998 2.0170933e-38
-0.089817114 0.21766491 0.92299992 2.0263489e-38
-0.085771307 0.21766493 0.92299998 1.934227e-38
-0.081725493 0.21685575 0.92299998 1.9524482e-38
-0.077679679 0.2160466 0.92299998 2.0260602e-38
-0.073633865 0.21604662 0.92300004 2.026277e-38
-0.069588043 0.21685576 0.92299998 1.2153858e-38
-0.066189557 0.21734126 0.92299998 7.3622764e-39
-0.063384458 0.2187438 0.92300004 3.7713538e-39
-0.21766493 0.22144102 0.92300004 7.3594346e-39
-0.19419919 0.22090156 0.92299998 1.6577483e-38
-0.12542032 0.22090156 0.92299998 2.0169498e-38
-0.12218365 0.22090158 0.92300004 2.1369872e-38
-0.061900996 0.22130615 0.92299998 3.7728182e-39
-0.21928325 0.22494739 0.92299998 7.9180216e-39
-0.060687248 0.22494739 0.92299998 6.6334204e-39
-0.18467508 0.20664084 0.92799997 1.9524846e-38
-0.18223444 0.20664084 0.92799997 1.9709239e-38
-0.17784129 0.20680356 0.92799997 2.0632288e-38
-0.17409897 0.20745438 0.92799997 2.0171296e-38
-0.17003125 0.20745438 0.92799997 2.0078389e-38
-0.16569525 0.20630552 0.92649996 2.0263504e-38
-0.16172044 0.20641729 0.92699999 1.9894007e-38
-0.14196387 0.20704761 0.92799997 1.9063179e-38
-0.13830292 0.20664084 0.92799997 2.0817333e-38
-0.13456063 0.20680356 0.92799997 2.1006854e-38
-0.12609974 0.20745438 0.92799997 2.0814519e-38
-0.097625591 0.20745438 0.92799997 2.2105947e-38
-0.094371408 0.20745438 0.92799997 2.0538996e-38
-0.090303682 0.20745438 0.92799997 2.0262407e-38
-0.08623594 0.20745438 0.92799997 2.0263133e-38
-0.082493626 0.20680356 0.92799997 1.9435169e-38
-0.077286929 0.20745438 0.92799997 1.9619581e-38
-0.074032746 0.20745438 0.92799997 2.0726286e-38
-0.069965005 0.20745438 0.92799997 2.0725203e-38
-0.065897278 0.20664084 0.92799997 1.0955364e-38
-0.061829545 0.20745438 0.92799997 6.1641046e-39
-0.21721694 0.21070857 0.92799997 1.2055987e-38
-0.21355598 0.2103018 0.92799997 2.0171675e-38
-0.20966886 0.21047974 0.92699999 1.8604712e-38
-0.20563646 0.21051244 0.92714292 1.7959003e-38
-0.2020013 0.21053696 0.92724997 1.7773876e-38
-0.19769184 0.20989501 0.92799997 1.8418523e-38
-0.19370338 0.21064684 0.9267143 2.035388e-38
-0.19016477 0.21047978 0.92699999 2.0356071e-38
-0.18644784 0.21014565 0.92757148 2.0079092e-38
-0.18203807 0.21047978 0.92700005 1.8696875e-38
-0.17846629 0.21028002 0.92714292 2.0539721e-38
-0.17450789 0.21022055 0.92585725 1.9618134e-38
-0.17056865 0.20955443 0.92649996 1.9709594e-38
-0.16731915 0.2089462 0.92500007 2.0079475e-38
-0.16137241 0.20840558 0.92500001 2.0631925e-38
-0.15818112 0.21016395 0.92650002 1.9433371e-38
-0.15457386 0.21070857 0.92799997 1.9707817e-38
-0.14969257 0.21070857 0.92799997 1.8788017e-38
-0.1461228 0.21025273 0.92600006 2.0263866e-38
-0.14196213 0.21010253 0.92533332 1.9801819e-38
-0.13785583 0.21002743 0.92500007 1.9063888e-38
-0.13389651 0.21017817 0.92566669 1.9525918e-38
-0.12983748 0.21010962 0.92679995 2.0171661e-38
-0.12582795 0.21025272 0.92600006 2.0446822e-38
-0.121769 0.21025269 0.92600006 2.0078031e-38
-0.11820974 0.21008541 0.9262858 2.0354236e-38
-0.11488505 0.21043506 0.92679995 2.0355702e-38
-0.11001114 0.21108484 0.92679995 2.1278721e-38
-0.10585998 0.2109077 0.92650002 2.0632276e-38
-0.10196885 0.21008536 0.9262858 2.0172005e-38
-0.09791819 0.21023014 0.92500007 2.0999598e-38
-0.094066337 0.21002743 0.92500007 2.0261339e-38
-0.090043597 0.21010253 0.92533332 2.0723018e-38
-0.086050093 0.21025273 0.92600006 2.0448989e-38
-0.081931509 0.21010253 0.92533344 1.8697963e-38
-0.077932157 0.21025273 0.92600006 2.0632284e-38
-0.073873185 0.21025272 0.92599994 2.1369486e-38
-0.069814228 0.21025273 0.92600006 1.7774955e-38
-0.065755263 0.21025272 0.92600006 1.0492589e-38
-0.061829545 0.20989503 0.92799997 4.4149197e-39
-0.21744817 0.21419528 0.92724997 9.3823196e-39
-0.21403091 0.21333359 0.9262858 2.0631247e-38
-0.21110862 0.2138117 0.92500007 1.8052993e-38
-0.20120601 0.2132213 0.92620003 1.8695805e-38
-0.19807759 0.2134999 0.92600006 1.8881283e-38
-0.19340363 0.21367654 0.92500001 1.8972003e-38
-0.18975449 0.21327108 0.92500001 1.9156072e-38
-0.18561541 0.21289693 0.92620003 1.9986203e-38
-0.18164533 0.21327108 0.92500001 1.8145174e-38
-0.17921259 0.21327108 0.92500001 1.9897282e-38
-0.15731782 0.214082 0.92500001 1.9436273e-38
-0.15383877 0.21358514 0.92725003 1.9893625e-38
-0.14976397 0.2137977 0.9262858 2.0631547e-38
-0.14623532 0.2138117 0.92500007 2.0448239e-38
-0.13339581 0.21367654 0.92500001 2.0079483e-38
-0.12999354 0.21373272 0.92559999 1.9711414e-38
-0.12569207 0.21408199 0.92500007 2.0907782e-38
-0.1219078 0.2138117 0.92500007 2.0725539e-38
-0.11839383 0.21327108 0.92500001 2.0908155e-38
-0.11419167 0.21322958 0.92600006 2.0448616e-38
-0.11028466 0.21327108 0.92500001 2.0263135e-38
-0.10623008 0.21327108 0.92500007 2.0540089e-38
-0.10217549 0.21327108 0.92500001 2.0357129e-38
-0.09812092 0.21327108 0.92500007 2.1001064e-38
-0.089606285 0.21367654 0.92500001 1.8603631e-38
-0.085957162 0.214082 0.92500001 1.9986522e-38
-0.080280751 0.21327108 0.92500001 1.9890756e-38
-0.077847995 0.21327108 0.92500001 2.2380764e-38
-0.073793426 0.21327108 0.92500007 2.1276205e-38
-0.069738835 0.21327108 0.92500001 1.5563718e-38
-0.065684251 0.214082 0.92500007 8.8320087e-39
-0.061795793 0.21384661 0.92750001 2.1136541e-39
-0.22047113 0.21884404 0.92799997 7.6421185e-39
-0.21773112 0.21773112 0.92500001 5.9772148e-39
-0.15731782 0.21651475 0.92500001 2.0173105e-38
-0.15407416 0.21651475 0.92500001 2.1094013e-38
-0.13055758 0.21651475 0.92500001 2.0632654e-38
-0.064062417 0.21651475 0.92500001 6.9956547e-39
-0.061546382 0.21809414 0.92620003 2.2073071e-39
-0.21975841 0.22138025 0.92500001 7.5485188e-39
-0.059388902 0.22291178 0.92799997 9.4929129e-39
-0.060818747 0.22786759 0.92500001 7.0039938e-39
-0.059292909 0.22742355 0.92649996 1.0414875e-38
-0.060818747 0.2294894 0.92500001 7.0022184e-39
-0.059196915 0.2294894 0.92500001 9.9524771e-39
-0.18018129 0.1997485 0.93000001 2.0448542e-38
-0.17855069 0.1997485 0.93000001 2.0817033e-38
-0.18833429 0.20300969 0.93000001 2.0449007e-38
-0.18588839 0.20300969 0.93000001 1.8605803e-38
-0.18148577 0.20235746 0.93000001 1.8513206e-38
-0.17773539 0.20219439 0.93000001 1.9525946e-38
-0.1752895 0.20300969 0.93000001 1.998585e-38
-0.16632119 0.20300969 0.93000001 2.11869e-38
-0.16224471 0.20300969 0.93000001 1.8975288e-38
-0.1410469 0.20300969 0.93000001 2.3509869e-38
-0.13860099 0.20300969 0.93000001 2.3509886e-38
-0.077453494 0.20300969 0.93000001 1.9339732e-38
-0.0741923 0.20300969 0.93000001 2.0630853e-38
-0.070115805 0.20300969 0.93000001 2.2011956e-38
-0.066039301 0.20300969 0.93000001 1.2523767e-38
-0.21686979 0.20790149 0.93000001 1.6021831e-38
-0.21320094 0.20667854 0.93000001 1.8788751e-38
-0.21051045 0.20659702 0.93000001 1.925043e-38
-0.2062709 0.20708621 0.93000001 1.9711771e-38
-0.20203133 0.20659702 0.93000001 1.9894362e-38
-0.1981179 0.20627089 0.93000001 1.9617066e-38
-0.19420446 0.20659702 0.93000001 1.9343716e-38
-0.18996491 0.20627089 0.93000001 1.915716e-38
-0.18629605 0.20586327 0.93000001 1.9248994e-38
-0.18140423 0.20504794 0.93000001 1.9250071e-38
-0.17773539 0.2046403 0.93000001 2.0355354e-38
-0.17365889 0.2054556 0.93000001 1.9802173e-38
-0.1695824 0.2054556 0.93000001 2.0079108e-38
-0.16632119 0.2046403 0.93000001 2.1278728e-38
-0.16224471 0.20464031 0.93000001 1.961957e-38
-0.1581682 0.20708621 0.93000001 1.9710322e-38
-0.15517876 0.20735797 0.93000001 1.9802149e-38
-0.14593869 0.20735797 0.93000001 2.0078052e-38
-0.14213398 0.20518383 0.93000001 1.9245706e-38
-0.13860099 0.2046403 0.93000001 2.2857162e-38
-0.13289389 0.2062709 0.93000001 1.9903376e-38
-0.12995882 0.20692313 0.93000001 1.9065687e-38
-0.1255562 0.2062709 0.93000001 2.1091808e-38
-0.122295 0.20708621 0.93000001 2.0723733e-38
-0.1182185 0.20790151 0.93000001 2.0169881e-38
-0.1084349 0.20790149 0.93000001 1.9802919e-38
-0.10571723 0.20735797 0.93000001 1.9618857e-38
-0.1019125 0.20708619 0.93000001 2.0723385e-38
-0.097835995 0.2062709 0.93000001 2.0998528e-38
-0.093759499 0.2062709 0.93000001 2.0815221e-38
-0.089682996 0.2062709 0.93000001 1.9710663e-38
-0.086421803 0.2062709 0.93000001 2.0445694e-38
-0.081937648 0.20504794 0.93000001 2.0634092e-38
-0.078268796 0.2062709 0.93000001 1.9711397e-38
-0.0741923 0.20545563 0.93000001 2.0357157e-38
-0.070115805 0.2054556 0.93000001 2.053971e-38
-0.066039294 0.20464031 0.93000001 1.1786153e-38
-0.061962798 0.2054556 0.93000001 7.4533888e-39
-0.22094628 0.21034738 0.93000001 6.6247114e-39
-0.21809274 0.20993973 0.93000001 1.0954673e-38
-0.21442389 0.20953208 0.93000001 1.8973143e-38
-0.20790149 0.20953208 0.93000001 1.8973508e-38
-0.20300969 0.20953208 0.93000001 1.8605445e-38
-0.15368405 0.20993973 0.93000001 2.0262769e-38
-0.15001521 0.20953208 0.93000001 1.8327748e-38
-0.1133267 0.20953208 0.93000001 1.9620282e-38
-0.1100655 0.20953208 0.93000001 1.9990162e-38
-0.1068043 0.20953208 0.93000001 1.980034e-38
-0.059516896 0.21034738 0.93000001 7.7350204e-39
-0.22094628 0.21360859 0.93000001 7.5466733e-39
-0.21931569 0.21360859 0.93000001 4.6886326e-39
-0.059516896 0.21360859 0.93000001 8.1985517e-39
-0.22094628 0.21686979 0.93000001 7.4544776e-39
-0.059516896 0.22094628 0.93000001 8.2943795e-39
-0.21311766 0.1959043 0.935 2.0355327e-38
-0.21065861 0.1959043 0.935 1.8787986e-38
-0.14508393 0.1959043 0.935 2.3509884e-38
-0.14180522 0.1959043 0.93500006 2.3509886e-38
-0.13770679 0.1959043 0.935 2.3509886e-38
-0.13442805 0.1959043 0.935 2.3509886e-38
-0.1299198 0.19549446 0.935 2.1288835e-38
-0.12650445 0.19535786 0.93500006 2.0081609e-38
-0.12213282 0.1959043 0.93500006 2.0448266e-38
-0.11885408 0.1959043 0.935 2.0263839e-38
-0.10464624 0.19535784 0.93500006 2.0723398e-38
-0.10164073 0.19508463 0.935 2.0630479e-38
-0.098361999 0.19508463 0.935 2.0723398e-38
-0.094263583 0.19508463 0.93500006 1.9434087e-38
-0.090165168 0.19426495 0.93500006 2.035497e-38
-0.086271673 0.19446984 0.935 2.0169863e-38
-0.08196833 0.19508462 0.935 2.0816303e-38
-0.077869914 0.1959043 0.93500006 2.0354262e-38
-0.073771499 0.1959043 0.935 2.0722688e-38
-0.069673084 0.1959043 0.93500006 1.952556e-38
-0.066394344 0.1959043 0.935 1.4365528e-38
-0.21803576 0.19918305 0.935 1.4636373e-38
-0.21408145 0.19802901 0.93419999 1.9525949e-38
-0.21054508 0.19866669 0.93449998 1.8696543e-38
-0.20574051 0.19918305 0.93500006 1.8420686e-38
-0.2016421 0.19836336 0.935 1.8881297e-38
-0.19836336 0.19836336 0.935 1.8697975e-38
-0.19410013 0.19835758 0.93419999 1.8787677e-38
-0.19003241 0.19821171 0.93300003 1.9340489e-38
-0.1860681 0.19918305 0.93500006 1.8052271e-38
-0.1819697 0.19918305 0.935 1.8696198e-38
-0.17869096 0.19918305 0.935 2.0080508e-38
-0.17295317 0.19918305 0.935 2.017094e-38
-0.16934657 0.19852731 0.93500006 1.9619567e-38
-0.16557604 0.19836336 0.935 1.980541e-38
-0.16229729 0.19836336 0.935 1.9525572e-38
-0.15983824 0.19836336 0.935 2.0260949e-38
-0.14918235 0.19918305 0.935 2.3509884e-38
-0.14563039 0.19863659 0.93500006 2.3509886e-38
-0.14180523 0.19836336 0.93500006 2.3509886e-38
-0.13770679 0.19836336 0.935 2.3509886e-38
-0.13442805 0.19836336 0.935 2.3509886e-38
-0.13032964 0.19836336 0.93500006 2.1296832e-38
-0.12623122 0.19836336 0.935 1.9343667e-38
-0.12213282 0.19836336 0.93500006 1.9986562e-38
-0.11803439 0.19836336 0.935 2.0633351e-38
-0.11393599 0.19836336 0.93500006 1.980324e-38
-0.10983756 0.19836336 0.935 2.0908494e-38
-0.10573914 0.19836336 0.93500006 2.0908147e-38
-0.10164072 0.19836336 0.935 1.9709606e-38
-0.098361999 0.19836336 0.935 1.934117e-38
-0.094263583 0.19836336 0.93500006 2.0448238e-38
-0.090165168 0.19836336 0.935 2.0907439e-38
-0.086066753 0.19836336 0.93500006 2.0080194e-38
-0.08196833 0.19836336 0.935 2.0080191e-38
-0.077869922 0.19836336 0.93500006 1.9985106e-38
-0.073771499 0.19836336 0.935 2.0721223e-38
-0.069673091 0.19836336 0.93500006 2.0264208e-38
-0.065574661 0.19836336 0.935 1.1046121e-38
-0.062295932 0.19918305 0.935 9.2962154e-39
-0.22049481 0.2016421 0.935 6.3492049e-39
-0.21772484 0.20217189 0.93366671 1.5469022e-38
-0.21429765 0.20202872 0.93300003 1.8698701e-38
-0.21025768 0.20207644 0.93322223 1.9527381e-38
-0.20611838 0.20202872 0.93300003 1.9251879e-38
-0.20202871 0.20202871 0.93300003 1.8882019e-38
-0.19793907 0.20202872 0.93300003 1.8606148e-38
-0.1938494 0.20202871 0.93300003 1.9158247e-38
-0.18992335 0.20170152 0.93300003 1.9618506e-38
-0.18567011 0.20121078 0.93300003 1.7682764e-38
-0.18239839 0.20039284 0.93300003 1.6760718e-38
-0.1774908 0.20039284 0.93300003 1.9895076e-38
-0.17401461 0.20182423 0.93300003 2.0078754e-38
-0.17012945 0.20202869 0.93300003 2.0356049e-38
-0.16603979 0.20121078 0.93300003 2.0632995e-38
-0.16195014 0.20121077 0.93300003 1.934298e-38
-0.1582769 0.20250297 0.93425 1.9340468e-38
-0.15401763 0.20235263 0.93449998 1.9616652e-38
-0.14985983 0.20226812 0.93411118 2.0356036e-38
-0.14569557 0.20217189 0.93366671 2.2393314e-38
-0.14248341 0.20170152 0.93300003 2.350736e-38
-0.13799646 0.20156132 0.93300009 2.3509886e-38
-0.13423637 0.20217189 0.93366671 2.3509886e-38
-0.13014378 0.20217188 0.93366665 1.9257322e-38
-0.12605122 0.20217189 0.93366671 2.0906702e-38
-0.12198807 0.20221999 0.93388897 2.0447889e-38
-0.11790787 0.20224404 0.93400002 1.9437326e-38
-0.11407954 0.20214769 0.93450004 1.9528095e-38
-0.10983756 0.2016421 0.935 2.0447887e-38
-0.10640746 0.20217249 0.93366671 2.0908515e-38
-0.10224125 0.20202871 0.93300003 1.970961e-38
-0.098151594 0.20202872 0.93300003 2.0630821e-38
-0.094061948 0.20202871 0.93300003 2.0999239e-38
-0.089972302 0.20202869 0.93300003 2.1182934e-38
-0.085903503 0.20207644 0.93322223 2.0634428e-38
-0.081793003 0.20202869 0.93300003 2.0265661e-38
-0.077937044 0.20156132 0.93300009 1.9341544e-38
-0.073613703 0.20121077 0.93300003 2.0169501e-38
-0.070341982 0.20121077 0.93300003 2.1920485e-38
-0.066252336 0.20121078 0.93300003 1.3443924e-38
-0.062184595 0.20210031 0.9333334 8.4664505e-39
-0.059836879 0.2016421 0.935 8.7480849e-39
-0.22107808 0.2055193 0.93400002 6.6236422e-39
-0.21756938 0.20611836 0.93300003 1.6391337e-38
-0.21511559 0.20611836 0.93300003 1.9250446e-38
-0.20939007 0.20530044 0.93300003 1.9711401e-38
-0.20611836 0.20530044 0.93300003 1.9803576e-38
-0.20366456 0.20530044 0.93300003 2.0171994e-38
-0.1938494 0.20530044 0.93300003 1.7960808e-38
-0.1578605 0.20530044 0.93300003 1.8603637e-38
-0.15367283 0.20571493 0.93340009 1.9801415e-38
-0.1496812 0.20611835 0.93300003 2.1091813e-38
-0.14586417 0.20584571 0.93300003 1.9246495e-38
-0.13659431 0.20530044 0.93300003 2.3509886e-38
-0.13414052 0.20530044 0.93300003 2.350873e-38
-0.13005087 0.20530044 0.93300003 1.8236983e-38
-0.12596121 0.20530044 0.93300003 2.1367669e-38
-0.1214626 0.2057094 0.93300003 2.0999249e-38
-0.11778192 0.20611836 0.93300003 2.1462401e-38
-0.11349289 0.20583019 0.93328577 1.9988357e-38
-0.10968094 0.20544598 0.93366665 2.0631176e-38
-0.10660355 0.20584571 0.93300003 2.0264558e-38
-0.10224125 0.20530044 0.93300003 2.0170575e-38
-0.098151602 0.20530044 0.93300003 2.1367302e-38
-0.094061941 0.20530044 0.93300003 2.1275461e-38
-0.089972302 0.20530044 0.93300003 2.0813786e-38
-0.086700574 0.20530044 0.93300003 2.1646386e-38
-0.079339206 0.20530044 0.93300003 1.9896887e-38
-0.059836879 0.20574051 0.93500006 9.2980119e-39
-0.22084109 0.20857215 0.93300003 6.2548695e-39
-0.15295291 0.20857215 0.93300003 2.0263483e-38
-0.15049912 0.20857215 0.93300003 2.0079103e-38
-0.11369227 0.20857215 0.93300003 2.1001067e-38
-0.11042055 0.20857215 0.93300003 2.0448288e-38
-0.05970889 0.20857215 0.93300003 8.4707848e-39
-0.058197517 0.21311766 0.935 8.6631536e-39
-0.05970889 0.21756938 0.93300003 7.9266816e-39
-0.05970889 0.22002317 0.93300003 7.7433763e-39
-0.19695193 0.19035938 0.94 1.8603985e-38
-0.19365567 0.19035938 0.94 1.85118e-38
-0.19035938 0.19035938 0.94 1.9524158e-38
-0.18541498 0.19035938 0.94 2.0448992e-38
-0.18376686 0.19035938 0.94 1.9801823e-38
-0.17717433 0.19035938 0.94 2.1738985e-38
-0.17552619 0.19035938 0.94 2.0172019e-38
-0.16975772 0.19035938 0.94 2.0263468e-38
-0.16728552 0.19035938 0.94 2.0076203e-38
-0.16234112 0.1903594 0.94 2.3414076e-38
-0.13349879 0.19035938 0.94 2.0632644e-38
-0.12937847 0.19035938 0.94 2.0816307e-38
-0.12773032 0.19035938 0.94 2.1644972e-38
-0.10465646 0.19035938 0.94 1.9804679e-38
-0.10218427 0.19035938 0.94 2.0819562e-38
-0.097959623 0.19097918 0.93900007 2.0263514e-38
-0.09381035 0.19008821 0.9386667 2.1277278e-38
-0.090183958 0.18989152 0.93885726 2.0079115e-38
-0.086205482 0.19031097 0.93875009 2.0814485e-38
-0.082501344 0.19052561 0.93920004 2.2013034e-38
-0.074166 0.19035938 0.94 2.0815938e-38
-0.070869729 0.19035938 0.94 2.0448563e-38
-0.21755359 0.1953038 0.94 1.8967771e-38
-0.21380146 0.19488825 0.93800002 2.0262808e-38
-0.20998681 0.19516528 0.93933338 1.887949e-38
-0.20601666 0.1953038 0.94 1.8419599e-38
-0.20148429 0.19489177 0.94 1.9616326e-38
-0.19761118 0.1939853 0.94 1.9986178e-38
-0.19365565 0.19386168 0.94 2.0170942e-38
-0.18953532 0.19365567 0.94 1.9802553e-38
-0.18623906 0.19365567 0.94 2.0172748e-38
-0.18211873 0.19365567 0.94 1.934191e-38
-0.17799839 0.19365565 0.94 2.1369122e-38
-0.17387804 0.19365564 0.94 2.0079106e-38
-0.16951695 0.1933798 0.93866676 1.9802141e-38
-0.16634339 0.19351715 0.93933338 2.1364429e-38
-0.16222599 0.19351716 0.93933338 2.341512e-38
-0.15327638 0.1953038 0.94 2.3509886e-38
-0.14998013 0.1953038 0.94 2.3509886e-38
-0.14612734 0.19423181 0.93959999 2.3509886e-38
-0.14205192 0.19439521 0.93880004 2.3509886e-38
-0.13829592 0.19427195 0.93900001 2.3232577e-38
-0.13413234 0.1933798 0.93866664 1.8335731e-38
-0.13020077 0.19307812 0.93880004 1.9619203e-38
-0.12589109 0.19336036 0.93857151 2.0631916e-38
-0.12183212 0.19427195 0.93900001 2.1094687e-38
-0.11775737 0.19434121 0.93933338 2.0541158e-38
-0.11372119 0.19447973 0.94 2.0724104e-38
-0.11036664 0.19437584 0.93950003 2.1093611e-38
-0.10639752 0.19324274 0.93900001 2.0631913e-38
-0.10207556 0.19262558 0.93900001 2.0724463e-38
-0.097855292 0.19324365 0.93800008 2.0078372e-38
-0.093743719 0.19324364 0.93800002 1.9985082e-38
-0.084698275 0.19324364 0.93800002 2.0999602e-38
-0.082231328 0.19324364 0.93800002 2.1462008e-38
-0.078193404 0.19342558 0.93888897 1.9986185e-38
-0.074087396 0.19344848 0.93900007 2.1092524e-38
-0.069962479 0.19342558 0.93888897 2.0540418e-38
-0.066034041 0.19381908 0.93920004 1.261272e-38
-0.06345313 0.19447973 0.94 1.0121294e-38
-0.22148526 0.19810072 0.93920004 7.1750531e-39
-0.21791303 0.1973552 0.93800002 1.6848354e-38
-0.20886759 0.1973552 0.93800002 1.7221057e-38
-0.20557833 0.1973552 0.93800002 1.823558e-38
-0.20228907 0.19653289 0.93800002 1.9065319e-38
-0.19817752 0.19653289 0.93800008 1.9618467e-38
-0.19385992 0.19715357 0.93900001 1.952416e-38
-0.1892333 0.19745997 0.93849999 1.989548e-38
-0.18584281 0.1973552 0.93800002 2.0081624e-38
-0.18173125 0.1973552 0.93800008 1.9619934e-38
-0.1775306 0.19793239 0.93839997 1.9618495e-38
-0.17464356 0.19801621 0.93880004 1.9802525e-38
-0.17063001 0.19694404 0.93800002 1.9526294e-38
-0.1661073 0.19653289 0.93800002 1.9619231e-38
-0.16199572 0.19653289 0.93800008 1.9801075e-38
-0.15810859 0.19845805 0.93933338 2.1369848e-38
-0.1539187 0.19836412 0.93888897 2.2582468e-38
-0.14966103 0.1973552 0.93800002 2.3509886e-38
-0.14719409 0.1973552 0.93800002 2.3509886e-38
-0.11759081 0.19653289 0.93800002 1.9801827e-38
-0.11430155 0.19653289 0.93800008 1.9801454e-38
-0.11018999 0.19653289 0.93800002 2.1277638e-38
-0.10772305 0.19653289 0.93800002 2.1553897e-38
-0.064962752 0.19653289 0.93800002 1.0491508e-38
-0.062028725 0.19793241 0.93840009 9.1129116e-39
-0.22497019 0.20272039 0.94 6.6319589e-39
-0.22300529 0.20160878 0.9386667 7.5477635e-39
-0.15706185 0.20146677 0.93800002 1.9432286e-38
-0.1554172 0.20146677 0.93800002 1.7219233e-38
-0.22497019 0.20601666 0.94 6.6322882e-39
-0.065309033 0.17939317 0.94300002 8.7412452e-39
-0.063655637 0.17939317 0.94300002 1.1045776e-38
-0.065309033 0.18104656 0.94300002 8.0973555e-39
-0.063655637 0.18104656 0.94300002 1.0033464e-38
-0.20171398 0.18683344 0.94300002 2.0262776e-38
-0.19868276 0.18710902 0.94300002 1.9617406e-38
-0.19510041 0.18766014 0.94300002 1.9894342e-38
-0.18159769 0.18710902 0.94300002 2.0817016e-38
-0.17815313 0.18724678 0.94300002 2.0908847e-38
-0.17443299 0.18766014 0.94300002 2.146201e-38
-0.16451263 0.18766014 0.94300002 1.7590146e-38
-0.16203254 0.18766014 0.94300002 2.3506939e-38
-0.12896469 0.18766014 0.94300002 2.1920858e-38
-0.10168369 0.18766014 0.94300002 2.0264565e-38
-0.097550198 0.18766014 0.94300002 2.0445006e-38
-0.094243422 0.18683344 0.94300002 2.1091815e-38
-0.090523288 0.1872468 0.94300002 2.1000695e-38
-0.085976452 0.18766014 0.94300002 2.2195981e-38
-0.081842974 0.18766014 0.94300002 2.2288929e-38
-0.078536183 0.18766014 0.94300002 2.0907452e-38
-0.074402705 0.18766014 0.94300002 1.9248246e-38
-0.071922608 0.18766014 0.94300002 1.9245384e-38
-0.21246104 0.19096693 0.94300002 1.9894006e-38
-0.20998096 0.19096693 0.94300002 1.9341527e-38
-0.20584747 0.19014025 0.94300002 1.9250074e-38
-0.20171398 0.19014025 0.94300002 2.0631215e-38
-0.19868276 0.18986468 0.94300002 1.9433392e-38
-0.19427371 0.18972689 0.94300002 1.9709972e-38
-0.18986468 0.18986468 0.94300002 2.0170954e-38
-0.1864201 0.18972689 0.94300002 2.007984e-38
-0.18187325 0.19014025 0.94300002 2.0908138e-38
-0.17815313 0.18972689 0.94300002 2.2106686e-38
-0.17360631 0.19014023 0.94300002 2.1093255e-38
-0.1702995 0.18931353 0.94300002 2.0909228e-38
-0.16616601 0.18972689 0.94300002 1.9158213e-38
-0.16203254 0.18931353 0.94300002 2.3509852e-38
-0.15789907 0.19096693 0.94300002 2.3509886e-38
-0.15376557 0.19096693 0.94300002 2.3509886e-38
-0.14549862 0.19014023 0.94300002 2.1383261e-38
-0.14219183 0.19096693 0.94300002 1.6864574e-38
-0.13805833 0.19014025 0.94300002 1.9159665e-38
-0.13392484 0.18931353 0.94300002 1.9799634e-38
-0.13020472 0.18972689 0.94300002 2.1091088e-38
-0.12593345 0.1904158 0.94300002 2.1644994e-38
-0.12207554 0.1904158 0.94300002 2.0815263e-38
-0.11821762 0.19014025 0.94300002 2.0446468e-38
-0.11408413 0.19014025 0.94300002 2.1368393e-38
-0.10995065 0.19014025 0.94300002 2.0263851e-38
-0.10609274 0.18986468 0.94300002 1.9527716e-38
-0.10168369 0.18931353 0.94300002 1.9346219e-38
-0.097550198 0.18931353 0.94300002 1.9709924e-38
-0.080740705 0.18986468 0.94300002 2.1275859e-38
-0.077709489 0.19014023 0.94300002 2.11833e-38
-0.074402705 0.18931353 0.94300002 1.8972006e-38
-0.069855869 0.18972689 0.94300002 1.888271e-38
-0.066411301 0.1904158 0.94300002 1.3628327e-38
-0.063655637 0.19096693 0.94300002 9.3859111e-39
-0.2215547 0.1959271 0.94300002 7.3554647e-39
-0.21824792 0.19427373 0.94300002 1.7956128e-38
-0.21378377 0.19361237 0.94300002 1.9985506e-38
-0.20998096 0.19344702 0.94300002 1.9063861e-38
-0.20584747 0.19344702 0.94300002 1.8603993e-38
-0.20198956 0.19317147 0.94300002 1.9708904e-38
-0.19923389 0.19262032 0.94300002 1.9800007e-38
-0.19427373 0.19262032 0.94300002 1.77753e-38
-0.15789905 0.19427371 0.94299996 2.3509886e-38
-0.15376557 0.19344702 0.94300002 2.3509886e-38
-0.15018323 0.19372259 0.94300002 2.3509886e-38
-0.14632532 0.19262032 0.94300002 2.3509886e-38
-0.14219183 0.19262032 0.94300002 2.1296109e-38
-0.13888504 0.19262032 0.94300002 1.7044287e-38
-0.1248312 0.19262032 0.94300002 2.0723035e-38
-0.12235111 0.19262032 0.94300002 1.9894359e-38
-0.11821762 0.19262032 0.94300002 1.9985829e-38
-0.11408414 0.19262032 0.94300002 2.0909209e-38
-0.11077735 0.19262032 0.94300002 2.0816307e-38
-0.065309033 0.19262032 0.94300002 1.1964142e-38
-0.062553376 0.19427371 0.94300002 9.0203698e-39
-0.2240348 0.19758049 0.94300002 8.5615959e-39
-0.060348857 0.19923389 0.94300002 9.6686091e-39
-0.22568817 0.20088728 0.94300002 7.5535382e-39
-0.21645424 0.17996387 0.94599998 7.0853294e-39
-0.21479559 0.17996387 0.94599998 1.2610593e-38
-0.073135033 0.17868219 0.94800001 2.0726283e-38
-0.068979636 0.17868219 0.94800001 1.6582864e-38
-0.066669911 0.17898378 0.94666672 7.8236021e-39
-0.063858144 0.17830522 0.94599998 1.1878057e-38
-0.21716082 0.18285748 0.94666672 1.1692953e-38
-0.2142427 0.18272829 0.94599998 1.6026537e-38
-0.21026324 0.18366867 0.94800007 2.0722697e-38
-0.20610783 0.18366867 0.94800001 1.9616348e-38
-0.20278351 0.18366867 0.94800001 2.0078397e-38
-0.18200652 0.18366867 0.94800007 1.9896157e-38
-0.17785111 0.18366867 0.94800001 2.063119e-38
-0.16593897 0.18311462 0.94800007 2.0815234e-38
-0.16289167 0.18283758 0.94800001 2.0446095e-38
-0.15291873 0.18366867 0.94800001 2.0536487e-38
-0.1495944 0.18366867 0.94800001 2.0353172e-38
-0.14627008 0.18366867 0.94800001 2.0078378e-38
-0.14377683 0.18366867 0.94800001 2.0448228e-38
-0.13712819 0.18366867 0.94800001 2.1092543e-38
-0.13338834 0.18325312 0.94800001 2.1369116e-38
-0.12937286 0.18218397 0.9472 2.1647148e-38
-0.12627716 0.18203035 0.94639999 1.9987988e-38
-0.12208168 0.18270901 0.94733334 2.090958e-38
-0.11801335 0.18283758 0.94800001 2.2382171e-38
-0.11385795 0.18366867 0.94800007 2.0632996e-38
-0.10970256 0.18366867 0.94800001 2.0722658e-38
-0.10637824 0.18366867 0.94800001 2.1643178e-38
-0.10222283 0.18366867 0.94800007 2.1644991e-38
-0.09806744 0.18283758 0.94800001 2.0723392e-38
-0.094327576 0.18325314 0.94800001 2.1093233e-38
-0.089756638 0.18366867 0.94800001 2.155348e-38
-0.086432323 0.18366867 0.94800001 2.1737179e-38
-0.081818864 0.18315625 0.94749999 2.0999625e-38
-0.078066573 0.18187734 0.94733334 2.2011963e-38
-0.073914096 0.18187734 0.94733334 2.1092884e-38
-0.069785878 0.18194196 0.94766676 2.0728436e-38
-0.066669911 0.18285748 0.94666672 8.2838557e-39
-0.062285997 0.18353951 0.94733334 1.0960794e-38
-0.2202362 0.18616191 0.94800001 5.2443399e-39
-0.21739885 0.18586691 0.94649994 1.4452706e-38
-0.21396625 0.18576917 0.94599998 1.7684608e-38
-0.21018873 0.18609616 0.94766665 1.8142649e-38
-0.20578215 0.18586691 0.94650006 1.9708887e-38
-0.20166723 0.18507016 0.94666672 2.0078383e-38
-0.19758838 0.18596466 0.94700003 1.9894349e-38
-0.1943697 0.18606329 0.94749999 2.0076951e-38
-0.19031732 0.18616192 0.94800007 1.8787259e-38
-0.18596554 0.18596467 0.94699997 2.0079433e-38
-0.18272829 0.18549272 0.94599998 2.0909589e-38
-0.17812358 0.18575971 0.94679993 2.0355325e-38
-0.17395416 0.18624924 0.94760001 2.0724117e-38
-0.16954032 0.18699299 0.94800001 2.0817033e-38
-0.16612877 0.18606329 0.94749999 1.9618121e-38
-0.16177511 0.18583433 0.94633341 2.1470349e-38
-0.15782146 0.18606329 0.94749999 2.2771244e-38
-0.15395178 0.18583791 0.9472 1.833682e-38
-0.14990263 0.18609142 0.94680005 1.9712517e-38
-0.14611579 0.18596466 0.94700003 1.9435888e-38
-0.14196476 0.18596467 0.94700003 2.0725193e-38
-0.13774143 0.18586692 0.94649994 2.1093632e-38
-0.13435091 0.18576917 0.94599998 2.1461308e-38
-0.13020429 0.18576917 0.94600004 2.2107049e-38
-0.12605764 0.18576917 0.94599998 2.1278374e-38
-0.12199634 0.1858995 0.94666672 2.0724832e-38
-0.11782707 0.18586691 0.94650006 2.1183631e-38
-0.11444707 0.18576917 0.94599998 2.1184719e-38
-0.11030044 0.18576917 0.94600004 2.1644987e-38
-0.1061538 0.18576916 0.94599998 2.2751328e-38
-0.10200717 0.18576917 0.94600004 2.1830818e-38
-0.097860545 0.18576917 0.94599998 2.1829032e-38
-0.093912035 0.18533084 0.94800007 2.1554211e-38
-0.089615047 0.18586691 0.94650006 2.1369818e-38
-0.086249962 0.18576917 0.94599998 2.1552772e-38
-0.082132272 0.18583433 0.94633335 2.1459876e-38
-0.077956699 0.18576917 0.94599998 2.0998905e-38
-0.073810071 0.18576917 0.94600004 2.1091439e-38
-0.069663435 0.18576916 0.94599998 2.1554588e-38
-0.066380754 0.18586691 0.94650006 1.0034845e-38
-0.062242161 0.18590008 0.94666666 1.0500519e-38
-0.2202362 0.19197948 0.94800001 1.2154314e-38
-0.21736044 0.18998271 0.94633335 1.8232767e-38
-0.21413212 0.18958408 0.94600004 2.0540463e-38
-0.21015136 0.18892062 0.94600004 1.8789819e-38
-0.20567301 0.18825714 0.94599998 1.9894013e-38
-0.1932331 0.18825714 0.94599998 2.0538628e-38
-0.18991581 0.18825714 0.94599998 1.9433003e-38
-0.18576916 0.18825714 0.94599998 1.9802505e-38
-0.17332925 0.18825714 0.94599998 2.081664e-38
-0.17001197 0.18825714 0.94599998 2.0724833e-38
-0.16669466 0.18825714 0.94599998 1.7867119e-38
-0.16006005 0.18908647 0.94599998 2.3509886e-38
-0.15757205 0.18908648 0.94599998 2.3509886e-38
-0.15425475 0.18908648 0.94599998 2.3509886e-38
-0.15010811 0.18991579 0.94599998 2.2308819e-38
-0.14596149 0.18825714 0.94599998 1.9254075e-38
-0.14214657 0.1889206 0.94600004 1.9251532e-38
-0.13766822 0.18825714 0.94599998 1.9986552e-38
-0.13435091 0.18825714 0.94599998 1.9708517e-38
-0.13186294 0.18825714 0.94599998 2.0537224e-38
-0.12578121 0.18881004 0.94599998 2.1737542e-38
-0.12232567 0.18867181 0.94599998 2.1276565e-38
-0.11776438 0.18825714 0.94599998 2.0815253e-38
-0.11444707 0.18825714 0.94599998 2.1369137e-38
-0.11030044 0.18825714 0.94599998 2.0539005e-38
-0.1061538 0.18825714 0.94599998 2.0723747e-38
-0.077127375 0.18825714 0.94599998 2.0999647e-38
-0.069663435 0.18825714 0.94599998 2.0263137e-38
-0.066069692 0.18881004 0.94599998 1.1414557e-38
-0.062073916 0.1899581 0.94725001 1.0037397e-38
-0.22166428 0.19426669 0.94700003 8.1823415e-39
-0.21811292 0.1932331 0.94599998 1.786719e-38
-0.15176678 0.1932331 0.94599998 2.3509886e-38
-0.061093729 0.193786 0.94599998 1.0038122e-38
-0.22474751 0.19655041 0.94599998 8.9321539e-39
-0.060540844 0.19737974 0.94599998 9.9459232e-39
-0.2175983 0.17841393 0.95099998 6.1673472e-39
-0.21481928 0.17869183 0.95099998 1.3070848e-38
-0.2100949 0.17924763 0.95099998 1.8878783e-38
-0.20592636 0.17924765 0.95099998 1.9708883e-38
-0.2017578 0.17924763 0.95099998 1.9431247e-38
-0.19842297 0.17924763 0.95099998 2.0538275e-38
-0.18091506 0.17924763 0.95099998 1.9063902e-38
-0.17841393 0.17924763 0.95099998 2.0260602e-38
-0.17424539 0.17924765 0.95099998 2.1091124e-38
-0.17007682 0.17924763 0.95099998 2.0815958e-38
-0.16549143 0.17883077 0.95099998 2.0999646e-38
-0.16257344 0.17841393 0.95099998 2.0261716e-38
-0.080869861 0.17924763 0.95099998 2.0905631e-38
-0.078368738 0.17841393 0.95099998 2.1921189e-38
-0.074200183 0.17813604 0.95099998 2.1371301e-38
-0.070031635 0.17841393 0.95099998 1.6673651e-38
-0.066696793 0.17758021 0.95099998 8.0076472e-39
-0.21342975 0.18174878 0.95099998 1.9708941e-38
-0.21009491 0.18174878 0.95099998 2.0262441e-38
-0.20592636 0.18174878 0.95100009 1.9801809e-38
-0.2017578 0.18174876 0.95099998 1.9709629e-38
-0.19842297 0.18174878 0.95099998 1.9435187e-38
-0.1945879 0.18191552 0.95100003 2.109148e-38
-0.19008587 0.18258248 0.95099998 2.0814148e-38
-0.18550044 0.18216562 0.95099998 2.0906686e-38
-0.18174878 0.18174878 0.95099998 2.0171682e-38
-0.17841393 0.18174876 0.95099998 2.0353876e-38
-0.17424539 0.18174878 0.95100009 2.0908155e-38
-0.17007682 0.18174878 0.95099998 2.0724833e-38
-0.16632514 0.18133192 0.95099998 2.1092548e-38
-0.16173974 0.18174878 0.95099998 2.0169521e-38
-0.15840489 0.18258248 0.95099998 1.9893965e-38
-0.15456983 0.18191552 0.95100003 2.0354969e-38
-0.15006778 0.18258248 0.95099998 2.0536503e-38
-0.14589925 0.18258248 0.95099998 2.0814156e-38
-0.1417307 0.18258248 0.95099998 2.145988e-38
-0.13756214 0.18174878 0.95099998 2.1827218e-38
-0.13456078 0.18158203 0.95100003 2.0998535e-38
-0.13089246 0.18091506 0.95099998 2.0723025e-38
-0.12505649 0.18091506 0.95099998 1.9435877e-38
-0.12088794 0.18091506 0.95099998 2.0815584e-38
-0.11922053 0.18091506 0.95099998 2.0998515e-38
-0.11588568 0.18258248 0.95099998 2.2477241e-38
-0.11004971 0.18258248 0.95099998 2.1184375e-38
-0.10588117 0.18258248 0.95099998 2.0998549e-38
-0.10171261 0.18174878 0.95099998 1.9895801e-38
-0.098377779 0.18091506 0.95099998 2.1823234e-38
-0.094209224 0.18202668 0.95099998 2.2104881e-38
-0.090040669 0.18258248 0.95099998 2.1646049e-38
-0.085872114 0.18174878 0.95100009 2.1644642e-38
-0.08198148 0.18147087 0.95099998 2.1275497e-38
-0.2009241 0.18424989 0.95099998 1.9435196e-38
-0.19842297 0.18424989 0.95099998 1.9066763e-38
-0.19425443 0.18424991 0.95099998 2.1091476e-38
-0.19008587 0.18424989 0.95099998 1.9618111e-38
-0.18675102 0.18424989 0.95099998 2.05397e-38
-0.17382853 0.18466675 0.95099998 2.1276219e-38
-0.17007682 0.1850836 0.95099998 2.1001072e-38
-0.16090602 0.18424989 0.95099998 2.0907433e-38
-0.15840489 0.18424989 0.95099998 1.9891247e-38
-0.15590376 0.18424989 0.95099998 1.979821e-38
-0.1417307 0.18424989 0.95099998 2.0447512e-38
-0.13922957 0.18424989 0.95099998 2.1092543e-38
-0.22093314 0.19008587 0.95099998 6.4417606e-39
-0.22426797 0.19592184 0.95099998 5.9840657e-39
-0.22260055 0.192587 0.95099998 6.9913583e-39
-0.072914116 0.16678056 0.95599997 7.5449455e-39
-0.070326194 0.16576801 0.95499992 9.1147234e-39
-0.21287569 0.17180912 0.95599997 1.3068686e-38
-0.20952332 0.17180912 0.95599997 1.7965861e-38
-0.20617095 0.17180912 0.95599997 1.87873e-38
-0.16510437 0.17180912 0.95599997 2.1736468e-38
-0.161752 0.17180912 0.95599997 1.9712845e-38
-0.15756154 0.17097104 0.95599997 2.0909935e-38
-0.15448853 0.17125039 0.95600003 2.0631544e-38
-0.15169488 0.17180912 0.95599997 1.8695482e-38
-0.1248759 0.17180912 0.95599997 2.2015226e-38
-0.12236162 0.17180912 0.95599997 2.146025e-38
-0.1177521 0.17139007 0.95599997 2.1550621e-38
-0.1139807 0.17097104 0.95599997 2.2842436e-38
-0.10979023 0.17097104 0.95599997 2.2198508e-38
-0.10587912 0.1712504 0.95600003 2.2568392e-38
-0.10224738 0.17180912 0.95599997 2.2015579e-38
-0.098056912 0.17180912 0.95600003 2.0907374e-38
-0.093866453 0.17180912 0.95599997 1.9523009e-38
-0.090514079 0.17180912 0.95599997 2.0813014e-38
-0.087161697 0.17180912 0.95599997 2.0722294e-38
-0.07878077 0.17180912 0.95599997 2.1089284e-38
-0.073584594 0.17046818 0.95599997 1.7316875e-38
-0.070350744 0.17001545 0.95533323 8.0087164e-39
-0.21360201 0.1742318 0.95550001 1.1689714e-38
-0.20976213 0.17427115 0.95479995 1.9434848e-38
-0.20595528 0.17414019 0.95499992 1.9987276e-38
-0.20183848 0.17503935 0.95533335 2.1181855e-38
-0.19768701 0.1742318 0.95550001 2.1091463e-38
-0.19433552 0.1742318 0.95550001 1.998656e-38
-0.19066623 0.17474246 0.95599997 1.9894367e-38
-0.1860567 0.1751615 0.95599997 2.0908505e-38
-0.18177113 0.1742318 0.95550001 2.0355696e-38
-0.17795455 0.17427115 0.95479995 2.0447892e-38
-0.17414105 0.17414019 0.95499992 2.0631557e-38
-0.16962402 0.17465085 0.95550001 2.1092888e-38
-0.16576889 0.17414019 0.95499998 2.1277281e-38
-0.16169503 0.17426233 0.95566666 2.1368753e-38
-0.15739672 0.17414019 0.95499998 2.0353162e-38
-0.15404786 0.17414019 0.95499992 2.1921943e-38
-0.14996581 0.17426233 0.95566666 2.1461346e-38
-0.14582823 0.17432341 0.95599997 2.0724094e-38
-0.14247586 0.1751615 0.95599997 2.0445337e-38
-0.1382854 0.17516151 0.95600003 2.1551337e-38
-0.13325684 0.1751615 0.95599997 2.1829385e-38
-0.12990445 0.17516151 0.95600003 2.0815895e-38
-0.12543464 0.17460278 0.95600003 2.2749907e-38
-0.12236162 0.17432341 0.95599997 2.2291094e-38
-0.11817116 0.17432341 0.95599997 2.1368772e-38
-0.1139807 0.17432341 0.95599997 2.1276565e-38
-0.11007952 0.1740825 0.95559996 2.1460232e-38
-0.10605737 0.17441772 0.95559996 2.0442795e-38
-0.10224738 0.17432341 0.95599997 2.1733587e-38
-0.098056912 0.17432341 0.95599997 2.2381804e-38
-0.093866453 0.17432339 0.95599997 2.0999597e-38
-0.090514079 0.17432341 0.95599997 2.1460925e-38
-0.086323611 0.17432341 0.95599997 2.2014484e-38
-0.082133144 0.17432341 0.95599997 2.0077321e-38
-0.077942669 0.17432341 0.95599997 2.1921929e-38
-0.07375221 0.17432339 0.95599997 2.1282686e-38
-0.070363455 0.1742318 0.95550001 1.0587669e-38
-0.067814544 0.17414019 0.95499998 9.201887e-39
-0.21706615 0.17683768 0.95599997 8.0973555e-39
-0.21427031 0.17780587 0.954 1.5929302e-38
-0.20992133 0.17730407 0.954 1.9522716e-38
-0.20573963 0.17730406 0.954 1.99862e-38
-0.20249991 0.17739655 0.95449996 1.9429799e-38
-0.19797362 0.17766252 0.95400006 2.1273689e-38
-0.19403087 0.1781404 0.954 2.0446103e-38
-0.18984918 0.17814042 0.95400006 1.9986919e-38
-0.18566748 0.1781404 0.954 2.0446783e-38
-0.18248938 0.17780587 0.954 2.0171321e-38
-0.1781404 0.17730407 0.954 2.0813778e-38
-0.17395872 0.17730406 0.954 2.2105249e-38
-0.16977702 0.17730407 0.954 2.1092536e-38
-0.16587411 0.17702529 0.954 2.0631917e-38
-0.16183178 0.17772223 0.954 2.0077677e-38
-0.15806825 0.17814042 0.95400006 1.9893272e-38
