# .PCD v0.7 - Point Cloud Data file format
VERSION 0.7
FIELDS x y z rgb
SIZE 4 4 4 4
TYPE F F F F
COUNT 1 1 1 1
WIDTH 1039
HEIGHT 1
VIEWPOINT 0 0 0 1 0 0 0
POINTS 1039
DATA ascii
-0.1297905 0.12632942 0.98699999 2.3457341e-38
-0.12719469 0.12632942 0.98699999 2.3459848e-38
-0.082200646 0.12632942 0.98699999 2.3473471e-38
-0.078739569 0.12632942 0.98699999 2.3476371e-38
-0.13238631 0.1297905 0.98699999 2.3463797e-38
-0.1297905 0.1297905 0.98699999 2.3463448e-38
-0.12661785 0.13007893 0.98699999 2.3467038e-38
-0.085661724 0.13065577 0.98699999 2.345262e-38
-0.082200646 0.12979048 0.98699999 2.3462683e-38
-0.078739569 0.12892523 0.98699999 2.3454042e-38
-0.13281895 0.13454948 0.98699999 2.3474934e-38
-0.12979051 0.13411686 0.98699999 2.3475667e-38
-0.12632942 0.13238631 0.98699999 2.3472767e-38
-0.081508435 0.13342462 0.98699999 2.3465883e-38
-0.077874303 0.13498211 0.98699999 2.3495821e-38
-0.074701637 0.13527054 0.98699999 2.3495831e-38
-0.071817406 0.13584739 0.98699999 2.3496189e-38
-0.13757792 0.13930847 0.98699999 2.346377e-38
-0.13411686 0.1384432 0.98699999 2.3466618e-38
-0.13007893 0.13815477 0.98699999 2.3463032e-38
-0.077874303 0.13757792 0.98699999 2.349871e-38
-0.07441321 0.13757792 0.98699999 2.3495477e-38
-0.070086867 0.1384432 0.98699999 2.3496914e-38
-0.06604895 0.13873163 0.98699999 2.3497628e-38
-0.13815477 0.14219269 0.98699999 2.3418071e-38
-0.13411686 0.14190428 0.98699999 2.341806e-38
-0.13065577 0.14190426 0.98699999 2.3418052e-38
-0.068356328 0.141039 0.98699999 2.3498719e-38
-0.065472096 0.14161585 0.98699999 2.349799e-38
-0.062587865 0.14219271 0.98699999 2.3497266e-38
-0.059703626 0.14276955 0.98699999 2.3495108e-38
-0.141039 0.14796115 0.98699999 2.3471732e-38
-0.1384432 0.14623062 0.98699999 2.3467037e-38
-0.13480906 0.1455384 0.98699999 2.3468469e-38
-0.062011015 0.14507693 0.98699999 2.3495103e-38
-0.057973087 0.14651904 0.98699999 2.3495116e-38
-0.053935163 0.14738432 0.98699999 2.3494038e-38
-0.051050927 0.14796115 0.98699999 2.3494036e-38
-0.141039 0.15055697 0.98699999 2.3476043e-38
-0.13873163 0.15026855 0.98699999 2.3476759e-38
-0.049897235 0.15026855 0.98699999 2.3494033e-38
-0.04629194 0.15098959 0.98699999 2.349331e-38
-0.14536536 0.15488333 0.98699999 2.3475316e-38
-0.14219269 0.15372965 0.98699999 2.3476397e-38
-0.13930847 0.15315279 0.98699999 2.3477475e-38
-0.044705614 0.15372965 0.98699999 2.3491516e-38
-0.041821383 0.15430649 0.98699999 2.3491515e-38
-0.038937148 0.15488333 0.98699999 2.3491869e-38
-0.14657673 0.15730609 0.98699999 2.34753e-38
-0.040667687 0.15661387 0.98699999 2.3489703e-38
-0.038071878 0.15747914 0.98699999 2.3490789e-38
-0.1496917 0.16353603 0.98699999 2.3473155e-38
-0.14709589 0.1618055 0.98699999 2.347422e-38
-0.037206605 0.16007495 0.98699999 2.3489355e-38
-0.033745527 0.16223812 0.98699999 2.3488985e-38
-0.15055697 0.16613182 0.98699999 2.347316e-38
-0.14796115 0.16613182 0.98699999 2.3472792e-38
-0.029419178 0.16613182 0.98699999 2.3489711e-38
-0.025958098 0.16872764 0.98699999 2.3489721e-38
-0.08410126 0.039016049 0.98900002 2.3509886e-38
-0.081500188 0.039016049 0.98900002 2.3507359e-38
-0.078150444 0.038205571 0.99050003 2.3500528e-38
-0.073920533 0.039134398 0.99199998 2.3488261e-38
-0.070441917 0.039134398 0.99199998 2.3483956e-38
-0.073751554 0.041214511 0.98975003 2.3485371e-38
-0.069966234 0.041839968 0.99020004 2.3481079e-38
-0.0669633 0.04174336 0.99199998 2.3480355e-38
-0.17353681 0.046854109 0.98975003 2.3509157e-38
-0.16993657 0.04421819 0.98900002 2.3509884e-38
-0.16576713 0.044262901 0.99000001 2.3509518e-38
-0.16220362 0.046466839 0.98942858 2.350952e-38
-0.15779825 0.045952234 0.98900002 2.3509886e-38
-0.1413248 0.045952234 0.98900002 2.350663e-38
-0.069188468 0.045605429 0.98900002 2.347892e-38
-0.065926641 0.04597459 0.98949999 2.3479269e-38
-0.063484691 0.046091624 0.99199998 2.347927e-38
-0.17694142 0.050678052 0.99100006 2.3503391e-38
-0.16213337 0.049420334 0.98900002 2.3509151e-38
-0.069072857 0.050576359 0.98900002 2.3480345e-38
-0.065893769 0.050287351 0.98900002 2.3480341e-38
-0.063484691 0.05043989 0.99199998 2.3479972e-38
-0.18175755 0.053918503 0.99199998 2.3491509e-38
-0.17860681 0.053755447 0.98900002 2.3497987e-38
-0.068494841 0.053755447 0.98900002 2.3479267e-38
-0.065893769 0.053755447 0.98900002 2.3478904e-38
-0.063484691 0.053918503 0.99199998 2.3478902e-38
-0.18523614 0.058266766 0.99199998 2.3463004e-38
-0.18250841 0.057657052 0.98900002 2.3479973e-38
-0.068494841 0.058090564 0.98900002 2.3476744e-38
-0.065893769 0.058090564 0.98900002 2.3476739e-38
-0.062904924 0.057686999 0.99199998 2.3475657e-38
-0.18523614 0.061745387 0.99199998 2.3455142e-38
-0.18236391 0.062136672 0.98900002 2.3468467e-38
-0.069072857 0.062714688 0.98900002 2.3472425e-38
-0.065893769 0.06242568 0.98900002 2.3471344e-38
-0.063049868 0.06131056 0.99199998 2.3470986e-38
-0.18523614 0.066093653 0.99199998 2.344293e-38
-0.18294191 0.065026753 0.98900002 2.3463009e-38
-0.069361866 0.065893777 0.98900002 2.3470991e-38
-0.0659924 0.065993711 0.99050003 2.3468116e-38
-0.063484691 0.066093653 0.99199998 2.3464884e-38
-0.18523614 0.069572262 0.99199998 2.3439706e-38
-0.18294191 0.071095914 0.98900002 2.3448297e-38
-0.069361866 0.070228897 0.98900002 2.3472058e-38
-0.066067182 0.069882087 0.98900002 2.347026e-38
-0.063484691 0.069572262 0.99199998 2.3465944e-38
-0.18294191 0.073696986 0.98900002 2.3446865e-38
-0.069361866 0.07456401 0.98900002 2.3469179e-38
-0.065838717 0.074177921 0.99080002 2.3461621e-38
-0.18294191 0.078899123 0.98900002 2.344435e-38
-0.069361866 0.078032099 0.98900002 2.346738e-38
-0.065992393 0.078150451 0.99049997 2.3458011e-38
-0.18221363 0.081562653 0.98975003 2.3443662e-38
-0.069361866 0.081500188 0.98900002 2.3459465e-38
-0.066093653 0.081747405 0.99199998 2.3450451e-38
-0.18157431 0.086007141 0.99100006 2.3442948e-38
-0.17947383 0.087569356 0.98900002 2.3452648e-38
-0.069361866 0.085835308 0.98900002 2.3362944e-38
-0.066093653 0.086095683 0.99200004 2.3351068e-38
-0.069361866 0.090170428 0.98900002 2.3261769e-38
-0.066383533 0.090154052 0.99199998 2.3438955e-38
-0.18175754 0.093052901 0.99199998 2.3435349e-38
-0.07029815 0.093733206 0.98999995 2.344219e-38
-0.0669633 0.093052901 0.99199998 2.3443307e-38
-0.17734149 0.097494684 0.99000001 2.1400606e-38
-0.17340466 0.098840654 0.98900002 2.2685929e-38
-0.073696986 0.099707678 0.98900002 2.344905e-38
-0.070877038 0.097493798 0.99000001 2.3445803e-38
-0.17653961 0.10001013 0.99199998 2.3429972e-38
-0.17393064 0.10087979 0.99199998 2.3153009e-38
-0.17019431 0.10246523 0.99050003 2.3150134e-38
-0.16646847 0.10230876 0.98900002 2.3334875e-38
-0.16248016 0.10248216 0.98900002 2.3446516e-38
-0.072939105 0.10246392 0.99050003 2.3449396e-38
-0.070441917 0.10001013 0.99199998 2.3449057e-38
-0.1695824 0.10522804 0.99199998 2.3430333e-38
-0.16645165 0.10627162 0.99200004 2.3430693e-38
-0.16178656 0.10560345 0.98900002 2.3439674e-38
-0.15779825 0.10577685 0.98900002 2.3456947e-38
-0.15461916 0.10606585 0.98900002 2.3455861e-38
-0.072939105 0.10593726 0.99049997 2.3458045e-38
-0.16436447 0.10870666 0.99199998 2.3425676e-38
-0.16163388 0.10949413 0.99125004 2.343823e-38
-0.15779825 0.10924494 0.98900002 2.3451572e-38
-0.15433013 0.11011197 0.98900002 2.34555e-38
-0.15021178 0.11032872 0.98899996 2.3452652e-38
-0.14652695 0.11097898 0.98900002 2.345337e-38
-0.074039012 0.10975892 0.99028569 2.34645e-38
-0.16146564 0.11276504 0.99199998 2.3434632e-38
-0.15827692 0.11392458 0.99200004 2.3442923e-38
-0.15468191 0.11470811 0.99125004 2.3447587e-38
-0.14999503 0.11444708 0.98900002 2.3451905e-38
-0.14565992 0.11444708 0.98900002 2.3453719e-38
-0.14305884 0.11444708 0.98900002 2.345444e-38
-0.074524723 0.11413357 0.99080002 2.3472045e-38
-0.15358077 0.11809891 0.99200004 2.3442559e-38
-0.14924175 0.11800525 0.98975003 2.3448673e-38
-0.14565992 0.11791517 0.98900002 2.3454431e-38
-0.14305884 0.11791517 0.98900002 2.3458384e-38
-0.074732982 0.11818408 0.99125004 2.346378e-38
-0.15305898 0.12175146 0.99199998 2.3434311e-38
-0.14913659 0.12205076 0.99020004 2.3448335e-38
-0.14565992 0.12225028 0.98900002 2.3456956e-38
-0.14305884 0.12225029 0.98900002 2.3459468e-38
-0.077165082 0.12225029 0.98900002 2.3462715e-38
-0.074872591 0.12212386 0.99080002 2.3470262e-38
-0.15262415 0.1256649 0.99199998 2.3448321e-38
-0.14975432 0.12644759 0.99200004 2.3455518e-38
-0.14565992 0.12658539 0.98900002 2.3459838e-38
-0.14219183 0.12658539 0.98900002 2.3459837e-38
-0.13959076 0.12658539 0.98900002 2.345948e-38
-0.077165075 0.12658539 0.98900002 2.3472049e-38
-0.073617972 0.12617281 0.99087501 2.3276164e-38
-0.15305898 0.130448 0.99199998 2.3462002e-38
-0.14958036 0.130448 0.99199998 2.3461999e-38
-0.14565992 0.13005349 0.98900002 2.3461276e-38
-0.14219183 0.13005351 0.98900002 2.3461999e-38
-0.13785672 0.13005351 0.98900002 2.3463072e-38
-0.13438861 0.13005349 0.98900002 2.3464157e-38
-0.077743098 0.13034251 0.98900002 2.3460196e-38
-0.07456401 0.13005351 0.98900002 2.3465914e-38
-0.070333652 0.1302503 0.99049997 2.3485384e-38
-0.0669633 0.13131765 0.99199998 2.3496549e-38
-0.15218931 0.1339266 0.99199998 2.3464147e-38
-0.14958036 0.1339266 0.99199998 2.3465945e-38
-0.14588216 0.13372409 0.99050003 2.346774e-38
-0.14219183 0.13352159 0.98900002 2.3469539e-38
-0.13785671 0.13352159 0.98900002 2.3472072e-38
-0.13438861 0.13352159 0.98900002 2.3472786e-38
-0.078032099 0.13265456 0.98900002 2.3473848e-38
-0.074275002 0.13323258 0.98900002 2.3492218e-38
-0.070228897 0.13352159 0.98900002 2.3496547e-38
-0.066043027 0.13382469 0.99125004 2.3498349e-38
-0.063484691 0.13479626 0.99199998 2.3498713e-38
-0.14958036 0.13740522 0.99199998 2.3459052e-38
-0.1456643 0.13767612 0.99020004 2.3462676e-38
-0.14219183 0.13785672 0.98900002 2.3460889e-38
-0.13843474 0.13727871 0.98900002 2.3472032e-38
-0.069361866 0.13612267 0.98900002 2.3496907e-38
-0.065604769 0.13670069 0.98900002 2.3496912e-38
-0.062488794 0.13799435 0.98999995 2.3496195e-38
-0.058506805 0.13871761 0.99020004 2.3495465e-38
-0.14958036 0.14175348 0.99200004 2.3335591e-38
-0.14610001 0.14192882 0.99080002 2.3424542e-38
-0.14219183 0.14219183 0.98900002 2.3418075e-38
-0.13959076 0.1413248 0.98900002 2.3418081e-38
-0.061558656 0.1413248 0.98900002 2.349547e-38
-0.057541039 0.14168438 0.98949999 2.3494749e-38
-0.054271802 0.14197133 0.99049997 2.3495838e-38
-0.05043989 0.14349279 0.99199998 2.3494027e-38
-0.14871071 0.1452321 0.99199998 2.3462719e-38
-0.14599195 0.14599195 0.99125004 2.3464156e-38
-0.14219183 0.14565992 0.98900002 2.3463437e-38
-0.057223536 0.1447929 0.98900002 2.3494038e-38
-0.053466439 0.14537093 0.98900002 2.3494038e-38
-0.050324827 0.14576973 0.98975003 2.3494031e-38
-0.046410557 0.1461868 0.99140006 2.3492224e-38
-0.042613011 0.1469714 0.99199998 2.3492588e-38
-0.14871071 0.15045002 0.99199998 2.3473155e-38
-0.14588128 0.15022078 0.99050009 2.3473158e-38
-0.14305884 0.14999503 0.98900002 2.3473879e-38
-0.049420331 0.14826098 0.98900002 2.3494756e-38
-0.045605429 0.1489546 0.98900002 2.3493305e-38
-0.0416798 0.15022078 0.99049997 2.3492229e-38
-0.039094951 0.1502966 0.99100006 2.3492229e-38
-0.15305898 0.15479828 0.99199998 2.3474235e-38
-0.14913554 0.15399508 0.99020004 2.3474595e-38
-0.14565992 0.15346313 0.98900002 2.3473512e-38
-0.040750097 0.15346313 0.98900002 2.3492592e-38
-0.037800331 0.15381226 0.99124998 2.3490786e-38
-0.15740725 0.15914655 0.99199998 2.3469573e-38
-0.15435323 0.15840636 0.99100006 2.3473509e-38
-0.15086205 0.15779825 0.98900002 2.3474597e-38
-0.037282001 0.15693122 0.98900002 2.3490434e-38
-0.035040073 0.15840636 0.99100006 2.3490441e-38
-0.15434504 0.16198222 0.99020004 2.3473155e-38
-0.15103546 0.16178656 0.98900002 2.3474951e-38
-0.032690313 0.16113952 0.99000001 2.3491147e-38
-0.029687965 0.16267584 0.99019998 2.3489708e-38
-0.026959252 0.16262516 0.99199998 2.3487567e-38
-0.02861177 0.16560145 0.98900002 2.3492231e-38
-0.026036998 0.16576715 0.98999995 2.3489359e-38
-0.08199463 0.037508182 0.995 2.3509524e-38
-0.07414408 0.037508182 0.99500006 2.3492941e-38
-0.069782667 0.038380466 0.995 2.3484313e-38
-0.067165814 0.039252751 0.995 2.3481794e-38
-0.065421246 0.041869599 0.995 2.3479993e-38
-0.063676685 0.042741884 0.995 2.3479273e-38
-0.17707351 0.047975581 0.995 2.3503396e-38
-0.061932109 0.046231017 0.99500006 2.3476397e-38
-0.18056265 0.051464718 0.995 2.3499784e-38
-0.17881808 0.049720149 0.995 2.3502317e-38
-0.061932109 0.050592434 0.995 2.347783e-38
-0.18492407 0.054081567 0.995 2.3481432e-38
-0.061932109 0.054081567 0.995 2.3478902e-38
-0.18666863 0.057570696 0.995 2.3463382e-38
-0.061932109 0.056698415 0.995 2.3475663e-38
-0.18754093 0.061932117 0.99500006 2.3438576e-38
-0.061932109 0.062804401 0.995 2.3470265e-38
-0.18754092 0.06629353 0.995 2.3433207e-38
-0.061932109 0.06629353 0.995 2.3463444e-38
-0.061932109 0.069782667 0.995 2.3456261e-38
-0.18579634 0.072399512 0.995 2.343862e-38
-0.063240543 0.073707938 0.995 2.3458381e-38
-0.063676685 0.078505501 0.995 2.3448283e-38
-0.063676685 0.081122346 0.995 2.3258853e-38
-0.18405178 0.08548376 0.995 2.3432142e-38
-0.1840518 0.089845181 0.99500006 2.3434297e-38
-0.065421246 0.091589741 0.995 2.3437524e-38
-0.067165814 0.095078878 0.995 2.3444375e-38
-0.068910383 0.098568007 0.995 2.3447218e-38
-0.17474744 0.10322019 0.99500006 2.3153381e-38
-0.070073426 0.10205714 0.99500006 2.3454785e-38
-0.17358439 0.10554628 0.995 2.3420287e-38
-0.1712583 0.10670932 0.99500006 2.3245598e-38
-0.070654951 0.10641856 0.995 2.3466316e-38
-0.1689322 0.10961694 0.99500006 2.3436805e-38
-0.1660246 0.11019846 0.99500006 2.3340302e-38
-0.16835068 0.11252454 0.995 2.3446894e-38
-0.16573383 0.11252454 0.995 2.2887974e-38
-0.16311698 0.11426912 0.995 2.3431399e-38
-0.072399512 0.11339682 0.995 2.3474569e-38
-0.16195393 0.11659521 0.99500006 2.3433216e-38
-0.1582322 0.11880498 0.995 2.3434653e-38
-0.072399512 0.11775824 0.99500006 2.3469188e-38
-0.1561387 0.12124739 0.995 2.3430722e-38
-0.072399512 0.12211967 0.995 2.34825e-38
-0.15439415 0.12648107 0.995 2.3445438e-38
-0.069782667 0.12648107 0.995 2.3445737e-38
-0.15439415 0.12822564 0.995 2.3455162e-38
-0.069782667 0.12822564 0.995 2.3470246e-38
-0.066584289 0.12997022 0.99500006 2.3491502e-38
-0.063676685 0.13171478 0.995 2.3498349e-38
-0.15439415 0.13433163 0.995 2.346233e-38
-0.061583199 0.13415717 0.995 2.3496915e-38
-0.15323111 0.13753001 0.99500006 2.3458358e-38
-0.060187545 0.13694848 0.995 2.3496192e-38
-0.05844298 0.13694848 0.995 2.3495462e-38
-0.054953847 0.13869305 0.995 2.3494722e-38
-0.15334742 0.14183326 0.995 2.3426015e-38
-0.053209282 0.14130989 0.995 2.3496194e-38
-0.050592434 0.14218217 0.995 2.3496185e-38
-0.047103301 0.14392674 0.995 2.3492229e-38
-0.15264958 0.14654359 0.995 2.3468105e-38
-0.1503235 0.14683436 0.99500006 2.3467387e-38
-0.044486448 0.14567131 0.995 2.3492954e-38
-0.04157884 0.14625284 0.99500006 2.349295e-38
-0.039252751 0.14654359 0.995 2.3492588e-38
-0.1561387 0.150905 0.995 2.3470279e-38
-0.15323111 0.1503235 0.99500006 2.3469566e-38
-0.15032348 0.14974198 0.99500006 2.3471364e-38
-0.037508182 0.15003273 0.995 2.3490413e-38
-0.035763618 0.150905 0.995 2.3490776e-38
-0.15788329 0.15352187 0.995 2.3471713e-38
-0.15352187 0.15264958 0.995 2.3473153e-38
-0.150905 0.15264958 0.995 2.3474235e-38
-0.035182096 0.15381263 0.99500006 2.3489703e-38
-0.15813251 0.15738483 0.995 2.3471358e-38
-0.033437528 0.15730175 0.995 2.3489352e-38
-0.030529916 0.15875557 0.995 2.3490427e-38
-0.028785348 0.16137241 0.995 2.3487189e-38
-0.02587774 0.16195393 0.99500006 2.3487559e-38
-0.076992378 0.035871446 0.99800003 2.3509886e-38
-0.073492721 0.035871446 0.99800003 2.3508082e-38
-0.070867978 0.035871446 0.99800003 2.3504119e-38
-0.065618493 0.039371099 0.99800003 2.3481072e-38
-0.062993757 0.039371099 0.99800003 2.3477111e-38
-0.061768878 0.041820861 0.99800009 2.3477478e-38
-0.17410775 0.044620581 0.99800003 2.3509876e-38
-0.060369018 0.045495495 0.99800003 2.3477469e-38
-0.058619194 0.046370406 0.99800003 2.3477469e-38
-0.1846067 0.051619884 0.99800003 2.3488264e-38
-0.18198195 0.050744973 0.99800003 2.3496551e-38
-0.17935723 0.048120234 0.99800003 2.350232e-38
-0.060369022 0.049870059 0.99800003 2.3479999e-38
-0.058619194 0.049870059 0.99800003 2.3481436e-38
-0.18810636 0.055119537 0.99800003 2.346488e-38
-0.18635653 0.053369712 0.99800003 2.3477094e-38
-0.060369018 0.054244623 0.99800003 2.3479982e-38
-0.058619194 0.053369712 0.99800003 2.3481441e-38
-0.18898126 0.05774428 0.99800003 2.3449016e-38
-0.060369018 0.05774428 0.99800003 2.3471346e-38
-0.1898562 0.062118843 0.99800003 2.3342444e-38
-0.060369022 0.062118843 0.99800003 2.3469186e-38
-0.18985619 0.065618493 0.99800003 2.343859e-38
-0.060369018 0.066493407 0.99800003 2.3461645e-38
-0.18810636 0.06911815 0.99800003 2.3435391e-38
-0.060369018 0.069993064 0.99800003 2.3266467e-38
-0.058619194 0.069993064 0.99800003 2.3441457e-38
-0.18635653 0.074367635 0.99800003 2.3442192e-38
-0.060952298 0.073784366 0.99800003 2.2899459e-38
-0.18635653 0.076117463 0.99800003 2.3446155e-38
-0.061418917 0.077517323 0.99800009 2.3162738e-38
-0.062993757 0.082241856 0.99800003 2.3250563e-38
-0.063868672 0.085741505 0.99800003 2.3438589e-38
-0.18635653 0.089241162 0.99800003 2.3163829e-38
-0.1776074 0.10236486 0.99800003 2.3433212e-38
-0.06911815 0.10236486 0.99800003 2.3459464e-38
-0.1776074 0.10411468 0.99800003 2.3439695e-38
-0.17498267 0.10673942 0.99800003 2.2705389e-38
-0.069118157 0.10586451 0.99800003 2.3469189e-38
-0.17323282 0.11023907 0.99800003 2.3451593e-38
-0.17060809 0.11111399 0.99800003 2.3444727e-38
-0.070867978 0.11023907 0.99800003 2.3472059e-38
-0.17235792 0.11373873 0.99800003 2.3269321e-38
-0.17002481 0.11403038 0.99800003 2.344546e-38
-0.16623354 0.11461364 0.99800003 2.3169956e-38
-0.069993064 0.11373873 0.99800003 2.3474937e-38
-0.17235792 0.11898822 0.99800003 2.3449023e-38
-0.16973317 0.11811329 0.99800009 2.3446508e-38
-0.16623354 0.1181133 0.99800009 2.3353635e-38
-0.16302553 0.11927985 0.99800003 2.3431788e-38
-0.069993064 0.1181133 0.99800009 2.3474225e-38
-0.17235792 0.12248787 0.99800003 2.3448667e-38
-0.16973317 0.12248787 0.99800003 2.3450468e-38
-0.16623354 0.12248787 0.99800003 2.3450866e-38
-0.16185896 0.12248787 0.99800009 2.3255655e-38
-0.15777603 0.12277951 0.99800003 2.3432122e-38
-0.069993064 0.12248787 0.99800003 2.3482857e-38
-0.067368321 0.12336278 0.99800003 2.3382377e-38
-0.17235792 0.12511261 0.99800003 2.3440388e-38
-0.16973318 0.12598753 0.99800003 2.3443634e-38
-0.16623354 0.12598753 0.99800003 2.3452627e-38
-0.16185896 0.12598753 0.99800009 2.3452623e-38
-0.15748438 0.12598751 0.99800003 2.3443285e-38
-0.069993064 0.12511261 0.99800003 2.3457291e-38
-0.066785052 0.12627918 0.99800003 2.3459059e-38
-0.16944155 0.12919554 0.99800003 2.343061e-38
-0.16710845 0.12948719 0.99800003 2.3444679e-38
-0.16150899 0.1293122 0.99800009 2.3457668e-38
-0.15748438 0.12948719 0.99800003 2.3457676e-38
-0.065618493 0.12948719 0.99800003 2.3492232e-38
-0.062556304 0.12992464 0.99800003 2.3494391e-38
-0.1605466 0.13342428 0.99800003 2.3447941e-38
-0.15748438 0.13386175 0.99800009 2.3456579e-38
-0.061243933 0.13211191 0.99800003 2.3496198e-38
-0.057919264 0.1342117 0.99800009 2.3497271e-38
-0.055119537 0.13561156 0.99800003 2.3496175e-38
-0.16010913 0.13823631 0.99800003 2.3441456e-38
-0.15748438 0.13823631 0.99800003 2.3449016e-38
-0.15485966 0.13911122 0.99800003 2.3442901e-38
-0.056869365 0.13736139 0.99800003 2.3495462e-38
-0.054244623 0.13823631 0.99800003 2.3494725e-38
-0.051619884 0.13911122 0.99800003 2.3495108e-38
-0.16010913 0.14173597 0.99800003 2.3433541e-38
-0.15748438 0.14173597 0.99800003 2.3424923e-38
-0.049432602 0.1412985 0.99800003 2.3494031e-38
-0.045495495 0.14261088 0.99800003 2.3493322e-38
-0.041995838 0.14261088 0.99800003 2.3492603e-38
-0.16080907 0.1464605 0.99800009 2.3463801e-38
-0.15748438 0.14611053 0.99800009 2.3460563e-38
-0.15485966 0.14611052 0.99800003 2.345948e-38
-0.044620581 0.14436069 0.99800003 2.3494038e-38
-0.041995838 0.14436069 0.99800003 2.3493315e-38
-0.038204551 0.14611052 0.99800003 2.3491865e-38
-0.035871446 0.14786035 0.99800003 2.3491861e-38
-0.16098404 0.1504851 0.99800003 2.3470271e-38
-0.15777603 0.15019345 0.99800003 2.3470278e-38
-0.15485966 0.14961018 0.99800003 2.3469566e-38
-0.034121618 0.15048508 0.99800003 2.3490075e-38
-0.030621966 0.15136001 0.99800003 2.3489347e-38
-0.16885826 0.15398476 0.99800003 2.3464841e-38
-0.16652517 0.1542764 0.99800003 2.3469573e-38
-0.16273388 0.15398476 0.99800003 2.3469196e-38
-0.032955069 0.15369312 0.99800003 2.3488631e-38
-0.030621966 0.15398476 0.99800003 2.3488631e-38
-0.029455416 0.15719275 0.99800003 2.3490779e-38
-0.026539039 0.15777603 0.99800003 2.3488994e-38
-0.073713645 0.03422419 1.001 2.3509886e-38
-0.071081005 0.03422419 1.001 2.3509164e-38
-0.065132827 0.034326758 1.0039999 2.3494397e-38
-0.0624923 0.034326758 1.0039999 2.3491136e-38
-0.0694298 0.036910735 1.0025001 2.3490794e-38
-0.065914378 0.036910735 1.0024999 2.348755e-38
-0.061362457 0.037449092 1.0028 2.3481431e-38
-0.05804738 0.038698036 1.00325 2.3473858e-38
-0.055450913 0.038727622 1.0039999 2.3473857e-38
-0.16936587 0.042999625 1.001 2.3509881e-38
-0.16673324 0.042999625 1.001 2.3509881e-38
-0.057917859 0.042122081 1.001 2.3474951e-38
-0.055450913 0.042248316 1.0039999 2.3475306e-38
-0.1781413 0.046509795 1.001 2.3503755e-38
-0.057625346 0.045339741 1.0010002 2.3476749e-38
-0.054864135 0.046062402 1.0039999 2.3471004e-38
-0.18923725 0.051930223 1.0039999 2.3469549e-38
-0.18631797 0.050093606 1.0025001 2.3488632e-38
-0.18318622 0.048946343 1.003 2.3499803e-38
-0.057040315 0.050019972 1.0010002 2.3481797e-38
-0.054680504 0.049758893 1.0028 2.3474957e-38
-0.19275795 0.055450913 1.0039999 2.3429668e-38
-0.19003211 0.054168649 1.0020001 2.345622e-38
-0.057625346 0.054700203 1.0010002 2.3474232e-38
-0.055450913 0.054570742 1.0039999 2.3466302e-38
-0.19275795 0.058091432 1.0039999 2.3427076e-38
-0.1904269 0.057040315 1.001 2.3438611e-38
-0.058003332 0.058004647 1.0025001 2.3370857e-38
-0.19218199 0.061428033 1.001 2.3438967e-38
-0.058003329 0.061520077 1.0025001 2.3463786e-38
-0.19218199 0.064060666 1.001 2.3443991e-38
-0.058003329 0.065914378 1.0025001 2.3459847e-38
-0.057040315 0.070203468 1.001 2.3440377e-38
-0.057917859 0.073713645 1.001 2.3431751e-38
-0.060550489 0.07985644 1.001 2.3431407e-38
-0.05812756 0.077797152 1.0016 2.3429548e-38
-0.1874769 0.083616458 1.0039999 2.3436111e-38
-0.061196011 0.082864866 1.0020001 2.3436396e-38
-0.057211258 0.080095768 1.0039999 2.3434641e-38
-0.18691674 0.08599925 1.001 2.3341747e-38
-0.06239894 0.086129427 1.0025001 2.3438569e-38
-0.064156659 0.089644864 1.0025001 2.3446148e-38
-0.18603919 0.09301959 1.001 2.3442923e-38
-0.18395621 0.095938884 1.0039999 2.3436795e-38
-0.065914378 0.094918013 1.0025001 2.3450499e-38
-0.18192366 0.09843345 1.0025001 2.344007e-38
-0.067672089 0.09843345 1.0025001 2.3452629e-38
-0.17989638 0.10179503 1.001 2.3441874e-38
-0.067773342 0.1021001 1.0039999 2.3465221e-38
-0.17755628 0.10735281 1.0010002 2.3453381e-38
-0.0669882 0.10602056 1.0028 2.3471351e-38
-0.17753069 0.11073615 1.0025001 2.3461657e-38
-0.069325924 0.11057046 1.001 2.3473485e-38
-0.066791914 0.10985596 1.0025001 2.3475299e-38
-0.17732541 0.11401605 1.003 2.3461279e-38
-0.17463112 0.11408064 1.001 2.3459474e-38
-0.067570835 0.11408064 1.001 2.3481067e-38
-0.17691483 0.11794321 1.0039999 2.3452294e-38
-0.17404608 0.1172983 1.0010002 2.3454062e-38
-0.067119062 0.11811827 1.003 2.3481047e-38
-0.17691483 0.12146391 1.0039999 2.3450501e-38
-0.17463112 0.12197852 1.0010002 2.3449026e-38
-0.065669015 0.1218949 1.002125 2.3469524e-38
-0.0624923 0.12234409 1.0039999 2.3455505e-38
-0.17691484 0.12586479 1.0039999 2.3447204e-38
-0.17404608 0.12665877 1.0010002 2.3443638e-38
-0.0646457 0.12607373 1.0010002 2.3474189e-38
-0.061519638 0.12567499 1.0025001 2.3482507e-38
-0.058091432 0.12674496 1.0039999 2.3494376e-38
-0.17691483 0.13026565 1.0039999 2.3418052e-38
-0.17375356 0.12987641 1.001 2.3421701e-38
-0.17112094 0.13075395 1.001 2.3423074e-38
-0.16527067 0.13016891 1.0010002 2.3449726e-38
-0.061428033 0.12899886 1.001 2.349547e-38
-0.057960592 0.12997305 1.00175 2.3496542e-38
-0.054808907 0.13042842 1.003 2.3493305e-38
-0.17427431 0.13378634 1.0039999 2.3443224e-38
-0.17037162 0.13348718 1.00175 2.3431039e-38
-0.16593853 0.13345367 1.0015 2.3425959e-38
-0.16234551 0.13426413 1.001 2.3436041e-38
-0.057040315 0.13250904 1.001 2.3497277e-38
-0.054447792 0.13348585 1.00175 2.3496182e-38
-0.051291719 0.13394561 1.003 2.3495462e-38
-0.1742743 0.13642685 1.0039999 2.3425649e-38
-0.16987343 0.1381872 1.0039998 2.3338112e-38
-0.16509983 0.13767102 1.0028 2.3436402e-38
-0.16234551 0.13777432 1.0010002 2.3437139e-38
-0.053530145 0.13689676 1.001 2.3495812e-38
-0.049818669 0.13760588 1.001375 2.3494749e-38
-0.046015941 0.13922139 1.003 2.3492957e-38
-0.04312849 0.13994755 1.0039999 2.3494397e-38
-0.16987345 0.14258808 1.0039999 2.3080626e-38
-0.1645924 0.14258808 1.0039999 2.3436798e-38
-0.16234551 0.14216202 1.001 2.3435358e-38
-0.045632251 0.14128448 1.001 2.3493677e-38
-0.042122081 0.14128448 1.001 2.3492595e-38
-0.037770309 0.14318246 1.0020001 2.3492954e-38
-0.034326758 0.14346825 1.0039999 2.3491143e-38
-0.17339413 0.14698893 1.0039999 2.3456583e-38
-0.17012399 0.14584489 1.0034 2.3464869e-38
-0.16570349 0.14602233 1.0022 2.3463803e-38
-0.16234551 0.14479466 1.001 2.3463091e-38
-0.037734363 0.14479466 1.001 2.3488987e-38
-0.034240406 0.14574452 1.0015 2.349043e-38
-0.030806065 0.14698893 1.0039999 2.3491146e-38
-0.17027305 0.14988773 1.0022 2.3466274e-38
-0.16591091 0.15010929 1.0013334 2.3467756e-38
-0.033054136 0.14888985 1.0010002 2.3491164e-38
-0.029881181 0.15028346 1.0025001 2.3490782e-38
-0.027244609 0.15116231 1.0025001 2.3488973e-38
-0.02895893 0.15444762 1.001 2.3490792e-38
-0.026181299 0.15410416 1.0022 2.3488999e-38
-0.069741458 0.034429327 1.007 2.3502323e-38
-0.066651642 0.03310512 1.007 2.3415165e-38
-0.061501961 0.033252258 1.007 2.349835e-38
-0.058265015 0.033546522 1.007 2.3494033e-38
-0.055616606 0.034429327 1.007 2.348828e-38
-0.0812179 0.036194935 1.007 2.3509886e-38
-0.058265015 0.036194935 1.007 2.3483223e-38
-0.053497877 0.038313661 1.007 2.3472428e-38
-0.052968197 0.042374555 1.007 2.3467026e-38
-0.18538868 0.046788573 1.007 2.3509525e-38
-0.18185747 0.046788573 1.007 2.3508081e-38
-0.17744346 0.045022968 1.007 2.3507716e-38
-0.11829564 0.046788573 1.007 2.3504467e-38
-0.052673928 0.045611501 1.007 2.3468822e-38
-0.18980271 0.049436983 1.007 2.3485366e-38
-0.052085392 0.049436983 1.007 2.3465194e-38
-0.19333391 0.053851001 1.007 2.3439217e-38
-0.19156832 0.052085392 1.007 2.3458748e-38
-0.053851001 0.053851001 1.007 2.3467743e-38
-0.19509953 0.058265015 1.007 2.1421472e-38
-0.055616606 0.058265015 1.007 2.3453689e-38
-0.055616606 0.061796229 1.007 2.3454048e-38
-0.055616606 0.067975856 1.007 2.344324e-38
-0.054733805 0.070624262 1.007 2.3437518e-38
-0.18980271 0.07415548 1.007 2.3441485e-38
-0.055028073 0.073861212 1.007 2.3432507e-38
-0.18921417 0.077980958 1.007 2.344399e-38
-0.055616606 0.076803878 1.007 2.3437883e-38
-0.1880371 0.082100704 1.007 2.3433568e-38
-0.059147816 0.082100704 1.007 2.3434643e-38
-0.060913429 0.085631922 1.007 2.34472e-38
-0.06267903 0.089163132 1.007 2.3449043e-38
-0.064444639 0.09269435 1.007 2.3447968e-38
-0.18450588 0.097991161 1.007 2.3438969e-38
-0.06621024 0.098873965 1.007 2.3458745e-38
-0.18274027 0.10240518 1.007 2.3445115e-38
-0.06621024 0.10240518 1.007 2.3470635e-38
-0.18097468 0.10593639 1.007 2.3448694e-38
-0.064444639 0.10593639 1.007 2.3472792e-38
-0.18185747 0.10946761 1.007 2.3454078e-38
-0.064444639 0.10946761 1.007 2.3476752e-38
-0.18097468 0.11299881 1.007 2.3455892e-38
-0.17920905 0.11564723 1.007 2.3457673e-38
-0.065327436 0.11388162 1.007 2.3481788e-38
-0.18097468 0.11917844 1.007 2.3455161e-38
-0.17920905 0.11829564 1.007 2.3450855e-38
-0.065033175 0.11800137 1.007 2.3486068e-38
-0.06267903 0.11917844 1.007 2.347567e-38
-0.18097468 0.12182686 1.007 2.3451929e-38
-0.17920905 0.12182686 1.007 2.3451222e-38
-0.061501961 0.12153259 1.007 2.300567e-38
-0.059147816 0.12270965 1.007 2.3482834e-38
-0.18097468 0.12535806 1.007 2.3446171e-38
-0.17920905 0.12535806 1.007 2.344756e-38
-0.058265015 0.12447526 1.007 2.3489337e-38
-0.055616606 0.12624086 1.007 2.3494382e-38
-0.18097469 0.1297721 1.007 2.3431697e-38
-0.17920905 0.1297721 1.007 2.3426693e-38
-0.053851001 0.12933068 1.007 2.3494747e-38
-0.050319787 0.13153769 1.007 2.3495835e-38
-0.18097468 0.13418609 1.007 2.3447908e-38
-0.17832625 0.13418609 1.007 2.3446864e-38
-0.049142715 0.13389182 1.007 2.3495102e-38
-0.046788573 0.13506891 1.007 2.3493667e-38
-0.18097468 0.1368345 1.007 1.0836589e-38
-0.17832625 0.13771731 1.007 1.4972066e-38
-0.17479505 0.13860011 1.007 2.2783835e-38
-0.045611501 0.13742304 1.007 2.3493311e-38
-0.042374559 0.13860011 1.007 2.3491146e-38
-0.17814969 0.14177822 1.007 8.9094837e-39
-0.17479506 0.14213133 1.007 2.2611021e-38
-0.16684982 0.14213133 1.007 2.343177e-38
-0.041491754 0.14036572 1.007 2.3492948e-38
-0.039726146 0.14213133 1.007 2.3492589e-38
-0.032663722 0.14389692 1.007 2.3492584e-38
-0.17744346 0.14566255 1.007 1.3775352e-39
-0.030015312 0.14654535 1.007 2.3490427e-38
-0.029132508 0.14919375 1.007 2.349114e-38
-0.069063798 0.030990165 1.01 2.3509886e-38
-0.06552206 0.030104732 1.01 2.3509886e-38
-0.061980329 0.030104732 1.01 2.3508805e-38
-0.058438599 0.030990165 1.01 2.3505187e-38
-0.055782299 0.030990165 1.01 2.3504109e-38
-0.073490962 0.03276103 1.01 2.3509886e-38
-0.070834666 0.03276103 1.01 2.3509886e-38
-0.054011434 0.033646464 1.01 2.3491506e-38
-0.053126 0.036302764 1.01 2.3479263e-38
-0.050469697 0.038073629 1.01 2.3467031e-38
-0.12130436 0.043386228 1.01 2.3509886e-38
-0.1195335 0.043386228 1.01 2.3509886e-38
-0.106252 0.043386228 1.01 2.3509886e-38
-0.10182483 0.043386232 1.01 2.3509886e-38
-0.050469697 0.042500798 1.01 2.3459105e-38
-0.19302446 0.046927962 1.01 2.3490035e-38
-0.18948272 0.046042532 1.01 2.3508421e-38
-0.18594098 0.045157097 1.01 2.3509886e-38
-0.18239926 0.045157097 1.01 2.3509881e-38
-0.17974296 0.045157097 1.01 2.3508797e-38
-0.12130436 0.046042532 1.01 2.3505549e-38
-0.11864807 0.045157097 1.01 2.3508428e-38
-0.106252 0.045157097 1.01 2.3509876e-38
-0.10271026 0.045157097 1.01 2.350628e-38
-0.050469697 0.046042532 1.01 2.3459812e-38
-0.19426405 0.04940718 1.0100001 2.3468423e-38
-0.050469697 0.049584262 1.01 2.3460152e-38
-0.19745162 0.055782299 1.01 2.3445073e-38
-0.19523804 0.053568717 1.01 2.3160924e-38
-0.052240565 0.054011434 1.01 2.3461971e-38
-0.19745162 0.058438599 1.01 2.345698e-38
-0.054011431 0.058438599 1.01 2.3451529e-38
-0.19568075 0.061094899 1.01 2.3357218e-38
-0.054011431 0.061980329 1.01 2.2801476e-38
-0.054896865 0.06552206 1.01 2.2157878e-38
-0.19213903 0.069949232 1.01 2.3439309e-38
-0.19036815 0.071720093 1.01 2.3437179e-38
-0.054011431 0.068178363 1.01 2.1315538e-38
-0.054011431 0.075261831 1.01 2.3438251e-38
-0.054896865 0.077918127 1.01 2.3445074e-38
-0.18977785 0.081164718 1.01 2.3437514e-38
-0.061094899 0.087657891 1.01 2.3455507e-38
-0.05932403 0.084116161 1.01 2.3453339e-38
-0.062865764 0.091199629 1.01 2.3455547e-38
-0.064636625 0.094741359 1.01 2.3456273e-38
-0.064636625 0.097397663 1.01 2.3460914e-38
-0.18505555 0.10182483 1.01 2.3442592e-38
-0.064636633 0.10182483 1.01 2.3468116e-38
-0.18505555 0.106252 1.01 2.3449428e-38
-0.18328469 0.106252 1.01 2.3448334e-38
-0.18505555 0.10979372 1.01 2.3364767e-38
-0.18505555 0.11333546 1.01 2.3000662e-38
-0.18284197 0.11466361 1.01 2.3452291e-38
-0.062423047 0.11466361 1.01 2.3484637e-38
-0.18505555 0.1195335 1.01 2.3463433e-38
-0.18269441 0.11835292 1.01 2.3457682e-38
-0.061685186 0.11835292 1.01 2.2741684e-38
-0.058438599 0.11864807 1.01 2.3278987e-38
-0.18505555 0.12218979 1.01 2.3454763e-38
-0.18328469 0.12218979 1.01 2.3455171e-38
-0.058143459 0.12189465 1.01 2.3465521e-38
-0.055782299 0.12307522 1.01 2.3492235e-38
-0.18505555 0.12573153 1.01 2.3261004e-38
-0.18328469 0.12573153 1.01 2.3446532e-38
-0.054896865 0.12573153 1.01 2.3493303e-38
-0.18505555 0.13015869 1.01 1.4424638e-38
-0.18328469 0.13015869 1.01 2.3241196e-38
-0.052240565 0.12927327 1.01 2.3493324e-38
-0.049879409 0.13015871 1.01 2.3494398e-38
-0.046927962 0.13192956 1.01 2.3494383e-38
-0.18328469 0.13458586 1.01 1.8096256e-38
-0.045747392 0.13429072 1.01 2.3493661e-38
-0.043386228 0.1354713 1.01 2.3492228e-38
-0.18151383 0.13901302 1.01 9.1835496e-40
-0.042500798 0.13724217 1.01 2.3491503e-38
-0.039844498 0.13901302 1.01 2.3491143e-38
-0.037719458 0.14149225 1.0100001 2.3491868e-38
-0.034531899 0.14255476 1.01 2.3490071e-38
-0.03010473 0.14521106 1.01 2.3490427e-38
-0.065716684 0.027529962 1.013 2.3509886e-38
-0.062164433 0.027529962 1.013 2.3509886e-38
-0.058612179 0.027529962 1.013 2.3509886e-38
-0.070157006 0.029898133 1.013 2.3509886e-38
-0.058612179 0.02930609 1.013 2.3509886e-38
-0.05417186 0.030490175 1.013 2.3500867e-38
-0.078149572 0.034634467 1.013 2.3509886e-38
-0.075485386 0.032858342 1.013 2.3509886e-38
-0.052395735 0.032858342 1.013 2.3486455e-38
-0.050027572 0.034042425 1.013 2.3481763e-38
-0.10123922 0.039962847 1.013 2.3509886e-38
-0.09058246 0.039962847 1.013 2.3509886e-38
-0.086142138 0.038186722 1.013 2.3509886e-38
-0.048843484 0.038186725 1.013 2.3463413e-38
-0.19004554 0.043515101 1.013 2.3509876e-38
-0.18649329 0.043515101 1.013 2.3509886e-38
-0.18116492 0.043515101 1.013 2.3509886e-38
-0.1740604 0.043515101 1.013 2.3509881e-38
-0.126105 0.043515101 1.013 2.3509886e-38
-0.1234408 0.043515101 1.013 2.3509886e-38
-0.11811242 0.043515101 1.013 2.3509886e-38
-0.11011985 0.043515101 1.013 2.3509886e-38
-0.10567953 0.041738976 1.013 2.3509886e-38
-0.10212728 0.04173898 1.013 2.3509886e-38
-0.097982988 0.042331021 1.013 2.3509879e-38
-0.095022775 0.041738976 1.013 2.3509153e-38
-0.09058246 0.041738976 1.013 2.3506272e-38
-0.087918267 0.041738976 1.013 2.3500888e-38
-0.048843481 0.042627037 1.013 2.3458032e-38
-0.19715005 0.047067355 1.013 2.3466691e-38
-0.19359779 0.04529123 1.013 2.3497942e-38
-0.12876917 0.04529123 1.013 2.3509886e-38
-0.12580898 0.045883276 1.013 2.3509886e-38
-0.1234408 0.046179295 1.013 2.350879e-38
-0.11633629 0.04529123 1.013 2.3509886e-38
-0.11367211 0.04529123 1.013 2.3509886e-38
-0.11011985 0.04529123 1.013 2.3509886e-38
-0.048843481 0.046179295 1.013 2.3453354e-38
-0.19863015 0.050027572 1.013 2.3458427e-38
-0.048843481 0.049731545 1.013 2.3456949e-38
-0.19863015 0.052987777 1.013 2.3349665e-38
-0.050619613 0.05417186 1.013 2.197964e-38
-0.052395735 0.058612179 1.013 2.3449366e-38
-0.05061961 0.058612179 1.013 2.3076624e-38
-0.052395735 0.062164433 1.013 2.3435332e-38
-0.05061961 0.061276369 1.013 2.3438927e-38
-0.052395735 0.065716684 1.013 2.3426009e-38
-0.052395739 0.070157006 1.013 2.3434287e-38
-0.052395735 0.073709257 1.013 2.3442887e-38
-0.19270973 0.078149572 1.013 2.344365e-38
-0.05417186 0.079037629 1.013 2.3449746e-38
-0.057724115 0.082589887 1.013 2.3441846e-38
-0.055947989 0.080813758 1.013 2.3438225e-38
-0.1909336 0.084366016 1.013 2.3438271e-38
-0.061276369 0.089694396 1.013 2.3456245e-38
-0.063052498 0.093246646 1.013 2.3455172e-38
-0.18738136 0.096798897 1.013 2.3440397e-38
-0.063052498 0.097686961 1.013 2.3463787e-38
-0.18738136 0.10123922 1.013 2.3440433e-38
-0.063052498 0.10390341 1.013 2.347243e-38
-0.18738136 0.10656759 1.013 2.3452669e-38
-0.063052498 0.10656759 1.013 2.3474954e-38
-0.18915749 0.11011985 1.013 2.3468488e-38
-0.18738136 0.11011985 1.013 2.3464165e-38
-0.062164433 0.11011985 1.013 2.3481784e-38
-0.18915749 0.11367211 1.013 2.3471336e-38
-0.18738136 0.11367211 1.013 2.3468843e-38
-0.061276369 0.11367211 1.013 2.348573e-38
-0.058908202 0.11396813 1.013 2.3482845e-38
-0.18960151 0.11855645 1.013 2.345475e-38
-0.18667091 0.1177572 1.013 2.3465966e-38
-0.058612179 0.11633629 1.013 2.2463996e-38
-0.054425597 0.1186199 1.013 2.3474553e-38
-0.18974952 0.12225672 1.013 2.3067239e-38
-0.18738136 0.12255274 1.013 2.344864e-38
-0.053816635 0.12237513 1.013 2.3489718e-38
-0.18915749 0.126105 1.013 1.9310689e-38
-0.18738136 0.126105 1.013 2.2793542e-38
-0.052987777 0.12580898 1.013 2.3492955e-38
-0.050027572 0.12640102 1.013 2.3494754e-38
-0.18738136 0.12965724 1.013 1.4609377e-38
-0.048843481 0.12965724 1.013 2.3493667e-38
-0.046179295 0.1305453 1.013 2.3494026e-38
-0.18560523 0.13409756 1.013 8.99988e-39
-0.04529123 0.13232143 1.013 2.3494743e-38
-0.042449426 0.13374233 1.013 2.3492584e-38
-0.03854195 0.13516323 1.013 2.3491508e-38
-0.037831496 0.13836026 1.013 2.3491509e-38
-0.034634467 0.13942593 1.013 2.3490074e-38
-0.033450387 0.14179412 1.013 2.349152e-38
-0.031082217 0.14209013 1.013 2.3490783e-38
-0.02930609 0.14475432 1.013 2.3490427e-38
-0.072359189 0.027693022 1.0190001 2.3509886e-38
-0.06924469 0.027043123 1.0170001 2.3509886e-38
-0.065911308 0.025830107 1.016 2.3509886e-38
-0.062348533 0.025830107 1.016 2.3509886e-38
-0.057533879 0.026313588 1.0175 2.3509886e-38
-0.053519186 0.027652256 1.0175 2.3507704e-38
-0.07398212 0.03030527 1.0167501 2.3509886e-38
-0.053441599 0.029392879 1.016 2.3503752e-38
-0.05027391 0.030640086 1.0180001 2.3212391e-38
-0.084865719 0.034839608 1.0190001 2.3509886e-38
-0.081808195 0.03420987 1.0180001 2.3509886e-38
-0.078381017 0.032955654 1.016 2.3509886e-38
-0.049132783 0.033052966 1.0190001 2.3479623e-38
-0.04638312 0.034788325 1.0175 2.3473488e-38
-0.043772843 0.034839608 1.0190001 2.3478166e-38
-0.18491793 0.038412903 1.0190001 2.3499415e-38
-0.18313128 0.038412903 1.0190001 2.3499775e-38
-0.1052583 0.038356356 1.0175 2.3509883e-38
-0.10153905 0.03829981 1.016 2.3509886e-38
-0.098265573 0.038412903 1.0190001 2.3509886e-38
-0.094156288 0.037340917 1.0190001 2.3509886e-38
-0.089761026 0.03765301 1.0178001 2.3509886e-38
-0.086397253 0.037409119 1.016 2.3509886e-38
-0.046316054 0.037409119 1.016 2.3466651e-38
-0.043772843 0.037519582 1.0190001 2.3473132e-38
-0.19831778 0.042879522 1.0190001 2.3102642e-38
-0.19366007 0.042241015 1.0180001 2.3504097e-38
-0.18938455 0.041092873 1.0190001 2.3507349e-38
-0.1855237 0.041603092 1.0184001 2.3507355e-38
-0.18223795 0.041092873 1.0190001 2.3506996e-38
-0.17848933 0.041943245 1.0180001 2.3508438e-38
-0.17455539 0.041271538 1.0190001 2.3505913e-38
-0.17062476 0.041986197 1.0190001 2.3509153e-38
-0.12953188 0.042879522 1.0190001 2.3509886e-38
-0.12685192 0.041986197 1.0190001 2.3509886e-38
-0.12181178 0.041197374 1.0172001 2.3509884e-38
-0.11762091 0.042581748 1.0190001 2.3509886e-38
-0.11426188 0.042847302 1.01825 2.3509881e-38
-0.11010566 0.040864766 1.0178001 2.3509886e-38
-0.10599251 0.040674996 1.016 2.3509886e-38
-0.097976267 0.040081199 1.016 2.3509886e-38
-0.094116591 0.040674996 1.016 2.3509161e-38
-0.046316054 0.041862588 1.016 2.3458018e-38
-0.043772843 0.041986197 1.0190001 2.3460169e-38
-0.200406 0.046316054 1.016 2.3466713e-38
-0.19773391 0.045425359 1.016 2.346848e-38
-0.046316054 0.046316054 1.016 2.3451545e-38
-0.042753279 0.046316054 1.016 2.3453333e-38
-0.20129669 0.049878828 1.016 2.3458472e-38
-0.046349585 0.049916305 1.0167501 2.3449382e-38
-0.042816397 0.049953781 1.0175 2.3450095e-38
-0.2017926 0.053791977 1.0170001 2.3003599e-38
-0.048988134 0.053441599 1.016 2.3440331e-38
-0.046750586 0.053301629 1.0190001 2.3439281e-38
-0.043772843 0.052706078 1.0190001 2.3442585e-38
-0.20114854 0.057535194 1.0175 2.3279413e-38
-0.048988134 0.057895064 1.016 2.3437441e-38
-0.047346137 0.057172693 1.0190001 2.3442098e-38
-0.19742446 0.063425958 1.0190001 2.345265e-38
-0.049678363 0.062768161 1.0180001 2.3437503e-38
-0.19742446 0.066105925 1.0190001 2.344905e-38
-0.19506185 0.066802002 1.016 2.3445433e-38
-0.049951151 0.06600862 1.0175 2.3436444e-38
-0.19742446 0.069679223 1.0190001 2.3444002e-38
-0.19506185 0.069474079 1.016 2.344471e-38
-0.050223943 0.069244683 1.0170001 2.3441128e-38
-0.19742446 0.074145839 1.0190001 2.3447231e-38
-0.19469486 0.074414805 1.0178001 2.3444008e-38
-0.052706078 0.075932488 1.0190001 2.3446164e-38
-0.050919432 0.072359189 1.0190001 2.3447952e-38
-0.19802001 0.078910224 1.0190001 2.3440053e-38
-0.19563781 0.078612447 1.0190001 2.3445811e-38
-0.19802001 0.081887975 1.0190001 2.344293e-38
-0.19445913 0.082064763 1.0175 2.3446526e-38
-0.19742446 0.084865719 1.0190001 2.3453347e-38
-0.19445913 0.085632801 1.0175 2.3451582e-38
-0.19149905 0.086397253 1.016 2.3438986e-38
-0.058871232 0.08563149 1.0175 2.345911e-38
-0.19385117 0.089332335 1.0190001 2.3448325e-38
-0.19149905 0.089960024 1.016 2.344546e-38
-0.061457843 0.091741413 1.016 2.345951e-38
-0.059764557 0.089202151 1.0175 2.346018e-38
-0.19295785 0.09379895 1.0190001 2.3448335e-38
-0.18971768 0.095304191 1.016 2.3446897e-38
-0.062172618 0.094896249 1.0180001 2.34602e-38
-0.19206451 0.098265573 1.0190001 2.3449421e-38
-0.18999778 0.098119602 1.0175 2.3445461e-38
-0.18793629 0.098866954 1.016 2.343789e-38
-0.061457843 0.097976267 1.016 2.3464866e-38
-0.19349384 0.10201752 1.0190001 2.3453017e-38
-0.18971768 0.10153905 1.016 2.3444374e-38
-0.06234853 0.10153905 1.016 2.3469185e-38
-0.19349384 0.10523349 1.0190001 2.3462733e-38
-0.1897177 0.10599251 1.016 2.3456268e-38
-0.18793629 0.10421111 1.016 2.3446188e-38
-0.061457843 0.10599251 1.016 2.3476393e-38
-0.059852663 0.10541216 1.0190001 2.3477461e-38
-0.20189108 0.1107721 1.0190001 2.3446869e-38
-0.1983178 0.10987877 1.0190001 2.3463438e-38
-0.19436166 0.10962354 1.0190001 2.3468477e-38
-0.19149905 0.11044598 1.016 2.346921e-38
-0.058222815 0.11020214 1.0172858 2.348286e-38
-0.053519186 0.11150105 1.0175 2.3474911e-38
-0.20159331 0.11404762 1.0190001 2.3074868e-38
-0.19831778 0.11434539 1.0190001 2.3437182e-38
-0.19445913 0.11417706 1.0175 2.3459838e-38
-0.19149905 0.11400874 1.016 2.3470976e-38
-0.056707472 0.11371185 1.016 2.3476704e-38
-0.053441599 0.11400874 1.016 2.2719329e-38
-0.050919432 0.11434539 1.0190001 2.3455818e-38
-0.20099775 0.11791869 1.0190001 2.3451217e-38
-0.19831778 0.11791868 1.0190001 2.2246183e-38
-0.19445913 0.1177451 1.0175 2.3427478e-38
-0.19149905 0.11757152 1.016 2.345477e-38
-0.053441599 0.11668083 1.016 2.3469136e-38
-0.049988627 0.11783123 1.01825 2.3488269e-38
-0.20099775 0.12059864 1.0190001 2.3447575e-38
-0.19831778 0.12149197 1.0190001 2.3449735e-38
-0.19417115 0.1211343 1.016 2.2884018e-38
-0.19149905 0.12380636 1.016 2.3440697e-38
-0.049902938 0.12208416 1.0165 2.3494031e-38
-0.19355342 0.12595861 1.0190001 1.986134e-38
-0.048988134 0.12558776 1.016 2.3495825e-38
-0.046704125 0.12702432 1.0180001 2.3495463e-38
-0.042879522 0.12774524 1.0190001 2.3492587e-38
-0.19206451 0.13042521 1.0190001 5.4182943e-39
-0.18971768 0.13004123 1.016 6.6132347e-39
-0.046316054 0.12915054 1.016 2.3493307e-38
-0.041924395 0.13023189 1.0175002 2.3491512e-38
-0.038412903 0.13131854 1.0190001 2.3488987e-38
-0.18793629 0.1327133 1.016 9.9182336e-39
-0.040081199 0.1327133 1.016 2.3490793e-38
-0.037148166 0.13343772 1.0170001 2.3490789e-38
-0.034839608 0.13489182 1.0190001 2.3491861e-38
-0.033687674 0.13778166 1.0166 2.3490789e-38
-0.031235633 0.13832748 1.0180001 2.3489341e-38
-0.073468164 0.026878599 1.022 2.3509886e-38
-0.070780307 0.025982644 1.022 2.3509886e-38
-0.066300541 0.024190737 1.022 2.3509886e-38
-0.061820775 0.024190737 1.0220001 2.3509886e-38
-0.057341009 0.024190737 1.022 2.3509886e-38
-0.053757194 0.025982644 1.022 2.3509884e-38
-0.049874734 0.02717725 1.0220001 2.2937241e-38
-0.046589568 0.026878597 1.022 2.3483945e-38
-0.043901712 0.025982646 1.0220001 2.3496911e-38
-0.077947937 0.030761061 1.0220001 2.3509886e-38
-0.049277429 0.029566457 1.022 2.3482497e-38
-0.046589572 0.03046241 1.022 2.3481062e-38
-0.043901712 0.029566457 1.022 2.3490787e-38
-0.18994209 0.034942176 1.022 2.3509886e-38
-0.18635827 0.034046225 1.022 2.3507363e-38
-0.18187851 0.034942176 1.0220001 2.350161e-38
-0.17739874 0.034942176 1.022 2.3497996e-38
-0.092283189 0.034942176 1.022 2.3509886e-38
-0.089595318 0.034942176 1.022 2.3509886e-38
-0.086011514 0.034046225 1.022 2.3509886e-38
-0.083323658 0.033150271 1.022 2.3509886e-38
-0.046589568 0.033150271 1.022 2.3477098e-38
-0.042109802 0.034942176 1.022 2.3482514e-38
-0.19322726 0.037928689 1.0220001 2.3506281e-38
-0.18994209 0.037630036 1.022 2.3505551e-38
-0.18665694 0.037331387 1.0220001 2.3503747e-38
-0.18152013 0.037450846 1.022 2.3499425e-38
-0.17739874 0.037630036 1.022 2.3498347e-38
-0.17381492 0.037630036 1.022 2.3499429e-38
-0.12453751 0.038525991 1.022 2.3508068e-38
-0.12184964 0.038525991 1.022 2.3505542e-38
-0.11020225 0.038525991 1.0220001 2.3509886e-38
-0.10482653 0.036734082 1.022 2.3509886e-38
-0.10213867 0.036734082 1.022 2.3509886e-38
-0.098554857 0.036734082 1.022 2.3509886e-38
-0.042109802 0.037630036 1.022 2.3479632e-38
-0.19442186 0.040317897 1.022 2.3503396e-38
-0.17291898 0.040317897 1.022 2.3502666e-38
-0.16993247 0.040915199 1.0220001 2.3504471e-38
-0.16664732 0.043901712 1.022 2.3509884e-38
-0.16395944 0.043901712 1.022 2.3509886e-38
-0.1496242 0.043901712 1.022 2.3509886e-38
-0.14604038 0.043901712 1.0220001 2.3509884e-38
-0.14245656 0.043901712 1.022 2.350988e-38
-0.1303612 0.041661829 1.022 2.3509886e-38
-0.12543346 0.040317897 1.022 2.3509886e-38
-0.11826582 0.040317897 1.022 2.3509886e-38
-0.11468202 0.040317897 1.022 2.3509886e-38
-0.042109802 0.042109802 1.0220001 2.3465916e-38
-0.16575135 0.045693617 1.022 2.3509883e-38
-0.1630635 0.045693617 1.022 2.3509886e-38
-0.1496242 0.046589568 1.022 2.3506999e-38
-0.14648835 0.046141595 1.022 2.3506632e-38
-0.14156061 0.045693617 1.022 2.3509518e-38
-0.045693617 0.054653149 1.022 2.3436791e-38
-0.043005757 0.053757194 1.022 2.3446508e-38
-0.20338139 0.058236964 1.022 2.3468853e-38
-0.045693617 0.057341009 1.022 2.3445056e-38
-0.043901712 0.056445051 1.022 2.3449016e-38
-0.20338139 0.06002887 1.022 2.3465952e-38
-0.19979757 0.061820775 1.022 2.3456977e-38
-0.047485523 0.060924821 1.022 2.344431e-38
-0.19979757 0.066300541 1.022 2.3451929e-38
-0.047485523 0.066300541 1.022 2.3446157e-38
-0.19979757 0.06988436 1.022 2.3443282e-38
-0.049277429 0.070780307 1.022 2.344902e-38
-0.19920027 0.07376682 1.0220001 2.3450459e-38
-0.051069334 0.074364118 1.022 2.3452609e-38
-0.2051733 0.078843884 1.022 2.1628542e-38
-0.20248544 0.078843884 1.022 2.3447248e-38
-0.19979757 0.077051982 1.022 2.3449047e-38
-0.05286124 0.07794793 1.022 2.3456974e-38
-0.20218679 0.082129054 1.0220001 2.3436837e-38
-0.19979757 0.083323658 1.022 2.3446515e-38
-0.056445051 0.083323658 1.022 2.3449023e-38
-0.054653149 0.081531748 1.022 2.3449387e-38
-0.20158949 0.086011514 1.022 2.3449415e-38
-0.19920027 0.086310171 1.0220001 2.345192e-38
-0.058236964 0.086907469 1.022 2.3464158e-38
-0.19800568 0.089595318 1.022 2.3452641e-38
-0.058236964 0.089595318 1.022 2.3463063e-38
-0.1974937 0.093819104 1.022 2.3452636e-38
-0.19442186 0.095867001 1.022 2.3450138e-38
-0.060028873 0.094075099 1.0220001 2.346307e-38
-0.058236968 0.094075099 1.0220001 2.3464151e-38
-0.1976473 0.098734058 1.022 2.3459482e-38
-0.19442186 0.098554857 1.022 2.345445e-38
-0.06002887 0.098554857 1.022 2.3465947e-38
-0.057341006 0.098554865 1.022 2.346666e-38
-0.2051733 0.10303462 1.022 2.3464879e-38
-0.20248544 0.10213867 1.022 2.3469179e-38
-0.19836406 0.10195948 1.022 2.3465237e-38
-0.06002887 0.10213867 1.022 2.3472771e-38
-0.057341009 0.10213867 1.022 2.3477099e-38
-0.2051733 0.10572249 1.022 2.3460218e-38
-0.20248544 0.10572249 1.022 2.347025e-38
-0.19836406 0.10590167 1.022 2.3470292e-38
-0.057341009 0.10572249 1.022 2.3480342e-38
-0.054653149 0.10661844 1.022 2.348214e-38
-0.20589006 0.11056063 1.022 2.3449429e-38
-0.20248544 0.10841034 1.022 2.3461978e-38
-0.057341009 0.10841034 1.022 2.3481061e-38
-0.054055847 0.10960495 1.0220001 2.3480684e-38
-0.051069334 0.11199415 1.022 2.2541049e-38
-0.20606925 0.11468202 1.022 2.345301e-38
-0.20338139 0.11557797 1.022 2.3450144e-38
-0.049277429 0.11468202 1.022 2.3472059e-38
-0.20606925 0.11826582 1.022 2.3450075e-38
-0.20338139 0.11826582 1.022 2.3453378e-38
-0.2051733 0.12095369 1.022 1.9659635e-38
-0.20278411 0.1221483 1.0220001 2.2061372e-38
-0.047485523 0.12184964 1.022 2.34933e-38
-0.19836406 0.12561266 1.022 1.6358607e-38
-0.046290919 0.12513481 1.0220001 2.3492948e-38
