# .PCD v0.7 - Point Cloud Data file format
VERSION 0.7
FIELDS x y z rgb
SIZE 4 4 4 4
TYPE F F F F
COUNT 1 1 1 1
WIDTH 381
HEIGHT 1
VIEWPOINT 0 0 0 1 0 0 0
POINTS 381
DATA ascii
-0.056223262 0.046693895 1.087 2.350664e-38
-0.053364452 0.045740958 1.087 2.3505556e-38
-0.049552705 0.044788022 1.087 2.3501961e-38
-0.046693895 0.044788022 1.087 2.3495487e-38
-0.057176195 0.049552705 1.087 2.3505557e-38
-0.053364452 0.048599768 1.087 2.3500151e-38
-0.073376119 0.053364452 1.087 2.34998e-38
-0.070517309 0.053364452 1.087 2.3500877e-38
-0.067658499 0.052411515 1.087 2.3504122e-38
-0.077187873 0.058129132 1.087 2.3499795e-38
-0.074329056 0.057176195 1.087 2.3500879e-38
-0.071470246 0.057176195 1.087 2.3499438e-38
-0.08481136 0.063846759 1.087 2.3496192e-38
-0.081952557 0.063846759 1.087 2.3494746e-38
-0.07814081 0.061940886 1.087 2.3494752e-38
-0.074329056 0.060035009 1.087 2.349439e-38
-0.089576043 0.067658499 1.087 2.3496187e-38
-0.085446656 0.06702321 1.0870001 2.3496201e-38
-0.081952557 0.065752625 1.087 2.3491864e-38
-0.086717233 0.069564372 1.087 2.3493677e-38
-0.048733898 0.039178234 1.09 2.3505198e-38
-0.045867197 0.039178234 1.09 2.3506999e-38
-0.057015479 0.042363457 1.09 2.3504477e-38
-0.053511731 0.042044934 1.09 2.3504835e-38
-0.049689464 0.042044934 1.09 2.3503758e-38
-0.045867201 0.042044934 1.09 2.3504119e-38
-0.043000501 0.042044934 1.09 2.3501956e-38
-0.064022966 0.046822764 1.09 2.3502669e-38
-0.061156265 0.045867201 1.09 2.3502675e-38
-0.057652526 0.045548677 1.09 2.3504841e-38
-0.073578633 0.050645031 1.09 2.3500877e-38
-0.070711933 0.050645031 1.09 2.3500874e-38
-0.065934099 0.049689464 1.0900002 2.3501235e-38
-0.061156265 0.049689464 1.09 2.3504472e-38
-0.0774009 0.053511731 1.09 2.3498714e-38
-0.075489767 0.053511731 1.09 2.3499799e-38
-0.065934099 0.052556165 1.09 2.3504122e-38
-0.081223167 0.057334002 1.09 2.3498352e-38
-0.078674994 0.057015479 1.09 2.3498717e-38
-0.088867702 0.062111828 1.09 2.3495459e-38
-0.085682482 0.061474785 1.09 2.3495826e-38
-0.082178734 0.061156265 1.09 2.3497989e-38
-0.079312034 0.061156265 1.09 2.3499428e-38
-0.093454421 0.066316329 1.09 2.3494759e-38
-0.089823268 0.064978532 1.09 2.349475e-38
-0.086956568 0.064978532 1.09 2.3496194e-38
-0.037403859 0.035485711 1.094 2.3508437e-38
-0.034526639 0.035485711 1.094 2.3508439e-38
-0.02973127 0.035485711 1.094 2.3508084e-38
-0.027813125 0.035485711 1.094 2.3505563e-38
-0.057544395 0.039322004 1.094 2.3504472e-38
-0.053388413 0.038682625 1.0940001 2.3505551e-38
-0.050191503 0.038043242 1.0940001 2.3505913e-38
-0.046035517 0.037403859 1.094 2.3507359e-38
-0.042199224 0.038362931 1.094 2.3508438e-38
-0.038362931 0.038362931 1.094 2.3509157e-38
-0.034526639 0.038362931 1.094 2.3508437e-38
-0.030690344 0.037403859 1.094 2.3508086e-38
-0.026854053 0.037403859 1.094 2.3409404e-38
-0.064257905 0.043158296 1.094 2.3503755e-38
-0.061061002 0.042518914 1.0940001 2.3503036e-38
-0.058503471 0.041240152 1.094 2.3503396e-38
-0.041240152 0.041240152 1.094 2.3503037e-38
-0.039322004 0.041240152 1.094 2.3501957e-38
-0.069053277 0.046994589 1.094 2.3501954e-38
-0.065536678 0.045715831 1.0940001 2.3502313e-38
-0.078644007 0.050830882 1.094 2.3499436e-38
-0.075127408 0.04955212 1.0940001 2.3500875e-38
-0.070971422 0.048912738 1.094 2.3501587e-38
-0.081521228 0.053708103 1.094 2.3499068e-38
-0.079603083 0.053708103 1.094 2.3497994e-38
-0.085996911 0.057864092 1.0940001 2.3496551e-38
-0.08343938 0.057544395 1.094 2.3497631e-38
-0.093030103 0.062339764 1.094 2.3495838e-38
-0.090472579 0.061061002 1.0940001 2.3495812e-38
-0.087275669 0.060421616 1.094 2.3496184e-38
-0.049046867 0.035583023 1.097 2.3506991e-38
-0.046161756 0.035583023 1.097 2.3507714e-38
-0.041994378 0.034941889 1.097 2.3507356e-38
-0.038788699 0.034300752 1.097 2.3508078e-38
-0.034621321 0.033659615 1.097 2.3508439e-38
-0.031095073 0.034300752 1.097 2.3508439e-38
-0.02558131 0.03442898 1.097 2.3505912e-38
-0.02147804 0.034941889 1.097 2.3506266e-38
-0.061228439 0.038788702 1.097 2.3504112e-38
-0.057702199 0.037506428 1.097 2.3506628e-38
-0.054817088 0.037506428 1.097 2.3506626e-38
-0.024042582 0.037506428 1.097 2.3503033e-38
-0.021157473 0.03846813 1.097 2.3503751e-38
-0.068922073 0.042635515 1.097 2.3503035e-38
-0.065716401 0.041994378 1.097 2.3503755e-38
-0.062510714 0.041353244 1.097 2.3504834e-38
-0.073570304 0.046642609 1.097 2.3502673e-38
-0.069242641 0.045200057 1.097 2.3502316e-38
-0.08238592 0.050329141 1.097 2.3499069e-38
-0.078859672 0.049046867 1.097 2.3500517e-38
-0.089438409 0.054817088 1.097 2.349691e-38
-0.086232737 0.054175954 1.097 2.3497633e-38
-0.083668187 0.053855382 1.097 2.3498349e-38
-0.093285218 0.058663901 1.097 2.3496198e-38
-0.090400115 0.057702199 1.097 2.3496904e-38
-0.087515004 0.056740493 1.097 2.3496556e-38
-0.049225707 0.031851929 1.101 2.3509153e-38
-0.046008345 0.031208456 1.1010001 2.3508435e-38
-0.042469233 0.030886717 1.101 2.3508078e-38
-0.038608395 0.030886717 1.101 2.3508438e-38
-0.034747556 0.030886717 1.101 2.3508441e-38
-0.030886717 0.030886717 1.101 2.3508439e-38
-0.025674585 0.03107976 1.101 2.3508072e-38
-0.021234617 0.031851929 1.101 2.3506629e-38
-0.064669065 0.035712767 1.101 2.3505193e-38
-0.061773434 0.035712767 1.101 2.3505913e-38
-0.057912596 0.035712767 1.101 2.3506632e-38
-0.053730022 0.035069294 1.1010001 2.350663e-38
-0.050512653 0.034425821 1.1010001 2.3507352e-38
-0.046330079 0.033782348 1.101 2.3508072e-38
-0.043434445 0.033782348 1.101 2.3508434e-38
-0.020269407 0.033782348 1.101 2.3509143e-38
-0.017373778 0.035712767 1.101 2.3506272e-38
-0.069173381 0.038930133 1.1010001 2.3504118e-38
-0.065634273 0.038608395 1.101 2.3504118e-38
-0.062738642 0.037643187 1.101 2.3505193e-38
-0.017373778 0.038608395 1.101 2.3504827e-38
-0.073034219 0.042790972 1.1010001 2.3503033e-38
-0.07046032 0.041504025 1.101 2.3503393e-38
-0.081077635 0.047295287 1.101 2.3500514e-38
-0.077538535 0.046008345 1.1010001 2.3501953e-38
-0.074321158 0.045364868 1.101 2.3504107e-38
-0.089764521 0.051156126 1.101 2.3497994e-38
-0.086547159 0.050512653 1.1010001 2.3499073e-38
-0.083973259 0.049225707 1.101 2.3499429e-38
-0.094590575 0.055016965 1.101 2.3496198e-38
-0.091051474 0.053730022 1.1010001 2.3496912e-38
-0.087834105 0.053086545 1.101 2.3497275e-38
-0.049404547 0.026155349 1.105 2.3509884e-38
-0.046498399 0.026155349 1.105 2.3509154e-38
-0.043592252 0.026155349 1.105 2.3509865e-38
-0.03777995 0.026155349 1.105 2.3509865e-38
-0.034873798 0.026155349 1.105 2.350987e-38
-0.030030217 0.026155349 1.105 2.3508437e-38
-0.026155349 0.026155349 1.105 2.3508086e-38
-0.058122996 0.031967647 1.105 2.3506995e-38
-0.053925227 0.031321838 1.105 2.3506632e-38
-0.050373264 0.030030217 1.105 2.3506993e-38
-0.046821307 0.028738594 1.105 2.3508075e-38
-0.042623535 0.028092783 1.105 2.3508075e-38
-0.038748667 0.028092783 1.105 2.3509513e-38
-0.034873798 0.028092783 1.105 2.3509876e-38
-0.029545859 0.028577141 1.105 2.3507718e-38
-0.025186632 0.028092783 1.105 2.350736e-38
-0.021311766 0.030030217 1.105 2.3505916e-38
-0.018405616 0.031967647 1.105 2.3504833e-38
-0.069747597 0.035842516 1.105 2.3503755e-38
-0.066195637 0.034550894 1.105 2.3504479e-38
-0.061997864 0.033905081 1.105 2.3505916e-38
-0.058122996 0.033905081 1.105 2.3506995e-38
-0.055216849 0.033905081 1.105 2.3507358e-38
-0.017436899 0.033905081 1.105 2.3505556e-38
-0.013562033 0.034873798 1.105 2.3506993e-38
-0.0096871667 0.035842516 1.105 2.3508068e-38
-0.0067810165 0.035842516 1.105 2.3504833e-38
-0.072653748 0.039717384 1.105 2.3501956e-38
-0.070716314 0.03777995 1.105 2.3502677e-38
-0.013562033 0.038748667 1.105 2.3506272e-38
-0.0096871667 0.038748667 1.105 2.3508068e-38
-0.0058122999 0.038748667 1.105 2.3505556e-38
-0.080403484 0.043592252 1.105 2.3500158e-38
-0.077497333 0.043592252 1.105 2.3500154e-38
-0.074591182 0.041654814 1.105 2.3502666e-38
-0.0058122999 0.041654814 1.105 2.3507362e-38
-0.0019374333 0.042623535 1.105 2.3505907e-38
-0.08912193 0.047467116 1.105 2.3497637e-38
-0.084924161 0.046821307 1.105 2.3499791e-38
-0.081372201 0.045529682 1.105 2.3501954e-38
-0.092673898 0.050696176 1.105 2.3497275e-38
-0.08912193 0.049404547 1.105 2.3497996e-38
-0.049717516 0.022421626 1.112 2.3508797e-38
-0.046792958 0.022421626 1.112 2.3509513e-38
-0.0438684 0.022421626 1.112 2.3509874e-38
-0.038019277 0.022421626 1.112 2.3508081e-38
-0.034119863 0.022421626 1.112 2.3509164e-38
-0.057516344 0.026321039 1.112 2.3506996e-38
-0.054266833 0.025671137 1.112 2.3507716e-38
-0.05095771 0.024992011 1.1106668 2.3508797e-38
-0.046624638 0.024283666 1.108 2.3509154e-38
-0.042465732 0.024960451 1.1093334 2.3509151e-38
-0.039225575 0.024960451 1.1093334 2.3508075e-38
-0.033997133 0.024283668 1.108 2.3508435e-38
-0.0292456 0.024371332 1.112 2.3508077e-38
-0.024992011 0.024989676 1.1106668 2.3508444e-38
-0.021426611 0.025322516 1.1110001 2.3506623e-38
-0.017547358 0.026321039 1.112 2.3507352e-38
-0.069214582 0.030220453 1.112 2.3505193e-38
-0.066290021 0.030220453 1.112 2.3505914e-38
-0.062278397 0.029191244 1.11 2.3505913e-38
-0.058385998 0.029191244 1.11 2.3506274e-38
-0.054719195 0.028816616 1.108 2.3506993e-38
-0.051481374 0.028169053 1.108 2.3507351e-38
-0.021369627 0.028169053 1.108 2.3505906e-38
-0.017530702 0.029218422 1.1110001 2.3507352e-38
-0.013647946 0.030220453 1.112 2.3505198e-38
-0.073535681 0.034087427 1.1110001 2.3503029e-38
-0.070000954 0.033054717 1.109 2.3503391e-38
-0.066051573 0.032054443 1.108 2.3504833e-38
-0.062166184 0.032054443 1.108 2.3505553e-38
-0.016512893 0.032054443 1.108 2.3505553e-38
-0.013598854 0.032054443 1.108 2.3505556e-38
-0.0097310003 0.033083647 1.11 2.3505551e-38
-0.0058386 0.034056745 1.11 2.3504835e-38
-0.0019497066 0.034119863 1.112 2.3503759e-38
-0.080912821 0.039968982 1.112 2.3500155e-38
-0.077919006 0.038958188 1.1110001 2.350087e-38
-0.074375525 0.037914958 1.109 2.3502312e-38
-0.0019450312 0.037925772 1.1093334 2.3504114e-38
0.0019450312 0.037925772 1.1093334 2.3501956e-38
0.0055241687 0.039319083 1.112 2.3498716e-38
0.0087736789 0.039968982 1.112 2.3497275e-38
-0.088711649 0.0438684 1.112 2.3500877e-38
-0.085632801 0.042814642 1.11 2.3499429e-38
-0.082016259 0.042465732 1.1093334 2.3500511e-38
-0.077707738 0.041767906 1.108 2.3499432e-38
0.0019426933 0.042739253 1.108 2.3505912e-38
0.0058403527 0.042816401 1.11 2.3503043e-38
0.0097485334 0.042893548 1.112 2.3500145e-38
0.013647946 0.042893544 1.112 2.3497268e-38
0.016572505 0.0438684 1.112 2.3491885e-38
-0.086449854 0.045653291 1.108 2.3500162e-38
0.0019426933 0.045653291 1.108 2.3505557e-38
0.0058280798 0.045653291 1.108 2.3503035e-38
0.010050107 0.046355795 1.1093334 2.3505553e-38
0.01363655 0.046750005 1.1110001 2.3505188e-38
0.017547358 0.046792958 1.112 2.3499439e-38
0.010684813 0.049538679 1.108 2.3508794e-38
0.013625153 0.049628098 1.11 2.3507362e-38
-0.13452974 0.073114 1.112 2.350916e-38
-0.13160519 0.073114 1.112 2.2954914e-38
-0.1169824 0.074088857 1.112 2.0005378e-38
-0.11405784 0.073114 1.112 1.428747e-38
-0.040076815 0.01466225 1.115 2.3506999e-38
-0.037144367 0.01466225 1.115 2.3507005e-38
-0.034211915 0.01466225 1.115 2.3507721e-38
-0.049851649 0.018572181 1.115 2.350736e-38
-0.046919197 0.018572181 1.115 2.3508077e-38
-0.041543037 0.01808344 1.115 2.3508075e-38
-0.037144367 0.017594699 1.115 2.3508077e-38
-0.034211915 0.017594699 1.115 2.3508078e-38
-0.061581451 0.021504633 1.115 2.3507712e-38
-0.058648996 0.021504633 1.115 2.3507352e-38
-0.054739065 0.021504633 1.115 2.3507353e-38
-0.051154964 0.021178808 1.115 2.3507355e-38
-0.046919197 0.02052715 1.115 2.3507715e-38
-0.042031784 0.021015892 1.115 2.3508437e-38
-0.037144367 0.02052715 1.115 2.3508797e-38
-0.033234432 0.021504633 1.115 2.3509521e-38
-0.029324498 0.022482116 1.115 2.3507349e-38
-0.026392048 0.022482116 1.115 2.3508077e-38
-0.021504633 0.022482116 1.115 2.3506991e-38
-0.065491386 0.026392048 1.115 2.3504091e-38
-0.062233105 0.025740393 1.115 2.3505544e-38
-0.058974825 0.025088739 1.115 2.3506633e-38
-0.055716548 0.024437083 1.115 2.3508434e-38
-0.018572181 0.024437083 1.115 2.350736e-38
-0.013684766 0.026392048 1.115 2.3504477e-38
-0.010752317 0.026392048 1.115 2.3504831e-38
-0.077221178 0.030301981 1.115 2.3504481e-38
-0.073962912 0.029650327 1.115 2.3505191e-38
-0.070704624 0.028998671 1.115 2.3504109e-38
-0.066468865 0.028347015 1.115 2.3505551e-38
-0.013684766 0.028347015 1.115 2.3505198e-38
-0.009774833 0.029324498 1.115 2.3505193e-38
-0.0058648996 0.029324498 1.115 2.3502317e-38
-0.0019549667 0.030301981 1.115 2.3499791e-38
0.00097748335 0.030301981 1.115 2.3497275e-38
-0.081131108 0.034211915 1.115 2.3500877e-38
-0.077872835 0.033560261 1.115 2.3501957e-38
-0.07526622 0.03225695 1.115 2.3504118e-38
-0.0048874165 0.03225695 1.115 2.3503391e-38
-0.0019549667 0.03225695 1.115 2.3500875e-38
0.0019549667 0.033234432 1.115 2.3499431e-38
-0.086018533 0.038121849 1.115 2.3500152e-38
-0.082108594 0.037144367 1.115 2.3501587e-38
-0.078198664 0.036166884 1.115 2.3501951e-38
0.0061907275 0.036818542 1.115 2.3498353e-38
0.009774833 0.038121849 1.115 2.3495123e-38
-0.086018533 0.040076815 1.115 2.3500868e-38
-0.083086081 0.040076815 1.115 2.3501944e-38
0.010752317 0.040076815 1.115 2.3496555e-38
0.013684766 0.040076815 1.115 2.3491865e-38
0.017268872 0.042031787 1.115 2.3492966e-38
0.02052715 0.043986749 1.115 2.3490821e-38
-0.13782515 0.070378795 1.115 5.5677371e-40
-0.13521853 0.070052974 1.115 0
-0.13000527 0.069890052 1.115 0
-0.13000527 0.073311247 1.115 2.2309545e-38
-0.032372668 0.014714849 1.119 2.3508081e-38
-0.029429698 0.014714849 1.119 2.3507355e-38
-0.025505738 0.014714849 1.119 2.3508072e-38
-0.062456362 0.017984815 1.119 2.3505917e-38
-0.058859393 0.017657818 1.119 2.3507716e-38
-0.054935433 0.017657818 1.119 2.3507716e-38
-0.050520983 0.017167322 1.119 2.3508075e-38
-0.044144548 0.016676828 1.119 2.3509507e-38
-0.042182565 0.016676828 1.119 2.3507358e-38
-0.032372668 0.017657818 1.119 2.3508077e-38
-0.029429698 0.017657818 1.119 2.3507356e-38
-0.025505736 0.017657818 1.119 2.3508079e-38
-0.021581778 0.018638808 1.119 2.3505198e-38
-0.069650285 0.021581778 1.119 2.3501964e-38
-0.066707321 0.02158178 1.119 2.3504118e-38
-0.063764349 0.021581778 1.119 2.3506635e-38
-0.032372668 0.020600788 1.119 2.3509158e-38
-0.029429698 0.020600788 1.119 2.3507355e-38
-0.025178742 0.021254783 1.119 2.3508797e-38
-0.021581778 0.020600788 1.119 2.3505195e-38
-0.017984815 0.021908775 1.119 2.3505926e-38
-0.014714849 0.022562768 1.119 2.3503393e-38
-0.0098098991 0.022562768 1.119 2.3501231e-38
-0.074555233 0.026486728 1.119 2.3502319e-38
-0.070304275 0.025832735 1.119 2.3503399e-38
-0.067034319 0.025178742 1.119 2.3504472e-38
-0.063764349 0.024524748 1.119 2.3505542e-38
-0.016676828 0.024524748 1.119 2.3507721e-38
-0.013733858 0.024524748 1.119 2.3504114e-38
-0.0094829034 0.025178742 1.119 2.3504111e-38
-0.0058859396 0.026486728 1.119 2.3501593e-38
-0.078479193 0.029429698 1.119 2.3503399e-38
-0.075536221 0.028448708 1.119 2.3504481e-38
-0.0019619798 0.028448708 1.119 2.3498712e-38
0.0019619798 0.029429698 1.119 2.349547e-38
-0.085346125 0.034334645 1.119 2.3499789e-38
-0.082403153 0.033353657 1.119 2.3500154e-38
-0.079460189 0.032372668 1.119 2.3501957e-38
0.0058859396 0.033353657 1.119 2.3496196e-38
0.0088289091 0.034334645 1.119 2.349118e-38
-0.089270085 0.038258608 1.119 2.3498e-38
-0.086327113 0.036296628 1.119 2.3500154e-38
0.0098098991 0.036296628 1.119 2.3491168e-38
0.013406862 0.037604615 1.119 2.3491149e-38
0.018638808 0.042182565 1.119 2.3495126e-38
-0.13635761 0.067688309 1.119 0
-0.13341463 0.067688309 1.119 0
-0.12981766 0.066380322 1.119 8.4077908e-45
-0.12556672 0.065726325 1.119 0
-0.029534899 0.012798456 1.123 2.3508072e-38
-0.065961279 0.018705435 1.123 2.3503755e-38
-0.046271343 0.016736442 1.123 2.3509507e-38
-0.021658927 0.016736442 1.123 2.3504481e-38
-0.018705435 0.018705435 1.123 2.3503761e-38
-0.071868256 0.021658927 1.123 2.3497277e-38
-0.016736442 0.02067443 1.123 2.3503042e-38
-0.013454787 0.021330763 1.123 2.3502673e-38
-0.0098449662 0.02067443 1.123 2.3500158e-38
-0.006235145 0.021987092 1.123 2.3498719e-38
-0.077775232 0.02658141 1.123 2.3501237e-38
-0.071868256 0.024612416 1.123 2.3501954e-38
-0.0059069796 0.024612416 1.123 2.3498712e-38
-0.0019689931 0.025596913 1.123 2.3496555e-38
0.00098449667 0.02658141 1.123 2.3494382e-38
-0.082697719 0.030519394 1.123 2.3499795e-38
-0.079744235 0.028550403 1.123 2.3499806e-38
0.0029534898 0.028550403 1.123 2.3495825e-38
0.0059069796 0.030519394 1.123 2.349476e-38
-0.086635709 0.033472888 1.123 2.3497994e-38
-0.083682217 0.032488391 1.123 2.3499066e-38
0.0098449662 0.033472888 1.123 2.3492257e-38
0.012798456 0.034457382 1.123 2.3490085e-38
-0.13389155 0.06202329 1.1230001 6.9128702e-39
-0.13684504 0.065961279 1.123 2.3822074e-44
-0.13389155 0.065961279 1.123 2.3822074e-44
-0.016781153 0.018755406 1.126 2.350232e-38
-0.0148069 0.018755406 1.126 2.3501956e-38
-0.074034497 0.024678167 1.126 2.3500155e-38
0.0059227599 0.028626675 1.126 2.3493696e-38
0.0088841403 0.030600928 1.126 2.3493678e-38
0.010858393 0.032575179 1.126 2.3494417e-38
0.012832646 0.032575179 1.126 2.3488669e-38
-0.16485015 0.060214728 1.126 6.7104484e-39
-0.16188878 0.060214728 1.126 8.0037082e-39
-0.13819773 0.06416323 1.126 0
-0.012878233 0.018822031 1.13 2.3503758e-38
0.0099063329 0.029718999 1.13 2.3489015e-38
