# .PCD v0.7 - Point Cloud Data file format
VERSION 0.7
FIELDS x y z rgb
SIZE 4 4 4 4
TYPE F F F F
COUNT 1 1 1 1
WIDTH 1007
HEIGHT 1
VIEWPOINT 0 0 0 1 0 0 0
POINTS 1007
DATA ascii
-0.065029375 0.18758473 0.95099998 1.5414283e-43
-0.05419115 0.18758473 0.95099998 1.3592595e-43
-0.050022595 0.18758473 0.95099998 1.3592595e-43
-0.046687756 0.18758473 0.95099998 6.4983114e-40
-0.077535026 0.19091958 0.95099998 4.4334211e-39
-0.074533664 0.19025262 0.95100003 8.2134377e-39
-0.070031635 0.19008586 0.95099998 1.3280576e-38
-0.065863088 0.19008587 0.95100009 1.3646121e-38
-0.061694536 0.19008587 0.95099998 1.1989103e-38
-0.058359694 0.18925217 0.95099998 1.0515789e-38
-0.05419115 0.18925218 0.95099998 1.1343739e-38
-0.049744692 0.18980798 0.95099998 1.4293272e-38
-0.045854047 0.19008587 0.95100009 1.3925946e-38
-0.042519208 0.19008587 0.95099998 1.0149545e-38
-0.038072757 0.19036376 0.95099998 2.5045085e-39
-0.035849527 0.19008587 0.95099998 1.0743475e-40
-0.078202002 0.1945879 0.95100003 2.775699e-39
-0.074200191 0.19425443 0.95100009 1.945588e-39
-0.070865348 0.19342071 0.95099998 1.6686508e-39
-0.064195663 0.19342071 0.95099998 6.0922109e-39
-0.062528245 0.19425443 0.95099998 5.3568011e-39
-0.044186629 0.192587 0.95099998 1.306694e-39
-0.041407596 0.19314282 0.95099998 2.1335708e-39
-0.038183916 0.19392094 0.95100003 2.3154327e-39
-0.034182105 0.19425443 0.95100009 1.7611841e-39
-0.030291464 0.19536602 0.95099998 6.5556386e-40
-0.080869861 0.19925669 0.95099998 2.5905959e-39
-0.078368738 0.19842297 0.95099998 2.4983975e-39
-0.074617043 0.19800609 0.95099998 2.2218078e-39
-0.032514688 0.19758925 0.95099998 4.7045373e-40
-0.03029146 0.19814508 0.95099998 1.9530457e-40
-0.085038409 0.2017578 0.95099998 3.1434095e-39
-0.081703566 0.2017578 0.95099998 2.4062172e-39
-0.030291464 0.20203571 0.95099998 4.7189987e-40
-0.030171357 0.17851387 0.95599997 6.9255225e-39
-0.02598089 0.17767578 0.95599997 5.5545369e-40
-0.022628518 0.17767578 0.95599997 2.1317631e-39
-0.085904561 0.18312338 0.95599997 3.3277938e-39
-0.082133144 0.18270433 0.95599997 4.2450417e-39
-0.077942669 0.18270433 0.95599997 1.1243269e-38
-0.07375221 0.18270433 0.95599997 1.6500886e-38
-0.070399836 0.18270433 0.95599997 1.622896e-38
-0.066209368 0.18354243 0.95600003 1.8993049e-38
-0.062018901 0.18354243 0.95599997 1.7885605e-38
-0.057828438 0.18354243 0.95600003 1.7885968e-38
-0.05363797 0.18354243 0.95599997 1.93618e-38
-0.050285596 0.18354243 0.95599997 1.954728e-38
-0.045616224 0.18210572 0.95599997 1.6686718e-38
-0.041904666 0.18186626 0.95599997 1.4017037e-38
-0.037714202 0.18186624 0.95599991 1.0423916e-38
-0.033523731 0.18186626 0.95599997 1.5749726e-39
-0.030171357 0.18186626 0.95599997 1.4827924e-39
-0.02598089 0.18186626 0.95599991 2.6852942e-39
-0.02262852 0.18186626 0.95600003 1.8544616e-39
-0.089675985 0.18689479 0.95599997 3.9746107e-39
-0.086323611 0.1860567 0.95599997 4.527416e-39
-0.082133144 0.1860567 0.95599997 4.1604299e-39
-0.077807382 0.18573205 0.95433331 2.4969779e-39
-0.073636055 0.18576434 0.95449996 3.0425735e-39
-0.070326194 0.18586121 0.95499998 8.5695833e-39
-0.066070855 0.18566748 0.954 9.6781001e-39
-0.061954029 0.18586121 0.95499992 1.1246143e-38
-0.05776795 0.18586121 0.95500004 1.1244714e-38
-0.053581864 0.18586121 0.95499992 1.0508592e-38
-0.050207138 0.18576434 0.95449996 9.3114826e-39
-0.0459987 0.18566748 0.954 5.9981964e-39
-0.041816995 0.18566747 0.954 9.4363018e-40
-0.038471639 0.18566747 0.954 4.0617393e-39
-0.034313317 0.18579665 0.95466661 4.895481e-39
-0.030139798 0.18586121 0.95499992 3.6061855e-39
-0.025971247 0.18599156 0.95566666 1.3027325e-39
-0.022628518 0.1860567 0.95599997 6.5664145e-40
-0.097817466 0.1907261 0.95599997 2.0385011e-39
-0.093866453 0.19024718 0.95599997 3.4203481e-39
-0.090419695 0.19004701 0.95500004 5.0798667e-39
-0.08620321 0.18998069 0.95466667 4.5263356e-39
-0.081961319 0.18984918 0.954 3.8813361e-39
-0.078783222 0.18951464 0.954 4.621757e-39
-0.07276158 0.18901283 0.954 7.4758614e-39
-0.070252553 0.18817648 0.954 5.8854536e-42
-0.06774354 0.18817648 0.954 1.4293244e-43
-0.061889157 0.18817648 0.954 1.3032076e-43
-0.058543798 0.18817648 0.954 1.3592595e-43
-0.044326019 0.18817648 0.954 3.8806313e-39
-0.041398823 0.18943098 0.954 8.5796979e-39
-0.038750421 0.18873405 0.954 8.4900078e-39
-0.033812031 0.18961023 0.95400006 2.7782143e-39
-0.03010824 0.18984918 0.954 7.4956015e-40
-0.025961604 0.19011451 0.95533329 4.7260893e-40
-0.02262852 0.19024718 0.95600003 3.8040489e-40
-0.10224738 0.19527572 0.95599997 1.6736829e-39
-0.098056912 0.19443762 0.95599997 1.9473943e-39
-0.093769141 0.19423425 0.95499998 2.8675401e-39
-0.090324715 0.19403087 0.954 3.3281553e-39
-0.086143017 0.19403087 0.954 4.0649959e-39
-0.081961319 0.19403087 0.954 4.0649945e-39
-0.079452291 0.19319452 0.954 3.2363184e-39
-0.029829461 0.1937521 0.954 8.3994951e-40
-0.025952546 0.19423398 0.95500004 1.2345439e-41
-0.022628518 0.19443764 0.95599997 4.7188025e-40
-0.10224737 0.19779001 0.95599997 3.9767631e-39
-0.098056912 0.19779001 0.95599997 2.9615448e-39
-0.093620978 0.19812594 0.9551999 2.7760732e-39
-0.090324722 0.19821256 0.954 2.7760675e-39
-0.086143017 0.19821258 0.95400006 2.7753445e-39
-0.082128584 0.19787803 0.954 2.7753473e-39
-0.029271899 0.19988525 0.954 3.8077343e-40
-0.025937837 0.1983045 0.95444447 1.0418234e-40
-0.022628518 0.19779 0.95599997 1.9637797e-40
-0.029271899 0.20155793 0.954 1.0563128e-40
-0.029425314 0.17571117 0.95899999 2.2766229e-38
-0.026062425 0.17487046 0.95900005 1.0326646e-38
-0.022699529 0.17487045 0.95899999 1.2191297e-43
-0.08911667 0.17907406 0.95899999 9.0958283e-42
-0.085753776 0.17907406 0.95899999 1.6672679e-38
-0.082390882 0.17907406 0.95899999 2.1198168e-38
-0.078187272 0.17907408 0.95899999 9.0456927e-39
-0.07482437 0.17907406 0.95899999 8.405033e-39
-0.045399059 0.17907406 0.95899999 9.4126661e-39
-0.042036165 0.17907406 0.95899999 8.0329589e-39
-0.037832551 0.17907408 0.95899999 1.4476537e-38
-0.033628933 0.17907406 0.95899999 2.1661324e-38
-0.030266037 0.17739262 0.95899999 1.4286773e-38
-0.021018082 0.17823334 0.95899999 2.1314044e-39
-0.019336635 0.17823334 0.95899999 2.3136545e-39
-0.089621104 0.18176438 0.95900005 3.2366898e-39
-0.086034022 0.181316 0.95899999 3.0432966e-39
-0.082390882 0.18075551 0.95899999 1.649579e-38
-0.078187272 0.18075553 0.95899999 1.7886008e-38
-0.073983647 0.18075551 0.95899999 1.3648623e-38
-0.069780037 0.181316 0.95899999 8.7683757e-39
-0.065576419 0.18243696 0.95899999 6.7454921e-39
-0.062213525 0.18243696 0.95899999 7.2028451e-39
-0.058850627 0.18243696 0.95899999 7.5705542e-39
-0.05380629 0.18159623 0.95899999 8.1226644e-39
-0.0504434 0.18159623 0.95899999 8.7669562e-39
-0.047921225 0.18159623 0.95899999 9.9654994e-39
-0.021018082 0.18159623 0.95899999 9.3286821e-40
-0.018495912 0.18159623 0.95899999 9.3036549e-40
-0.015973743 0.18243696 0.95899999 1.0418794e-40
-0.10004608 0.18748128 0.95899999 2.0385053e-39
-0.097523898 0.18748128 0.95899999 2.5909574e-39
-0.094161004 0.18664056 0.95899999 4.2497529e-39
-0.090966262 0.18546355 0.95900005 4.8018477e-39
-0.021018084 0.18579984 0.95899999 9.3250667e-40
-0.018495914 0.18579984 0.95900005 7.4811542e-40
-0.015973743 0.18579984 0.95899999 1.1158063e-39
-0.10172752 0.19000345 0.95899999 1.7630002e-39
-0.098364621 0.18916273 0.95899999 2.3150852e-39
-0.021018082 0.19000345 0.95899999 4.7332219e-40
-0.018495914 0.19000345 0.95899999 9.3249827e-40
-0.015973743 0.19000345 0.95899999 1.3001934e-39
-0.10509041 0.19420707 0.95899999 1.8580881e-39
-0.10256824 0.19336635 0.95899999 1.0297582e-39
-0.021018084 0.19420707 0.95899999 5.6407588e-40
-0.018495914 0.19420707 0.95900005 1.2072873e-39
-0.015973743 0.19420707 0.95899999 1.2076432e-39
-0.065073207 0.17155665 0.96399999 8.489656e-39
-0.061692785 0.17155665 0.96399999 7.9372137e-39
-0.057185546 0.17099325 0.96399999 8.2137894e-39
-0.054368526 0.17099325 0.96399999 8.7669618e-39
-0.049861293 0.17155665 0.96399999 8.4903819e-39
-0.04563576 0.17155665 0.96399999 6.4631669e-39
-0.042255331 0.17155665 0.96399999 3.148443e-39
-0.038029801 0.17155665 0.96399999 8.4903861e-39
-0.02957873 0.17155665 0.96399999 9.5952749e-39
-0.026163241 0.17131937 0.96266669 1.7241362e-38
-0.021960936 0.17062256 0.96349996 1.244677e-38
-0.018592345 0.17155665 0.96399999 1.0153472e-39
-0.10056768 0.17493707 0.96399999 6.647191e-39
-0.09803237 0.17409196 0.96399999 4.1597195e-39
-0.093806833 0.17409198 0.96399993 1.0694734e-38
-0.08948838 0.1739105 0.963 1.8715384e-38
-0.086482577 0.17437367 0.96399999 8.5882948e-39
-0.081975341 0.17493707 0.96399999 8.673697e-39
-0.077749804 0.17493707 0.96399999 1.1533917e-38
-0.07521449 0.17493707 0.96399999 1.0427562e-38
-0.070143849 0.17493707 0.96399999 5.546244e-39
-0.065918319 0.17409196 0.96399999 7.9375627e-39
-0.061692782 0.17409198 0.96399993 9.0439158e-39
-0.057467248 0.17409196 0.96399999 9.3204873e-39
-0.054086827 0.17409196 0.96399999 8.6740543e-39
-0.049861293 0.17409198 0.96399993 8.3045529e-39
-0.045588419 0.1739105 0.96299994 7.6602639e-39
-0.042211499 0.1739105 0.96299994 7.4783768e-39
-0.037990354 0.1739105 0.963 1.051795e-38
-0.033804268 0.17409196 0.96399999 9.50488e-39
-0.030423837 0.17409196 0.96399999 1.3189093e-38
-0.026143953 0.17288743 0.96200007 1.8350209e-38
-0.021660678 0.17356949 0.96266669 3.1357963e-39
-0.018077215 0.17418841 0.96359998 1.4817358e-39
-0.10113108 0.17775409 0.96399999 9.1353842e-39
-0.09803237 0.17747238 0.96399999 5.6337635e-39
-0.094366156 0.17775749 0.96279997 3.6065359e-39
-0.090479769 0.17746563 0.96200001 8.2072706e-39
-0.086022034 0.1771042 0.96200001 1.8991575e-38
-0.081890307 0.1772874 0.963 8.4057253e-39
-0.077629268 0.17719582 0.96249998 9.5041583e-39
-0.074076928 0.1776835 0.96239996 1.1257676e-38
-0.070046835 0.17806968 0.96266663 1.0428274e-38
-0.065872729 0.17819302 0.96333331 1.0148453e-38
-0.062138628 0.17796937 0.96342856 9.1357513e-39
-0.058025029 0.17829622 0.96274996 9.0442704e-39
-0.054031011 0.17813137 0.963 9.9644274e-39
-0.049769733 0.17798825 0.96222222 1.0056983e-38
-0.045541078 0.1771042 0.96200001 9.6882076e-39
-0.042167664 0.1771042 0.96200001 1.0240283e-38
-0.037950903 0.1771042 0.96200001 1.0796301e-38
-0.033751227 0.17719582 0.96250004 1.5860196e-38
-0.031204073 0.17626084 0.96200001 1.8986629e-38
-0.021083834 0.17626084 0.96200001 2.2164422e-39
-0.017243281 0.17786415 0.96285713 1.4846099e-39
-0.014366813 0.17831749 0.96399999 4.733376e-40
-0.10563833 0.18338814 0.96399999 2.3150852e-39
-0.10204662 0.18190922 0.96399987 5.1713378e-39
-0.097930968 0.18150827 0.963 8.0261528e-39
-0.094663866 0.181733 0.96239996 5.9989391e-39
-0.091925509 0.18132097 0.96200001 5.4464968e-39
-0.068311624 0.18132097 0.96200001 7.3879958e-39
-0.065781556 0.18132097 0.96200001 8.0322876e-39
-0.062408142 0.18132097 0.96200001 9.4130571e-39
-0.057769701 0.18174264 0.96200001 8.7694687e-39
-0.016023712 0.18132097 0.96200001 6.5628693e-40
-0.013507389 0.18150827 0.963 5.6480456e-40
-0.01014128 0.18254302 0.96399999 9.32857e-40
-0.10648343 0.18592346 0.96399999 1.9466572e-39
-0.10222313 0.18585889 0.96366662 1.9463083e-39
-0.097828984 0.18553773 0.96200001 3.1437725e-39
-0.09445557 0.18469438 0.96200001 4.9862445e-39
-0.013493653 0.18553773 0.96200001 1.2080048e-39
-0.010129883 0.18573061 0.96299994 1.3927491e-39
-0.10633674 0.18988542 0.96266669 1.1201503e-39
-0.10317023 0.18863003 0.96200007 1.9463097e-39
-0.013493652 0.18975449 0.96200001 1.208718e-39
-0.010133682 0.19001809 0.96333331 1.0250498e-39
-0.013493653 0.19397126 0.96200001 9.3321713e-40
-0.061884783 0.16700414 0.96700001 9.3194195e-39
-0.057646088 0.16700412 0.96700001 9.4108963e-39
-0.055102881 0.16700412 0.96700001 9.5027318e-39
-0.024584362 0.16700412 0.96700001 7.5759562e-39
-0.022041153 0.16700412 0.96700001 1.5491118e-38
-0.10088066 0.17039506 0.96700001 3.7927362e-39
-0.098337449 0.17039506 0.96700001 5.531798e-39
-0.094098769 0.17039506 0.96700001 1.9634089e-38
-0.089860082 0.17039506 0.96700001 2.8030762e-39
-0.081382722 0.17039506 0.96700001 5.547693e-39
-0.077991769 0.17039506 0.96700001 3.6130281e-39
-0.073753089 0.17039506 0.96700001 5.1752909e-39
-0.069514409 0.17039506 0.96700001 7.1060181e-39
-0.066123456 0.16954733 0.96700001 9.1332374e-39
-0.061884776 0.16954735 0.96700001 9.5956421e-39
-0.057928674 0.16926476 0.96700001 9.5967169e-39
-0.053972565 0.16926476 0.96700001 9.688558e-39
-0.050016459 0.16954735 0.96700001 9.2272337e-39
-0.045777783 0.16954732 0.96700001 7.658843e-39
-0.04238683 0.16954733 0.96700001 5.7234508e-39
-0.038487244 0.16971688 0.96700001 2.3194082e-39
-0.033909462 0.17039506 0.96700001 1.0242467e-38
-0.030518519 0.17039506 0.96700001 9.9669427e-39
-0.025855968 0.1699712 0.96700001 1.2913233e-38
-0.022041153 0.16869959 0.96700001 1.8250507e-38
-0.018141566 0.16971688 0.96700001 3.8729507e-39
-0.10427161 0.17463374 0.96700001 7.3865511e-39
-0.10189795 0.17344692 0.96700001 5.3582556e-39
-0.098337449 0.17209053 0.96700001 4.7971645e-39
-0.094098769 0.17209053 0.96700001 1.7789466e-38
-0.089860082 0.17209053 0.96700001 1.1804653e-38
-0.086186558 0.1726557 0.96700001 6.7494802e-39
-0.082230456 0.17293829 0.96700001 1.2359702e-38
-0.077991769 0.17293829 0.96700001 6.0047055e-39
-0.073753089 0.17330161 0.96700007 2.8765519e-39
-0.069514409 0.17293827 0.96700001 7.0156204e-39
-0.06697119 0.17209053 0.96700001 8.2130692e-39
-0.033909462 0.17209053 0.96700001 1.1070411e-38
-0.031366255 0.17209053 0.96700001 9.2275686e-39
-0.016106997 0.17293827 0.96700001 2.1299751e-39
-0.013987655 0.17420988 0.96700001 1.2080216e-39
-0.10596709 0.17802469 0.96700001 5.7241515e-39
-0.10257614 0.17717695 0.96700001 9.7782214e-39
-0.013281207 0.17774212 0.96700001 5.6516889e-40
-0.01017284 0.17802471 0.96700001 5.6480456e-40
-0.0076296297 0.17887244 0.96700001 4.7332499e-40
-0.10978189 0.18268725 0.96700001 1.6711717e-39
-0.10653224 0.18169823 0.96700001 2.3158083e-39
-0.01017284 0.18056791 0.96700001 9.3214514e-40
-0.0069514401 0.18260248 0.96700001 1.2998389e-39
-0.11020575 0.18650204 0.96700001 2.9291762e-40
-0.006273251 0.1866716 0.96700001 1.3916743e-39
-0.0059341565 0.18989299 0.96700001 7.4919301e-40
-0.081635192 0.16752224 0.97000003 5.6362859e-39
-0.078233734 0.16752224 0.97000003 6.4631557e-39
-0.073981896 0.16752224 0.97000003 9.8707912e-39
-0.069730058 0.16752224 0.97000003 1.0240281e-38
-0.0663286 0.16667187 0.97000003 9.5030919e-39
-0.06207677 0.16582152 0.97000003 9.5027332e-39
-0.057824932 0.16582151 0.97000003 8.9502853e-39
-0.054140013 0.16638842 0.97000003 9.3183517e-39
-0.050171636 0.16752224 0.97000003 9.502743e-39
-0.045919798 0.16752224 0.97000003 9.6874902e-39
-0.042518333 0.16752224 0.97000003 1.0423966e-38
-0.039116867 0.16752224 0.97000003 5.451889e-39
-0.0331643 0.16752224 0.97000003 5.4483115e-39
-0.029762832 0.16752224 0.97000003 1.0701999e-38
-0.025511 0.16667187 0.97000003 6.7444047e-39
-0.022109535 0.16497114 0.97000003 1.1902324e-38
-0.017857701 0.16667187 0.97000015 8.6660851e-39
-0.013889322 0.16695534 0.97000003 1.3863102e-39
-0.1045951 0.17092369 0.97000003 5.7241725e-39
-0.10232746 0.16978988 0.97000003 4.2483222e-39
-0.097792171 0.16922295 0.97000003 1.52112e-38
-0.093540333 0.16922295 0.97000003 1.4104875e-38
-0.090138867 0.16922295 0.97000003 9.2282973e-39
-0.085887037 0.17007332 0.97000015 1.1717215e-38
-0.081635192 0.16922295 0.97000003 3.4271893e-39
-0.078233734 0.16922295 0.97000003 4.1647487e-39
-0.073981903 0.16922295 0.97000003 6.2780623e-39
-0.069730058 0.16922295 0.97000003 8.3963968e-39
-0.036565769 0.16922295 0.97000003 9.4006668e-40
-0.034014665 0.16922295 0.97000003 8.6787374e-39
-0.029762832 0.16922295 0.97000003 1.0149892e-38
-0.026361367 0.16922295 0.97000003 9.2261042e-39
-0.016156966 0.16922295 0.97000003 1.5932764e-42
-0.013605866 0.17007333 0.97000003 1.5771726e-39
-0.10629583 0.1734748 0.97000003 6.0961738e-39
-0.012755499 0.17347479 0.97000003 1.207667e-39
-0.010487854 0.17375825 0.97000003 9.3107875e-40
-0.0068029333 0.17432517 0.97000003 8.3851458e-40
-0.11054766 0.17772663 0.97000015 1.4864231e-39
-0.1071462 0.1760259 0.97000003 4.8987334e-39
-0.010204399 0.1760259 0.97000003 8.3924045e-40
-0.0059525673 0.17772664 0.97000015 7.4667348e-40
-0.0025511 0.17942737 0.97000003 1.967339e-40
-0.11139803 0.18197846 0.97000003 1.6704529e-39
-0.0048187445 0.18169501 0.97000003 1.1154504e-39
-0.0025511 0.18197846 0.97000003 5.6443321e-40
-0.0042518335 0.18537992 0.97000003 1.3920373e-39
-0.0017007333 0.1862303 0.97000015 9.2998574e-40
-0.084620245 0.15983824 0.97500002 8.0311792e-39
-0.082056001 0.15983824 0.97500002 1.0057333e-38
-0.077782251 0.15983824 0.97500008 9.5949204e-39
-0.074363254 0.15983824 0.97500002 1.2071969e-38
-0.069234744 0.15983824 0.97500002 2.3509886e-38
-0.065815747 0.15983824 0.97500008 2.3509886e-38
-0.061541997 0.15983824 0.97500002 2.2497901e-38
-0.058123 0.15983824 0.97500002 8.212695e-39
-0.05384925 0.15983824 0.97500008 9.9651589e-39
-0.0495755 0.15983824 0.97500002 9.9640659e-39
-0.0461565 0.15983824 0.97500002 1.0608704e-38
-0.041028 0.1589835 0.97500002 1.0607986e-38
-0.037608996 0.15983824 0.97500002 1.1069692e-38
-0.035044752 0.15983824 0.97500002 9.5023632e-39
-0.022223499 0.15983824 0.97500002 6.6482574e-39
-0.017949751 0.15983824 0.97500008 1.4480529e-38
-0.013676 0.15983824 0.97500002 1.3830031e-39
-0.10855325 0.16325724 0.97500002 4.8043672e-39
-0.10598899 0.16325724 0.97500002 3.8791823e-39
-0.10171525 0.16325724 0.97500008 1.4198514e-38
-0.097441494 0.16325724 0.97500002 1.0884498e-38
-0.094022498 0.16325724 0.97500002 6.6565615e-39
-0.089748755 0.1624025 0.97500002 8.6765879e-39
-0.085474998 0.1624025 0.97500002 5.5426595e-39
-0.081971839 0.16223505 0.97400004 8.3992611e-39
-0.078059621 0.1620976 0.97420007 1.0055897e-38
-0.073990144 0.16250646 0.97460002 1.5301303e-38
-0.070089497 0.1624025 0.97500002 2.2309566e-38
-0.065815747 0.16240251 0.97500002 1.7609444e-38
-0.061541997 0.1624025 0.97500002 1.4481619e-38
-0.058093634 0.16231877 0.97450006 9.0449864e-39
-0.053830259 0.16234669 0.97466671 1.0792755e-38
-0.0495755 0.1624025 0.97500002 1.0884569e-38
-0.046156503 0.1624025 0.97500002 1.0055188e-38
-0.04188275 0.1624025 0.97500002 9.9629855e-39
-0.037608996 0.1624025 0.97500002 1.0885292e-38
-0.034190003 0.1624025 0.97500002 5.0809345e-39
-0.029916249 0.16240251 0.97500002 4.0715007e-39
-0.025642499 0.1624025 0.97500002 1.0794915e-38
-0.022200705 0.16223505 0.97399998 8.3063298e-39
-0.017931338 0.16223507 0.97399998 1.4758892e-38
-0.013661973 0.16223505 0.97399998 1.5077971e-42
-0.011111749 0.16325724 0.97500002 1.9431007e-39
-0.11368175 0.16667624 0.97500002 3.051581e-39
-0.10992085 0.16599245 0.97500002 4.343745e-39
-0.10598899 0.16582149 0.97500002 4.3433961e-39
-0.10171525 0.16582149 0.97500002 7.9404045e-39
-0.09739197 0.16573602 0.97449994 1.4573402e-38
-0.093973845 0.16573602 0.97450006 8.3091716e-39
-0.089686804 0.16570753 0.97433329 1.1992377e-38
-0.085343935 0.16556594 0.97350001 4.531739e-39
-0.081887677 0.16548136 0.97299999 6.5585981e-39
-0.078475684 0.16548134 0.97299999 9.0428228e-39
-0.074210703 0.16548137 0.97299999 1.0331402e-38
-0.069945723 0.16548136 0.97299999 9.8682661e-39
-0.066533729 0.16462836 0.97299999 7.1042203e-39
-0.062268756 0.16462836 0.97299999 7.8432287e-39
-0.058003772 0.16462836 0.97299999 1.0239581e-38
-0.053339027 0.16513945 0.97350001 1.0147749e-38
-0.049499664 0.16556594 0.97350001 9.5952917e-39
-0.046061821 0.16548136 0.97299999 9.4109005e-39
-0.04183979 0.16565055 0.9740001 9.503815e-39
-0.037570424 0.16565055 0.97400004 7.0159679e-39
-0.034154933 0.16565055 0.97400004 8.4320052e-40
-0.029854884 0.16548136 0.97299999 8.4950707e-39
-0.025874231 0.16519703 0.97299999 9.5970826e-39
-0.01791293 0.16462836 0.97299999 1.5122289e-38
-0.013363615 0.16519703 0.97299999 4.6646844e-40
-0.010541916 0.1661064 0.97500008 1.3924254e-39
-0.11710075 0.17180474 0.97500002 1.7633632e-39
-0.11431891 0.17036667 0.97460002 2.2228882e-39
-0.11013748 0.16990024 0.97388893 3.8834899e-39
-0.10598602 0.16947423 0.97340006 4.9883997e-39
-0.10235959 0.16804034 0.97299999 2.2138918e-39
-0.098094612 0.16804034 0.97299999 1.9545853e-38
-0.093829632 0.16804034 0.97299999 7.8551075e-39
-0.090417638 0.16804034 0.97299999 1.1898708e-38
-0.086152665 0.16804034 0.97299999 9.1379135e-39
-0.036678854 0.16804034 0.97299999 6.6564059e-40
-0.034972861 0.16804034 0.97299999 9.4258762e-40
-0.010239175 0.1698039 0.97333336 1.1154658e-39
-0.0065504536 0.17060634 0.97466671 9.3107034e-40
-0.11710075 0.17436899 0.97500002 2.0385151e-39
-0.1144199 0.17419016 0.97399998 2.3143705e-39
-0.11037777 0.17384072 0.97299999 3.3296029e-39
-0.0093829632 0.17315832 0.97299999 1.1147469e-39
-0.0055466695 0.17367381 0.97350001 6.5483798e-40
-0.0019944168 0.17465392 0.97500008 1.027362e-40
-0.1179555 0.17778802 0.97500002 1.9466782e-39
-0.11422563 0.17808099 0.9738 1.6704473e-39
-0.0042649829 0.1765703 0.97299999 6.5483798e-40
-0.0015357446 0.17800769 0.97340006 1.0310614e-40
0.0015381994 0.17822686 0.97460002 3.793399e-40
0.0042737499 0.17864275 0.97500002 1.3804191e-41
-0.0008529966 0.18254128 0.97299999 1.1172469e-39
0.0018776447 0.18210348 0.97340006 2.8786734e-40
-0.078021578 0.15518576 0.97800004 9.4087369e-39
-0.073734671 0.15518576 0.97799999 2.1757813e-38
-0.052300178 0.15518576 0.97799999 1.0146661e-38
-0.050585419 0.15518576 0.97799999 9.8718688e-39
-0.041154236 0.15518576 0.97799999 1.042468e-38
-0.037724718 0.15518576 0.97799999 1.0517596e-38
-0.10945885 0.15804371 0.97800004 6.2794931e-39
-0.10631511 0.15775791 0.97799999 1.2029951e-39
-0.10202821 0.15775791 0.97800004 1.6689957e-38
-0.097741321 0.15861529 0.97799999 4.6228304e-39
-0.094311789 0.15861529 0.97799999 1.1991989e-38
-0.090024889 0.15861529 0.97800004 6.002902e-39
-0.085452199 0.15804371 0.97800004 7.4787467e-39
-0.082308471 0.15775791 0.97799999 1.0701629e-38
-0.078021578 0.15775791 0.97800004 9.0410306e-39
-0.073734671 0.15775791 0.97799999 1.7517217e-38
-0.070305154 0.15775791 0.97799999 2.3509886e-38
-0.066446945 0.1581866 0.97799999 2.3509886e-38
-0.06144556 0.15804371 0.97800004 1.9000261e-38
-0.058301836 0.15775791 0.97799999 6.4645976e-39
-0.054014936 0.15775791 0.97800004 9.504901e-39
-0.049728036 0.15775791 0.97799999 1.0056626e-38
-0.046298519 0.15775791 0.97799999 1.079311e-38
-0.042440306 0.15732922 0.97799999 1.0976409e-38
-0.037724718 0.15775791 0.97799999 1.116152e-38
-0.034295198 0.15775791 0.97799999 1.0332848e-38
-0.030008297 0.15775791 0.97800004 3.977475e-39
-0.025721397 0.15775791 0.97799999 9.965512e-39
-0.02229188 0.15775791 0.97799999 8.6733144e-39
-0.018347932 0.15792939 0.97799999 1.2821375e-38
-0.01371808 0.15861529 0.97799999 2.5819134e-39
-0.011145939 0.15861529 0.97799999 3.5867243e-39
-0.11317416 0.16204482 0.97800004 3.3306777e-39
-0.10991611 0.16170187 0.97799999 5.5426483e-39
-0.10631511 0.16118744 0.97799999 3.4120861e-39
-0.10202821 0.16118744 0.97800004 1.8065733e-38
-0.097741321 0.16118744 0.97799999 8.6726124e-39
-0.094311789 0.16118744 0.97799999 9.9654868e-39
-0.090024889 0.16033006 0.97800004 6.0054201e-39
-0.086595379 0.16033006 0.97799999 4.1690815e-39
-0.072877295 0.16033006 0.97799999 2.3509886e-38
-0.071162537 0.16033006 0.97799999 2.3509886e-38
-0.043726377 0.16033006 0.97799999 1.0883846e-38
-0.033437818 0.16033006 0.97799999 8.5818517e-39
-0.030008297 0.16033006 0.97800004 2.9651363e-39
-0.025721397 0.16033006 0.97799999 1.1069689e-38
-0.010117083 0.16170186 0.97799999 2.5866456e-39
-0.0066875638 0.16273074 0.97799999 1.0232716e-39
-0.00257214 0.16375957 0.97799999 1.3061503e-41
-0.11403154 0.16604592 0.97800004 3.1452074e-39
-0.0094311787 0.16547433 0.97799999 1.3920569e-39
-0.0060016601 0.16633169 0.97800004 6.5556946e-40
-0.0020005533 0.16661751 0.97800004 1.2342637e-41
-0.11746105 0.16976124 0.97799999 2.0385095e-39
-0.1157463 0.16890386 0.97799999 2.3150852e-39
-0.0048584864 0.16947544 0.97800004 2.874974e-40
-0.0017147599 0.16976123 0.97799999 2.8713166e-40
0.00171476 0.17061861 0.97799999 3.7932729e-40
-0.11917581 0.17404813 0.97800004 2.0392326e-39
-0.0014289666 0.17290495 0.97800004 5.6191648e-40
0.00171476 0.17404813 0.97800004 4.7008659e-40
0.0042868997 0.17404813 0.97800004 2.8786454e-40
0.0060016592 0.17833504 0.97799999 1.6708116e-39
0.0094311787 0.17919241 0.97799999 1.0514754e-38
-0.10610472 0.15096202 0.98400009 1.0043309e-38
-0.10179152 0.15096201 0.98400003 1.2905227e-38
-0.098340958 0.15096201 0.98400003 5.2592497e-39
-0.077637598 0.15096201 0.98400003 1.5397096e-38
-0.07418704 0.15096201 0.98400003 2.3509886e-38
-0.06987384 0.15096202 0.98400009 2.3509886e-38
-0.040544078 0.15096201 0.98400003 1.0885298e-38
-0.03795616 0.15096201 0.98400003 1.0701625e-38
-0.034505598 0.15096201 0.98400003 1.0241369e-38
-0.030192401 0.15096202 0.98400009 7.2907611e-39
-0.025879201 0.15096201 0.98400003 9.2268708e-39
-0.022428639 0.15096201 0.98400003 1.0239575e-38
-0.11300584 0.15441255 0.98400003 3.0530174e-39
-0.10990309 0.15429355 0.98325002 7.3836882e-39
-0.10581775 0.1539935 0.98133332 8.2087475e-39
-0.10153334 0.15401939 0.98150003 1.3091786e-38
-0.098140202 0.15409784 0.98200005 4.8933202e-39
-0.094659485 0.15431736 0.98340005 1.1622149e-38
-0.085401356 0.15441255 0.98400003 1.0148098e-38
-0.082112543 0.15417542 0.98250002 1.0517235e-38
-0.077964775 0.15334688 0.98159999 1.1892976e-38
-0.073960863 0.15308177 0.98100001 2.3509525e-38
-0.070243545 0.15389557 0.98228574 2.3509886e-38
-0.066287398 0.15495872 0.98200005 2.3509886e-38
-0.062015396 0.15503718 0.98250002 1.2180685e-38
-0.057737269 0.15454143 0.98300004 7.6638625e-39
-0.053948313 0.15409695 0.98200005 9.8715087e-39
-0.049799573 0.15387814 0.98280001 9.6878405e-39
-0.04653522 0.15425387 0.98300004 1.0884582e-38
-0.042479005 0.15378436 0.98314297 1.0608356e-38
-0.037840441 0.15308177 0.98100001 1.0701265e-38
-0.034400396 0.1539418 0.98100007 1.0517235e-38
-0.030100349 0.1539418 0.98100007 6.460276e-39
-0.025840189 0.15417542 0.98250002 9.502729e-39
-0.022394013 0.1541754 0.98250008 1.0239205e-38
-0.01807862 0.15409695 0.98200005 9.5055988e-39
-0.013774186 0.15409695 0.98200005 1.3000356e-38
-0.010504746 0.15447305 0.98220009 8.3379921e-40
-0.0077519249 0.15503718 0.98250002 2.0381536e-39
-0.11645639 0.15872577 0.98400003 2.1314254e-39
-0.11369535 0.15762073 0.98250002 2.8697093e-39
-0.11111093 0.15675983 0.98250002 6.0050782e-39
-0.098041132 0.15738182 0.98100001 3.6148274e-39
-0.093510702 0.15688424 0.98220009 1.1713619e-38
-0.089577794 0.15675983 0.98250002 5.2620985e-39
-0.086462997 0.15655249 0.98300004 7.9372165e-39
-0.065360755 0.15738182 0.98100001 2.3509886e-38
-0.062780723 0.15738182 0.98100001 2.3509886e-38
-0.016340189 0.15738182 0.98100001 1.8344457e-38
-0.013760159 0.15738182 0.98100001 6.0835649e-39
-0.01003345 0.15795517 0.98100007 1.6646963e-39
-0.0058129574 0.15783615 0.98250008 1.4849672e-39
-0.0021546273 0.1581728 0.98325002 8.4102571e-40
-0.11731903 0.16217631 0.98400003 1.9484635e-39
-0.0051600598 0.16168188 0.98100001 8.3852299e-40
-0.0017206774 0.16180483 0.98175001 2.874946e-40
0.00086263998 0.16303895 0.98400003 1.0904905e-41
-0.11797729 0.16570655 0.98228574 1.6718836e-39
-0.00086000998 0.16512191 0.98100001 1.1622369e-41
0.0017213351 0.16606566 0.98150003 1.9493463e-40
0.0043066246 0.16709572 0.98250002 1.967409e-40
-0.11966324 0.16959292 0.98200005 1.8551973e-39
0.00172002 0.16942197 0.98100001 2.8713166e-40
0.006032093 0.17020947 0.98271435 1.0418794e-40
0.0068800803 0.17372201 0.98100001 2.875002e-40
0.010328667 0.17385417 0.98175001 9.3205111e-39
-0.10815874 0.14796115 0.98699999 2.7749717e-39
-0.10556294 0.14796115 0.98699999 1.4556201e-38
-0.10210185 0.14796115 0.98699999 1.2996713e-38
-0.09864077 0.14796115 0.98699999 4.8875483e-39
-0.081335381 0.14796115 0.98699999 8.1205078e-39
-0.077585876 0.14738432 0.98699999 1.8900496e-38
-0.074701637 0.14738432 0.98699999 2.3509886e-38
-0.070432976 0.14726895 0.98699999 2.3509886e-38
-0.056242548 0.14796115 0.98699999 1.1899092e-38
-0.05364674 0.14796115 0.98699999 1.1254786e-38
-0.050185658 0.14796115 0.98699999 9.7814739e-39
-0.045859307 0.1470959 0.98699999 1.0609075e-38
-0.041359901 0.14657673 0.98699999 1.1162959e-38
-0.038071878 0.14623062 0.98699999 1.1347712e-38
-0.033992749 0.14672506 0.98700005 1.0149175e-38
-0.029419178 0.14709589 0.98699999 7.8450055e-39
-0.025958098 0.14796115 0.98699999 1.0148082e-38
-0.022497017 0.14709589 0.98699999 9.5023674e-39
-0.11335036 0.15142223 0.98699999 2.5952678e-39
-0.10988928 0.15055697 0.98699999 5.0805968e-39
-0.10556294 0.1496917 0.98699999 1.0337508e-38
-0.10210185 0.1496917 0.98699999 1.253862e-38
-0.097775511 0.15026855 0.98699999 7.5633361e-39
-0.09344916 0.15142223 0.98699999 1.1162603e-38
-0.08652699 0.15142223 0.98699999 9.7811151e-39
-0.082200646 0.15055697 0.98699999 9.3194139e-39
-0.077874303 0.1496917 0.98699999 1.5308128e-38
-0.07441321 0.1496917 0.98699999 2.3509886e-38
-0.070086867 0.1496917 0.98699999 2.3509886e-38
-0.065760523 0.15055697 0.98699999 2.3509886e-38
-0.062299438 0.15055697 0.98699999 8.9484356e-39
-0.057973087 0.15055698 0.98699999 1.1531757e-38
-0.05364674 0.15055697 0.98699999 1.0241721e-38
-0.050185658 0.15055697 0.98699999 9.7814865e-39
-0.045859307 0.15055697 0.98699999 1.0608723e-38
-0.041821383 0.15026855 0.98699999 1.0884943e-38
-0.038071878 0.1496917 0.98699999 1.0701629e-38
-0.033745527 0.1496917 0.98699999 9.8722304e-39
-0.029419178 0.1496917 0.98699999 8.0283122e-39
-0.025958098 0.1496917 0.98699999 9.871143e-39
-0.022497017 0.1496917 0.98699999 1.014738e-38
-0.01817067 0.15055697 0.98699999 8.2152089e-39
-0.01384432 0.15055697 0.98699999 1.4936079e-38
-0.010383239 0.15055697 0.98699999 1.8486658e-39
-0.0077874293 0.15142223 0.98699999 3.053023e-39
-0.11681144 0.15488333 0.98699999 1.7658813e-39
-0.11421563 0.15401806 0.98699999 2.1342995e-39
-0.11161982 0.15315279 0.98699999 5.8217589e-39
-0.09344916 0.15315279 0.98699999 1.1439192e-38
-0.089988075 0.15401806 0.98699999 6.0007328e-39
-0.086815417 0.15372965 0.98699999 9.3208629e-39
-0.083931185 0.15315279 0.98699999 1.0702354e-38
-0.065760523 0.15315279 0.98699999 2.3509886e-38
-0.062299438 0.15315279 0.98699999 8.0250415e-39
-0.058838356 0.15315279 0.98699999 1.0977862e-38
-0.0095179696 0.15315279 0.98699999 1.3935044e-39
-0.0060568894 0.15430649 0.98699999 2.4062046e-39
-0.0025958098 0.15488333 0.98699999 1.209095e-39
-0.11796513 0.15719073 0.98699999 1.9477516e-39
-0.00086526998 0.15747914 0.98699999 7.4918601e-40
-0.12070515 0.16223812 0.98699999 1.2119788e-39
-0.11854198 0.16007495 0.98699999 1.2119802e-39
0.0017305398 0.16180548 0.98699999 4.7116419e-40
-0.12286833 0.16613184 0.98699999 1.5804082e-39
0.0051916195 0.16613182 0.98699999 1.0454107e-40
0.0077874293 0.16872764 0.98699999 1.3783172e-41
-0.022610985 0.13827488 0.99199998 9.9071801e-42
-0.10174944 0.14349279 0.99199998 1.4850003e-38
-0.097401172 0.14349279 0.99199998 1.676833e-39
-0.093052901 0.14349279 0.99199998 1.0148477e-38
-0.090443939 0.14349279 0.99199998 9.4108991e-39
-0.086095676 0.14349279 0.99199998 8.8577253e-39
-0.081747405 0.14349279 0.99199998 8.7640905e-39
-0.078268796 0.14349279 0.99199998 2.1757814e-38
-0.073572673 0.14279707 0.99200004 2.3509886e-38
-0.069572262 0.14262313 0.99199998 2.3509886e-38
-0.066093653 0.14262314 0.99199998 1.2823897e-38
-0.061745387 0.14262316 0.99200004 8.7684163e-39
-0.057397112 0.14262313 0.99199998 1.0147382e-38
-0.053918503 0.14262314 0.99199998 9.4112606e-39
-0.050235983 0.14201455 0.99140006 9.8718772e-39
-0.046014771 0.14151356 0.99033338 1.0701635e-38
-0.041659202 0.14146595 0.99000001 9.7822095e-39
-0.038187601 0.14146595 0.99000001 9.8743996e-39
-0.033813909 0.14219183 0.98900002 9.1371863e-39
-0.029523503 0.14240617 0.99050003 8.766966e-39
-0.026050588 0.1415374 0.99049997 1.1160815e-38
-0.021710942 0.14156179 0.99066669 3.1423039e-39
-0.017393066 0.14175349 0.99200004 1.8908042e-38
-0.013914453 0.14175348 0.99200004 4.2489836e-39
-0.010435839 0.14262313 0.99199998 5.1734986e-39
-0.10917684 0.14624348 0.99100006 3.4243306e-39
-0.10593726 0.14587952 0.99049997 1.1530656e-38
-0.10230875 0.14565992 0.98900002 1.6133197e-38
-0.098071814 0.14580633 0.99000001 5.0783729e-39
-0.09378054 0.14587952 0.99049997 1.0886389e-38
-0.090307184 0.14587952 0.99049997 8.3971073e-39
-0.085877828 0.14573312 0.98949999 9.3194307e-39
-0.081562653 0.14576973 0.98975003 8.1187127e-39
-0.078321114 0.14537093 0.98900002 1.5764075e-38
-0.074275002 0.14537093 0.98900002 2.3509886e-38
-0.069795378 0.14522642 0.98900002 2.3509886e-38
-0.065893769 0.14565992 0.98900002 2.0563975e-38
-0.062425677 0.14565992 0.98900002 6.0046942e-39
-0.058090564 0.14565992 0.98900002 9.3223034e-39
-0.053755447 0.14565992 0.98900002 1.0056263e-38
-0.050287351 0.14565992 0.98900002 9.5963665e-39
-0.045952238 0.1447929 0.98900002 1.0516881e-38
-0.042484142 0.1447929 0.98900002 1.1255159e-38
-0.032946885 0.1447929 0.98900002 9.7803949e-39
-0.029478792 0.1447929 0.98900002 8.3992709e-39
-0.0260107 0.14565992 0.98900002 1.0241366e-38
-0.021695746 0.1449393 0.99000001 6.5531961e-39
-0.017860681 0.14583334 0.98900002 1.3187648e-38
-0.013872373 0.14565992 0.98900002 1.2264231e-38
-0.010411512 0.14576973 0.98975003 4.0635455e-39
-0.0072392207 0.14624348 0.99100006 4.1589922e-39
-0.11369314 0.15014495 0.99000001 3.2399184e-39
-0.11097898 0.149128 0.98900002 5.8199513e-39
-0.096239582 0.149128 0.98900002 1.1255521e-38
-0.093638517 0.149128 0.98900002 1.0702348e-38
-0.090170428 0.14999503 0.98900002 6.6468238e-39
-0.086182117 0.1489546 0.98900002 9.6896412e-39
-0.065893769 0.14826098 0.98900002 2.3509886e-38
-0.062425677 0.14826098 0.98900002 9.0406382e-39
-0.058957584 0.14826098 0.98900002 1.1071511e-38
-0.01820749 0.14826098 0.98900002 9.3190328e-39
-0.013872373 0.14826098 0.98900002 1.4288218e-38
-0.01040428 0.14826098 0.98900002 2.2167575e-39
-0.0058579957 0.14994758 0.990125 3.1441144e-39
-0.0026050149 0.15108955 0.99049997 1.66935e-39
-0.12088181 0.15566793 0.99199998 2.5001995e-39
-0.11832428 0.15419632 0.99000001 2.4080067e-39
-0.1153141 0.15346313 0.98900002 2.5001995e-39
-0.0052021397 0.15346313 0.98900002 1.8544672e-39
-0.0013018498 0.15369457 0.99050003 1.3009263e-39
0.0014494222 0.15508817 0.99199998 1.5760642e-39
-0.12436043 0.15914655 0.99199998 1.5796852e-39
-0.12147597 0.15791726 0.98975003 1.856272e-39
0.001736019 0.15791726 0.98975003 9.3142207e-40
0.0052179196 0.15914655 0.99199998 4.7154534e-40
-0.12634388 0.16237795 0.99050003 3.0519286e-39
-0.12329071 0.16178656 0.98900002 1.5796894e-39
0.0026010699 0.16039932 0.98900002 8.3923064e-40
0.0060779299 0.16235019 0.99033338 6.5520232e-40
0.0072251945 0.16617946 0.98900002 1.2708376e-41
-0.022679366 0.13520391 0.995 6.1930105e-39
-0.073271796 0.13869305 0.995 2.3509886e-38
-0.069782667 0.13869305 0.995 2.3509886e-38
-0.06629353 0.13782077 0.995 7.7520546e-39
-0.062368259 0.13825691 0.995 9.5063429e-39
-0.057570696 0.13869305 0.995 1.0147026e-38
-0.054953847 0.13869305 0.995 1.0239222e-38
-0.049720149 0.13869305 0.995 1.125371e-38
-0.046231017 0.13869306 0.99500006 1.0792746e-38
-0.041869599 0.13869305 0.995 9.2279526e-39
-0.038380466 0.13869305 0.995 1.051832e-38
-0.026168499 0.13782077 0.995 9.2265078e-39
-0.02137094 0.13738462 0.995 1.0050829e-38
-0.017445665 0.13782077 0.995 1.9174553e-38
-0.013956534 0.13782077 0.995 6.1815017e-39
-0.010467399 0.13869305 0.995 7.2003522e-39
-0.10903541 0.14392674 0.995 4.805463e-39
-0.1061278 0.14334522 0.99500006 6.6565503e-39
-0.10205715 0.14218217 0.99500006 1.6690666e-38
-0.097695723 0.14130989 0.995 9.5481675e-41
-0.094642736 0.14218217 0.995 9.3230335e-39
-0.089845181 0.14218217 0.99500006 8.8580784e-39
-0.08548376 0.14218217 0.995 8.4914539e-39
-0.08199463 0.14218217 0.995 1.014164e-38
-0.078505501 0.14218217 0.995 2.3508807e-38
-0.074580222 0.14087375 0.995 2.3509886e-38
-0.069782667 0.14043762 0.995 2.3509886e-38
-0.06629353 0.14043762 0.995 7.7484588e-39
-0.061932113 0.14043763 0.99500006 9.8715269e-39
-0.057570696 0.14043762 0.995 1.0054829e-38
-0.054081567 0.14043762 0.995 1.0146306e-38
-0.051464718 0.14043762 0.995 1.0883498e-38
-0.034019049 0.14043763 0.99500006 9.4137717e-39
-0.029657632 0.14043762 0.995 9.6885496e-39
-0.010467399 0.14043762 0.995 7.3840203e-39
-0.0072690276 0.14334522 0.99500006 4.7089178e-39
-0.11339682 0.14741588 0.995 3.6083477e-39
-0.11077998 0.14567131 0.995 4.3448562e-39
-0.0049429387 0.14625284 0.99500006 2.5916441e-39
-0.0017445666 0.14741588 0.995 2.0381284e-39
-0.11688596 0.150905 0.995 2.6849495e-39
-0.11426912 0.14916044 0.995 2.687462e-39
-0.0014538056 0.14974198 0.99500006 1.6689885e-39
0.0008722833 0.150905 0.995 1.2094439e-39
-0.12182891 0.15381263 0.99500006 2.4991247e-39
-0.11863053 0.15264958 0.995 2.3161698e-39
0.0020353277 0.15323111 0.99500006 1.6679039e-39
-0.12531804 0.15788329 0.99500006 1.7629946e-39
-0.12299194 0.1561387 0.995 2.0410262e-39
0.0061059832 0.15759254 0.995 1.5767859e-39
0.010176638 0.16253546 0.99500006 5.079145e-39
-0.097115375 0.13561156 0.99800003 1.6596172e-38
-0.094490632 0.13473666 0.99800003 2.7593529e-40
-0.090116076 0.13473666 0.99800009 9.316907e-39
-0.086033151 0.13502829 0.99800003 1.0700905e-38
-0.078742199 0.13561156 0.99800003 8.487215e-39
-0.073492721 0.13561156 0.99800003 2.0838386e-38
-0.069993064 0.13561156 0.99800003 2.2681191e-38
-0.066493407 0.13561156 0.99800003 9.9625623e-39
-0.061681386 0.13517411 0.99800003 1.0794547e-38
-0.057569295 0.1342117 0.99800009 1.1715054e-38
-0.054419607 0.1342117 0.99800009 1.1714697e-38
-0.050220024 0.13491164 0.99800009 1.1438114e-38
-0.045495495 0.13561156 0.99800003 1.0884946e-38
-0.041995838 0.13561156 0.99800003 1.116153e-38
-0.039371099 0.13561156 0.99800003 1.0239575e-38
-0.029455416 0.13502829 0.99800003 1.0516874e-38
-0.026247401 0.13473666 0.99800003 2.3183362e-39
-0.0222228 0.13351177 0.99800009 1.5770111e-38
-0.017206628 0.1350283 0.99800003 1.033247e-38
-0.014290251 0.1350283 0.99800003 7.9368424e-39
-0.10411468 0.13911122 0.99800003 6.9187332e-39
-0.10119831 0.13852796 0.99800003 1.9642003e-38
-0.097990289 0.13823631 0.99800003 4.6166282e-39
-0.09449064 0.13823631 0.99800003 4.6217276e-39
-0.090116076 0.13823631 0.99800009 9.7818382e-39
-0.085741505 0.13823631 0.99800003 8.6740473e-39
-0.082241856 0.13823631 0.99800003 1.1990562e-38
-0.077867292 0.13823631 0.99800009 2.0283075e-38
-0.073492721 0.13736139 0.99800003 2.3509886e-38
-0.069993064 0.13736139 0.99800003 2.3509886e-38
-0.061243933 0.13736139 0.99800003 1.1067897e-38
-0.05774428 0.13736139 0.99800003 1.1253007e-38
-0.053952988 0.13794468 0.99800003 1.1069333e-38
-0.050307516 0.13779886 0.99800003 1.1069329e-38
-0.045495495 0.13736139 0.99800003 1.0792752e-38
-0.041995838 0.13736139 0.99800003 1.0885306e-38
-0.038496189 0.13736139 0.99800003 1.0242096e-38
-0.034121618 0.13823631 0.99800009 9.5956463e-39
-0.029747054 0.13823631 0.99800003 1.0792379e-38
-0.01049896 0.13736139 0.99800003 7.2896723e-39
-0.0078742197 0.13911122 0.99800003 4.0628169e-39
-0.11023907 0.14261088 0.99800003 4.8980146e-39
-0.10586451 0.14144433 0.99800003 4.6232171e-39
-0.10148995 0.14086105 0.99800003 1.8448139e-38
-0.093615726 0.14086105 0.99800003 1.0059868e-38
-0.090116076 0.14086106 0.99800003 9.1364646e-39
-0.085741505 0.14086105 0.99800003 8.1208707e-39
-0.082241856 0.14086105 0.99800003 1.5206255e-38
-0.078742199 0.14086105 0.99800003 2.3509886e-38
-0.0069993064 0.14173597 0.99800003 3.2348779e-39
-0.11636347 0.14786035 0.99800003 2.318332e-39
-0.11344709 0.14552724 0.99800003 3.2388576e-39
-0.11111399 0.14436069 0.99800003 4.2522892e-39
-0.0043745665 0.14436069 0.99800003 2.5902119e-39
-0.0026247399 0.14611052 0.99800003 2.6802622e-39
-0.12161295 0.15136001 0.99800003 2.866115e-39
-0.11855076 0.15004763 0.99800003 2.7757158e-39
0.0017498266 0.1504851 0.99800003 1.301285e-39
-0.12511261 0.15485966 0.99800003 2.7753445e-39
-0.12336278 0.15310983 0.99800003 2.3143691e-39
0.0052494798 0.15398476 0.99800003 1.210167e-39
0.0078742197 0.15660948 0.99800003 1.7626121e-39
0.01049896 0.1583593 0.99800003 7.565176e-39
0.013998613 0.1583593 0.99800003 1.0513273e-38
-0.089777671 0.12762512 1.0039999 1.2356052e-38
-0.086256981 0.12762512 1.0039999 1.0229479e-43
-0.081856117 0.12674496 1.0039999 4.6199689e-39
-0.078335419 0.12762512 1.0039999 1.0148098e-38
-0.061612125 0.12762512 1.0039999 9.5945715e-39
-0.057798039 0.12703834 1.0039999 8.3045697e-39
-0.054570742 0.12674496 1.0039999 8.9488545e-39
-0.050521947 0.12692098 1.0039999 9.7796746e-39
-0.045328923 0.12630486 1.0039999 1.0149542e-38
-0.042688403 0.12630486 1.0039999 9.872236e-39
-0.037847452 0.12762514 1.0039999 7.9404535e-39
-0.033446584 0.12762512 1.0039999 8.7917466e-42
-0.02992589 0.12762512 1.0039999 1.4453857e-38
-0.027285371 0.12762512 1.0039999 2.3509886e-38
-0.022884503 0.12762512 1.0039999 6.1134911e-39
-0.093669415 0.13060777 1.00325 1.4012319e-38
-0.08950942 0.12987641 1.001 9.234697e-41
-0.08599925 0.12987641 1.001 6.739765e-39
-0.082489073 0.12987641 1.001 1.1070776e-38
-0.078177631 0.13000616 1.0020001 9.4134102e-39
-0.0738241 0.1300697 1.0025001 9.043906e-39
-0.070308663 0.1300697 1.0025001 9.7803977e-39
-0.065542579 0.13020656 1.0022 1.0518317e-38
-0.061520081 0.1300697 1.0025001 1.0334288e-38
-0.057961911 0.12997305 1.00175 1.0242093e-38
-0.054407686 0.12987641 1.001 9.0439158e-39
-0.050044082 0.12994084 1.0015 6.7422761e-39
-0.045700632 0.1300697 1.0025001 7.4776845e-39
-0.042248316 0.13026565 1.0039999 1.0055188e-38
-0.037847448 0.13026565 1.0039999 1.1253723e-38
-0.033422258 0.13016768 1.00325 8.031217e-39
-0.029881181 0.1300697 1.0025001 3.7898677e-40
-0.02636575 0.1300697 1.0025001 1.5572721e-38
-0.022329051 0.13028494 1.0028 1.5587229e-38
-0.017603464 0.13114582 1.0039999 7.028595e-39
-0.014082773 0.13114582 1.0039999 5.6348411e-39
-0.10474061 0.13466652 1.0039999 6.4660409e-39
-0.10194756 0.13358514 1.0024999 7.4719238e-39
-0.098284855 0.13338658 1.001 2.1201437e-38
-0.093992695 0.13264142 1.0020001 4.2397014e-39
-0.08950942 0.13250904 1.001 6.2848671e-39
-0.085706733 0.13309407 1.0010002 1.1437398e-38
-0.082489073 0.13338658 1.001 9.6899943e-39
-0.078101367 0.13338658 1.001 8.2166635e-39
-0.073713645 0.13338658 1.001 8.1240979e-39
-0.070203468 0.13338658 1.001 8.8609623e-39
-0.065815747 0.13338658 1.001 1.0519402e-38
-0.06172055 0.13309407 1.0010002 1.0980372e-38
-0.058795404 0.13250904 1.001 1.1531386e-38
-0.053530145 0.13250904 1.001 1.2176755e-38
-0.0495812 0.1329478 1.001 1.1532829e-38
-0.045632251 0.13338658 1.001 1.0517961e-38
-0.042185199 0.13358514 1.0024999 8.212716e-39
-0.038641494 0.13348587 1.00175 8.9506454e-39
-0.034224194 0.1333866 1.001 1.0700915e-38
-0.030128986 0.13309407 1.0010002 7.9401004e-39
-0.026326301 0.13250904 1.001 1.0236499e-39
-0.020183496 0.13338658 1.001 1.872438e-38
-0.017843382 0.13309407 1.0010002 7.0177335e-39
-0.013776232 0.13335882 1.003 8.3985548e-39
-0.010844074 0.13394561 1.003 4.0635624e-39
-0.11354235 0.13994755 1.0039999 3.2377618e-39
-0.1099112 0.13834119 1.003 4.6210647e-39
-0.10594326 0.13784224 1.0015 5.1717092e-39
-0.10208754 0.13660425 1.0010002 1.6320486e-38
-0.0991624 0.13601923 1.001 2.1291448e-38
-0.082489073 0.13601923 1.001 7.5702207e-39
-0.076346271 0.13601923 1.001 1.6229678e-38
-0.037734363 0.13601923 1.001 9.9637169e-39
-0.03422419 0.13601923 1.0010002 9.4105474e-39
-0.01053052 0.13601923 1.001 6.0911445e-39
-0.0065048668 0.13837306 1.0028 3.1426851e-39
-0.0026405198 0.13994755 1.0039999 2.9611553e-39
-0.11706305 0.14346825 1.0039999 3.3288882e-39
-0.11416677 0.14226788 1.00175 3.5139983e-39
-0.11057046 0.14128448 1.001 5.3571907e-39
-0.10793784 0.14128448 1.001 4.7186386e-39
-0.0049727457 0.14186952 1.0010002 1.6715221e-39
-0.0020511076 0.14273858 1.003 2.7735438e-39
-0.12146391 0.14698893 1.0039999 2.2254273e-39
-0.11776701 0.14588916 1.0025001 2.9611861e-39
-0.11495818 0.14479466 1.001 2.6835244e-39
-0.0014625723 0.14537969 1.0010002 2.8642975e-39
0.0017596891 0.14599895 1.00325 1.5775174e-39
-0.12515265 0.15035796 1.003 2.5923938e-39
-0.12232955 0.1497089 1.001 2.2243413e-39
-0.11846835 0.14830482 1.001 2.318332e-39
0.0020502312 0.149038 1.0020001 1.4849588e-39
0.0055691707 0.15065137 1.003 1.7637079e-39
0.010562079 0.15050963 1.0039999 1.1991651e-38
0.0079057803 0.15372175 1.0020001 3.2363128e-39
0.01054104 0.15372173 1.002 9.7811137e-39
0.014068747 0.15387516 1.003 9.1339226e-39
-0.045905769 0.11917844 1.007 8.0207395e-39
-0.043257359 0.11917844 1.007 1.8067877e-38
-0.053851001 0.12270965 1.007 1.0607286e-38
-0.049142715 0.12212113 1.007 6.3666693e-39
-0.045905769 0.12182686 1.007 2.1271206e-39
-0.042374559 0.12182685 1.007 6.3573058e-39
-0.038313664 0.12200341 1.007 1.4368542e-38
-0.09269435 0.12624086 1.007 2.1113553e-38
-0.090045929 0.12624086 1.007 1.7883088e-38
-0.086514726 0.12624086 1.007 2.1439867e-43
-0.082100704 0.12447526 1.007 8.4928216e-40
-0.077980958 0.12565234 1.007 6.6435925e-39
-0.070624262 0.12624086 1.007 9.6882062e-39
-0.061796226 0.12535806 1.007 1.0332492e-38
-0.058559284 0.12506381 1.007 1.0516175e-38
-0.053851001 0.12447526 1.007 1.1161893e-38
-0.049142715 0.12506381 1.007 1.0333933e-38
-0.046788573 0.12535806 1.007 1.0517966e-38
-0.041491754 0.12535806 1.007 5.6366502e-39
-0.037960544 0.12535806 1.007 3.6015136e-39
-0.033546522 0.12535806 1.007 1.0138359e-38
-0.03030958 0.12565234 1.007 2.0190483e-38
-0.026484098 0.12624086 1.007 1.8254019e-38
-0.022952884 0.12624086 1.007 1.0699417e-38
-0.097991168 0.13065489 1.007 1.4660983e-38
-0.093871415 0.12859502 1.007 1.9449372e-38
-0.076803878 0.12800647 1.007 9.3233796e-39
-0.07415548 0.12800647 1.007 9.2297434e-39
-0.070624262 0.12800647 1.007 9.6882048e-39
-0.06665165 0.12844788 1.007 9.7796788e-39
-0.025601294 0.12800647 1.007 2.0926257e-38
-0.020304475 0.12977208 1.007 9.2261042e-39
-0.017656066 0.12977208 1.007 1.0057321e-38
-0.015007655 0.12977208 1.007 5.6333866e-39
-0.011476442 0.13153769 1.007 3.3306791e-39
-0.1085848 0.13506891 1.007 4.344838e-39
-0.10623066 0.13389182 1.007 6.37206e-39
-0.0097108362 0.13330328 1.007 3.3281581e-39
-0.0079452293 0.13506891 1.007 3.4203608e-39
-0.11211601 0.1368345 1.007 3.7001903e-39
-0.11035042 0.1368345 1.007 4.5299509e-39
-0.0052968198 0.13771731 1.007 3.4192677e-39
-0.11829564 0.14301413 1.007 3.3292455e-39
-0.11564723 0.14036572 1.007 3.0533691e-39
-0.00088280329 0.14213133 1.007 2.49731e-39
0.0017656065 0.14389692 1.007 3.049779e-39
-0.12447526 0.14654535 1.007 3.5096543e-39
-0.12182686 0.14566255 1.007 2.7760802e-39
0.0044140164 0.14742814 1.007 2.498382e-39
0.0070624258 0.14919375 1.007 4.4344833e-39
0.0097108362 0.14919375 1.007 1.1991275e-38
0.013242049 0.15095936 1.007 1.0145212e-38
-0.046042532 0.11599176 1.01 1.936074e-38
-0.058438599 0.1195335 1.01 1.2984319e-39
-0.054365605 0.11882515 1.0100001 7.3768247e-39
-0.049584262 0.11864807 1.01 1.1891146e-38
-0.046042532 0.11776263 1.01 2.2307045e-38
-0.042205654 0.11835292 1.01 1.8161859e-38
-0.038073629 0.1195335 1.01 1.8619276e-38
-0.090314195 0.12307522 1.01 1.6223945e-38
-0.085444309 0.12263251 1.01 1.7427543e-38
-0.081459865 0.12218979 1.01 9.3197432e-39
-0.077918127 0.12218979 1.01 5.9131824e-39
-0.074671544 0.12248494 1.01 3.0619619e-39
-0.070303403 0.12236688 1.0100001 6.5499647e-39
-0.06552206 0.12218979 1.01 7.3804456e-39
-0.061980329 0.12218979 1.01 6.9241394e-39
-0.058438599 0.12218979 1.01 7.3836854e-39
-0.054011434 0.12130436 1.01 8.4645013e-40
-0.050469697 0.12130436 1.01 1.9281867e-42
-0.036302764 0.12130436 1.01 2.2387381e-38
-0.033646464 0.12218979 1.01 1.8162957e-38
-0.03010473 0.12307522 1.01 1.6043469e-38
-0.026563 0.12307522 1.01 8.7669268e-39
-0.093855925 0.12573153 1.01 1.1623206e-38
-0.090314195 0.1248461 1.01 1.8614608e-38
-0.086772457 0.1248461 1.01 2.0463132e-38
-0.0770327 0.1248461 1.01 4.4309001e-39
-0.074376397 0.12573153 1.01 1.0147022e-38
-0.069506511 0.12528881 1.01 1.0608721e-38
-0.06552206 0.12573153 1.01 1.0423612e-38
-0.029219298 0.1248461 1.01 1.8903001e-38
-0.026563 0.1248461 1.01 5.5621306e-39
-0.023021266 0.1248461 1.01 8.3095752e-39
-0.10536657 0.13192956 1.01 6.8294341e-39
-0.10147065 0.13051288 1.0100001 8.6747704e-39
-0.097397663 0.12838782 1.01 9.7821955e-39
-0.020364966 0.12838782 1.01 9.1396918e-39
-0.017708667 0.12838782 1.01 6.8355325e-39
-0.013281499 0.13015869 1.01 3.2399128e-39
