# .PCD v0.7 - Point Cloud Data file format
VERSION 0.7
FIELDS x y z rgb
SIZE 4 4 4 4
TYPE F F F F
COUNT 1 1 1 1
WIDTH 154
HEIGHT 1
VIEWPOINT 0 0 0 1 0 0 0
POINTS 154
DATA ascii
-0.17391226 0.13860011 1.007 6.029699e-39
-0.16949823 0.13860011 1.007 4.9867588e-40
-0.18239926 0.13192956 1.01 1.0546197e-38
-0.17761791 0.1312212 1.0100001 1.0087722e-38
-0.17354491 0.13104413 1.01 1.0366097e-38
-0.17000319 0.13104413 1.01 1.284783e-38
-0.18239926 0.13458586 1.01 4.0038923e-39
-0.17797208 0.13458586 1.0100001 1.1647121e-38
-0.17354491 0.13458586 1.01 1.2755307e-38
-0.17000319 0.13458586 1.01 6.4953155e-39
-0.16675662 0.134881 1.01 3.9163518e-39
-0.18915749 0.1234408 1.013 2.3509886e-38
-0.18738136 0.1234408 1.013 2.3509886e-38
-0.19626199 0.12699306 1.013 2.3509832e-38
-0.19448586 0.12699306 1.013 2.3509886e-38
-0.18915749 0.126105 1.013 2.3509886e-38
-0.18678932 0.12640102 1.013 2.1481582e-38
-0.182053 0.12699306 1.013 1.0175176e-38
-0.17850073 0.12699306 1.013 1.05487e-38
-0.1740604 0.12699306 1.013 1.2930999e-38
-0.19626199 0.12965724 1.013 2.3509738e-38
-0.19359779 0.12965724 1.013 2.3509886e-38
-0.19004554 0.12965724 1.013 2.3509886e-38
-0.18649331 0.12965724 1.013 1.6421138e-38
-0.182053 0.12965724 1.013 8.6183443e-39
-0.17761266 0.12876917 1.013 9.906565e-39
-0.1740604 0.12876917 1.013 1.0363945e-38
-0.17050816 0.12876917 1.013 1.0818117e-38
-0.16784397 0.1305453 1.013 1.154988e-38
-0.19626199 0.13232143 1.013 2.3505406e-38
-0.19330178 0.13291347 1.013 2.2761189e-38
-0.16606784 0.13365352 1.013 3.2663384e-39
-0.20546436 0.118812 1.0190001 2.3509886e-38
-0.21082431 0.1223853 1.0190001 9.474249e-40
-0.20546438 0.12149197 1.0190001 2.3232939e-38
-0.20189108 0.1223853 1.0190001 2.3509877e-38
-0.19831778 0.1223853 1.0190001 2.3509886e-38
-0.19385117 0.12238531 1.0190001 2.3509886e-38
-0.19060837 0.12291567 1.016 2.3509886e-38
-0.18693194 0.12273888 1.0170001 2.3509886e-38
-0.18081073 0.12380636 1.016 1.8810176e-39
-0.17902936 0.12380636 1.016 4.6468879e-39
-0.20948434 0.12551193 1.0190001 8.4902712e-39
-0.20546439 0.12595861 1.0190001 2.9692379e-39
-0.20189106 0.12595861 1.0190001 1.0524595e-38
-0.19814561 0.12537773 1.0172001 2.3509873e-38
-0.19422235 0.1253777 1.0172001 2.3509886e-38
-0.19149905 0.12647846 1.016 2.3509886e-38
-0.18526421 0.12558776 1.016 2.3509886e-38
-0.18170144 0.12558776 1.016 1.1359807e-38
-0.17784178 0.12618157 1.016 9.8006955e-39
-0.17546658 0.12558776 1.016 9.7916963e-39
-0.19862461 0.13004123 1.016 2.2766743e-38
-0.21771665 0.11826582 1.022 9.7898074e-39
-0.2144912 0.11844502 1.022 2.0564938e-38
-0.20935443 0.11856448 1.0220001 2.3509886e-38
-0.20606925 0.11736987 1.022 2.3509886e-38
-0.20248544 0.11916178 1.022 2.3509886e-38
-0.19979757 0.11916178 1.022 2.3509886e-38
-0.21771665 0.12095369 1.022 7.3021635e-39
-0.2144912 0.12167045 1.022 1.0243338e-38
-0.20935443 0.121551 1.0220001 1.660833e-38
-0.20248544 0.12095369 1.022 2.3509886e-38
-0.19800568 0.1209537 1.0220001 2.3509886e-38
-0.19352591 0.12095369 1.022 2.3509886e-38
-0.19083804 0.12095369 1.022 2.3509886e-38
-0.18546233 0.12453751 1.022 2.3509886e-38
-0.23341426 0.11084924 1.028 1.7145726e-38
-0.22980939 0.11084925 1.0280001 2.3140337e-38
-0.22530332 0.11084924 1.028 2.3509886e-38
-0.22015291 0.11052574 1.025 2.3509886e-38
-0.21835575 0.11052574 1.025 2.3509886e-38
-0.23341426 0.11265166 1.028 4.8249509e-39
-0.2294489 0.11337262 1.028 1.383537e-38
-0.22530332 0.11355287 1.028 2.1758057e-38
-0.22171427 0.11451922 1.0262856 2.157555e-38
-0.21756282 0.11417487 1.0255001 2.3509886e-38
-0.21416827 0.11454526 1.0256001 2.3509886e-38
-0.2102685 0.11501865 1.025 2.3509886e-38
-0.20682472 0.11510216 1.0257499 2.3509886e-38
-0.20218125 0.11591724 1.025 2.3509886e-38
-0.22872792 0.11769845 1.028 3.3427008e-39
-0.22195008 0.11861299 1.0250001 8.5899974e-39
-0.21296424 0.11771441 1.025 2.3509886e-38
-0.21116707 0.11771441 1.025 2.3509886e-38
-0.20218125 0.11771441 1.025 2.3509886e-38
-0.19798784 0.11891252 1.025 1.6138181e-38
-0.23228773 0.10394198 1.031 2.3509886e-38
-0.23048005 0.10394198 1.031 2.3509886e-38
-0.24223001 0.10665351 1.031 1.5308353e-38
-0.23861465 0.10665351 1.031 2.2588243e-38
-0.23409544 0.10665351 1.0310001 2.3509886e-38
-0.2295762 0.10665351 1.031 2.3509886e-38
-0.22686467 0.10665351 1.031 2.3509886e-38
-0.2377108 0.11117273 1.031 9.5871236e-39
-0.23454735 0.10981696 1.031 2.0928353e-38
-0.2295762 0.10936504 1.031 2.3509886e-38
-0.22596082 0.10936504 1.031 2.3509886e-38
-0.22324929 0.11117273 1.031 2.3509886e-38
-0.21782625 0.11117273 1.031 2.3509886e-38
-0.2377108 0.11298041 1.031 4.1763627e-39
-0.23454735 0.11433617 1.031 4.447968e-39
-0.21330702 0.11298041 1.031 2.3509886e-38
-0.20969164 0.11298041 1.031 1.2366104e-38
-0.20517243 0.11478809 1.031 2.3509886e-38
-0.25018662 0.10152501 1.034 2.3509886e-38
-0.24565428 0.10152501 1.034 2.3509886e-38
-0.24202839 0.10152501 1.034 2.3509886e-38
-0.23749602 0.10152501 1.034 2.3509886e-38
-0.23387012 0.10152501 1.034 2.3509886e-38
-0.23024423 0.10243148 1.034 2.2312782e-38
-0.25363126 0.10569479 1.034 2.1757828e-38
-0.25018665 0.10605739 1.034 1.3844858e-38
-0.24656078 0.10605738 1.034 7.4836709e-39
-0.24202839 0.10424443 1.0340002 2.3509886e-38
-0.23749602 0.10424443 1.034 2.3509886e-38
-0.23477659 0.10424443 1.034 2.3509886e-38
-0.22933777 0.10424443 1.034 2.3509886e-38
-0.22661832 0.10605738 1.034 2.3509886e-38
-0.22389892 0.10787033 1.034 2.3509886e-38
-0.2462586 0.11028759 1.0340002 1.1289617e-39
-0.24202839 0.11058974 1.034 1.3140508e-39
-0.23840249 0.10968328 1.034 2.1001462e-38
-0.22208598 0.10968328 1.0340002 2.3509886e-38
-0.21664712 0.11149622 1.034 2.3509886e-38
-0.21392772 0.11149622 1.034 2.3509886e-38
-0.2584343 0.099187814 1.038 2.3509886e-38
-0.25342941 0.098732829 1.038 2.3509886e-38
-0.2493345 0.098277837 1.038 2.3509886e-38
-0.24569458 0.098277837 1.038 2.3509886e-38
-0.24205467 0.098277837 1.038 2.2498225e-38
-0.23841473 0.099187814 1.038 2.2220586e-38
-0.26116425 0.10282774 1.038 2.3509886e-38
-0.25843433 0.10191776 1.038 2.3509886e-38
-0.25479439 0.10191776 1.038 2.3509886e-38
-0.24842453 0.10191776 1.038 2.3509886e-38
-0.26116425 0.10555767 1.038 1.6864899e-38
-0.2584343 0.10555767 1.038 2.1939644e-38
-0.22567502 0.10646766 1.038 1.8448851e-38
-0.25644338 0.095824048 1.041 2.3509886e-38
-0.25370556 0.095824048 1.041 2.3509886e-38
-0.25005513 0.095824048 1.041 2.3509886e-38
-0.24640468 0.095824048 1.041 2.3509886e-38
-0.24366686 0.095824048 1.041 1.4949324e-38
-0.26009384 0.097649269 1.041 2.3509886e-38
-0.25735599 0.097649269 1.041 2.3509886e-38
-0.25461817 0.097649269 1.041 2.3509886e-38
-0.26191905 0.10129971 1.041 2.3509886e-38
-0.25846982 0.094405167 1.0455 2.3509886e-38
-0.25443673 0.094269723 1.044 2.3509886e-38
-0.24986053 0.094269723 1.044 2.3509886e-38
-0.26175863 0.097930677 1.044 2.3509886e-38
-0.25901291 0.096100196 1.044 2.3509886e-38
-0.254058 0.09297049 1.05 2.3509886e-38
