# .PCD v0.7 - Point Cloud Data file format
VERSION 0.7
FIELDS x y z rgb
SIZE 4 4 4 4
TYPE F F F F
COUNT 1 1 1 1
WIDTH 1009
HEIGHT 1
VIEWPOINT 0 0 0 1 0 0 0
POINTS 1009
DATA ascii
-0.11771353 0.14622712 0.83400005 2.3507932e-38
-0.11419459 0.14640331 0.83499998 2.3509807e-38
-0.11082732 0.14654973 0.83499998 2.3507995e-38
-0.10467838 0.14713533 0.83499998 2.3509814e-38
-0.10321435 0.14713533 0.83499998 2.3509814e-38
-0.13824186 0.14994359 0.83433336 1.1965526e-38
-0.1345145 0.14941187 0.833 2.127688e-38
-0.12560529 0.14824344 0.833 2.3502202e-38
-0.12158885 0.14860857 0.833 1.5386075e-38
-0.11736376 0.14928669 0.83300006 1.6761152e-38
-0.11396638 0.1497633 0.83333337 2.3502177e-38
-0.11038703 0.14986256 0.83388889 2.3509088e-38
-0.10605767 0.14994244 0.83433336 2.3507285e-38
-0.10166907 0.14994244 0.83433336 2.3503325e-38
-0.098050788 0.15000293 0.83466667 2.1657568e-38
-0.094639286 0.1504817 0.83499998 1.4185077e-38
-0.13750984 0.15433279 0.83433336 8.7487842e-39
-0.13473357 0.15445068 0.833 8.5640216e-39
-0.10101976 0.15359873 0.83300006 1.9256922e-38
-0.097855292 0.15408556 0.83300006 1.2157829e-38
-0.095047317 0.15427054 0.83400005 1.1328065e-38
-0.13761912 0.15738358 0.83499998 9.1179324e-39
-0.13393566 0.15853056 0.83333337 8.9339083e-39
-0.10004608 0.15700661 0.833 1.1969107e-38
-0.098047979 0.15825114 0.83339995 1.1699769e-38
-0.095894173 0.1581156 0.83499998 1.169904e-38
-0.1335393 0.16191278 0.83420002 8.6573228e-39
-0.13071713 0.16284873 0.833 8.5658545e-39
-0.10004608 0.16284873 0.833 1.1975982e-38
-0.098031051 0.16167879 0.83450001 1.1606503e-38
-0.095894173 0.16031164 0.83499998 1.1422827e-38
-0.13217765 0.16430925 0.833 8.1977782e-39
-0.13033491 0.16590244 0.83366668 8.7502289e-39
-0.10126245 0.16596878 0.83399999 1.179088e-38
-0.12883493 0.16982785 0.83499998 8.8424231e-39
-0.12779607 0.16869083 0.833 9.3019677e-39
-0.10455301 0.16962534 0.83399999 1.1421733e-38
-0.12590685 0.17275593 0.83499998 9.1189988e-39
-0.10880923 0.17599346 0.833 1.1792304e-38
-0.10680999 0.17338406 0.83450001 1.1330974e-38
-0.10938316 0.17857087 0.83366668 1.1514643e-38
-0.10760644 0.17714801 0.83499998 1.1423877e-38
-0.11698152 0.18132359 0.83399999 9.5792763e-39
-0.11386 0.18163978 0.83433336 1.0132079e-38
-0.11076726 0.18095757 0.83399999 1.0776732e-38
-0.15666646 0.14269152 0.83899999 1.0601404e-38
-0.15372437 0.14269152 0.83899993 9.5818309e-39
-0.15078227 0.14269152 0.83899999 7.5527675e-39
-0.1448981 0.14342704 0.83899999 1.6201446e-38
-0.14190018 0.14263454 0.83866662 2.3126904e-38
-0.13811357 0.14252058 0.838 2.3504021e-38
-0.13438569 0.14319912 0.83766669 2.3500413e-38
-0.13018763 0.14342704 0.83899999 2.3498242e-38
-0.12557344 0.14319912 0.83766669 2.3498253e-38
-0.12195133 0.14252058 0.838 2.3503637e-38
-0.11832457 0.14257756 0.83833331 2.3508339e-38
-0.11400612 0.14342704 0.83899999 2.3506507e-38
-0.11106402 0.14342704 0.83899999 2.3503668e-38
-0.094146982 0.14342704 0.83899999 2.3509724e-38
-0.15666646 0.1448981 0.83899999 1.1244976e-38
-0.15445989 0.1448981 0.83899999 1.0411622e-38
-0.1448981 0.14636913 0.83899999 8.5622293e-39
-0.14218342 0.14596012 0.83785713 1.5558978e-38
-0.13794875 0.14455269 0.83700001 2.3501132e-38
-0.1298773 0.14455269 0.83700007 2.3502562e-38
-0.12547466 0.14455269 0.83700007 2.3497883e-38
-0.12180582 0.14455269 0.83700001 2.349961e-38
-0.11813696 0.14455269 0.83700007 2.3509429e-38
-0.11382493 0.14466783 0.83766669 2.3508714e-38
-0.10946147 0.14509229 0.83799994 2.3503625e-38
-0.10646879 0.14611892 0.83757138 2.3506906e-38
-0.10211587 0.14643869 0.838 2.3509823e-38
-0.097553268 0.14642085 0.83824992 1.9168314e-38
-0.094146982 0.14636913 0.83899993 2.3314944e-38
-0.09028548 0.14655301 0.83899987 1.4550626e-38
-0.087527268 0.14636913 0.83899999 1.1878e-38
-0.1448981 0.14931123 0.83899999 8.1970719e-39
-0.14252234 0.14986791 0.83799994 8.1016421e-39
-0.093922555 0.1489553 0.83700001 1.5749189e-38
-0.090616897 0.15025878 0.83842856 1.1603586e-38
-0.14105304 0.15354028 0.83799994 8.8406351e-39
-0.093188792 0.1540917 0.83700001 1.1789081e-38
-0.091450065 0.15372437 0.83899999 1.1881992e-38
-0.14048494 0.15666646 0.83899999 9.0261067e-39
-0.13811445 0.15941831 0.838 9.1175835e-39
-0.093864873 0.15820554 0.83780003 1.1699397e-38
-0.09194041 0.15666646 0.83899999 1.1699039e-38
-0.13737892 0.16162314 0.838 8.6573242e-39
-0.13574745 0.16289693 0.83700001 8.6576927e-39
-0.096857637 0.16289693 0.83700001 1.1422476e-38
-0.094392166 0.16156995 0.83899999 1.1330625e-38
-0.13354614 0.16583201 0.83700001 8.4736532e-39
-0.097777262 0.16541384 0.83859998 1.1239505e-38
-0.13312972 0.16843483 0.83899999 7.7364399e-39
-0.13085565 0.16950087 0.83700007 8.1048539e-39
-0.10187107 0.16978644 0.83749998 1.1422089e-38
-0.099295646 0.16843483 0.83899999 1.1423531e-38
-0.12871657 0.17284797 0.83899999 9.0271787e-39
-0.12562633 0.17484502 0.838 8.8442112e-39
-0.10542223 0.17447989 0.83799994 1.1052597e-38
-0.1026055 0.17321573 0.83899999 1.1421374e-38
-0.12195221 0.17925289 0.838 9.7633228e-39
-0.10645933 0.17804486 0.83749998 1.1054744e-38
-0.11921059 0.18236509 0.83766669 9.3952592e-39
-0.10950472 0.18250942 0.83833331 1.1145509e-38
-0.10665087 0.1802032 0.83899999 1.0778174e-38
-0.11666943 0.18417627 0.83700001 9.3959682e-39
-0.11373435 0.18417627 0.83700007 1.0225009e-38
-0.11106402 0.18461634 0.83899999 1.1053319e-38
-0.15316637 0.1310209 0.84200001 2.1567954e-38
-0.15138134 0.13070369 0.84233332 2.350945e-38
-0.15415248 0.13423783 0.84133339 2.1095387e-38
-0.14974847 0.13386939 0.84249997 2.350798e-38
-0.14595842 0.13487296 0.84299999 2.3509458e-38
-0.15703993 0.13787073 0.84100002 1.1150262e-38
-0.15409082 0.13787074 0.84100002 1.0677712e-38
-0.14982457 0.13801569 0.8418889 2.0537875e-38
-0.14568686 0.137931 0.84249997 2.3506898e-38
-0.14227307 0.13858084 0.84233332 2.3505107e-38
-0.13856813 0.13930714 0.84299999 2.1200972e-38
-0.13376443 0.13967666 0.84300005 2.0275655e-38
-0.12982294 0.13918398 0.84300005 2.3504736e-38
-0.12618937 0.13838337 0.84299999 2.3501842e-38
-0.12184352 0.13808815 0.84233332 2.3503283e-38
-0.1174744 0.13816179 0.84277773 2.3507241e-38
-0.11381061 0.13893764 0.84299999 2.3509799e-38
-0.11041107 0.13908544 0.84300005 2.1939257e-38
-0.10568129 0.13967666 0.84300005 1.1417079e-38
-0.10198614 0.13967666 0.84299999 2.3501667e-38
-0.097995378 0.13908544 0.84300005 2.3509095e-38
-0.093782 0.13882719 0.84233332 2.350114e-38
-0.090161666 0.13893764 0.84299999 2.3502204e-38
-0.087944567 0.13967666 0.84299999 2.3501509e-38
-0.15703993 0.14081983 0.84100002 1.0232245e-38
-0.15409082 0.14081983 0.84100002 9.4878248e-39
-0.14924586 0.14208375 0.84100002 1.0308548e-38
-0.14612822 0.14199948 0.84100002 1.9519384e-38
-0.14229439 0.14081983 0.84100002 2.3500428e-38
-0.13750209 0.14118847 0.84100002 2.3505839e-38
-0.1339324 0.14161059 0.84219998 2.350474e-38
-0.13026515 0.14177155 0.84140009 2.3502938e-38
-0.12607431 0.14155713 0.84100002 2.3502588e-38
-0.12165065 0.14081983 0.84100002 2.3504743e-38
-0.11796427 0.14081983 0.84100002 2.3503992e-38
-0.11427788 0.14155713 0.84100002 2.3505407e-38
-0.10973477 0.14219379 0.84150004 2.3508725e-38
-0.10595932 0.14222728 0.84185719 1.9357079e-38
-0.10235762 0.14256243 0.84150004 1.5110633e-38
-0.098084107 0.1423316 0.84122229 2.1471347e-38
-0.093423478 0.14187311 0.84100002 2.304774e-38
-0.089983106 0.14235023 0.84133339 2.2663825e-38
-0.086889647 0.14227307 0.84233332 1.8055834e-38
-0.15703993 0.14671806 0.84100002 1.1153506e-38
-0.15372218 0.14634942 0.84100002 9.214849e-39
-0.14972648 0.14603893 0.84133339 7.9212109e-39
-0.14671806 0.14598078 0.84100002 9.2061498e-39
-0.10174417 0.1452435 0.84100002 1.8344002e-38
-0.099532351 0.1452435 0.84100002 6.641213e-39
-0.092159577 0.1452435 0.84100002 2.285147e-38
-0.085693292 0.14553075 0.84266675 1.132736e-38
-0.15371823 0.14854501 0.84299999 8.7542296e-39
-0.14936137 0.14936137 0.84259999 8.7488108e-39
-0.14634942 0.1500358 0.84100002 8.7498828e-39
-0.08660911 0.14984512 0.84200001 1.2159283e-38
-0.14550255 0.153997 0.84249997 8.6576815e-39
-0.14327744 0.15409082 0.84100002 8.9331908e-39
-0.089842729 0.15445971 0.84139997 1.1605767e-38
-0.087840244 0.15353677 0.84200001 1.1881258e-38
-0.14172632 0.15796393 0.84200001 8.8417015e-39
-0.092159577 0.15925176 0.84100002 1.1515364e-38
-0.090161666 0.15815242 0.84299999 1.151428e-38
-0.13934529 0.16146359 0.84100002 8.657697e-39
-0.093006432 0.16239285 0.84200001 1.1239141e-38
-0.13713345 0.16514997 0.84100002 8.6569753e-39
-0.13492163 0.1673618 0.84100002 8.5658545e-39
-0.097435363 0.16756079 0.84200001 1.0593781e-38
-0.094483621 0.16534722 0.84200001 1.1145862e-38
-0.13344708 0.17031091 0.84100002 7.9215514e-39
-0.13197252 0.17178546 0.84100002 7.736793e-39
-0.098123424 0.17042615 0.84157151 1.09622e-38
-0.13302539 0.17293301 0.84299999 7.7375231e-39
-0.13010991 0.17438158 0.8416667 8.7516792e-39
-0.10174417 0.17473456 0.84100002 1.1053672e-38
-0.09829098 0.17391837 0.84300005 1.0685978e-38
-0.12597905 0.17789495 0.84200001 9.1193505e-39
-0.10543056 0.17915823 0.84100002 1.1144416e-38
-0.10305363 0.1773324 0.8416667 1.1237707e-38
-0.12489606 0.18106234 0.84299999 9.3041257e-39
-0.12273129 0.18176018 0.8416667 9.4870849e-39
-0.10837967 0.18358189 0.84100002 1.1144827e-38
-0.10600565 0.18176018 0.8416667 1.0776373e-38
-0.12120091 0.1847575 0.84299999 9.4881807e-39
-0.11830413 0.18618733 0.8416667 8.9360845e-39
-0.11427788 0.18653099 0.84100002 9.7643934e-39
-0.11011546 0.18623555 0.84299999 1.0961502e-38
-0.10715935 0.1847575 0.84299999 1.1237032e-38
-0.11602771 0.18845263 0.84299999 9.1204576e-39
-0.11381061 0.18845263 0.84299999 9.9484176e-39
-0.11159352 0.18845263 0.84299999 1.0684189e-38
-0.14963824 0.13037786 0.84500003 2.3509832e-38
-0.14639017 0.13082583 0.84550005 1.4553509e-38
-0.14563802 0.13319284 0.84500009 2.0648185e-38
-0.14189313 0.13468593 0.84614295 1.3173828e-38
-0.13811183 0.13588421 0.847 1.7685925e-38
-0.13374233 0.134929 0.8466 2.3499355e-38
-0.13002458 0.13468593 0.84614295 2.3502228e-38
-0.12558748 0.1342393 0.84600008 2.3504723e-38
-0.12227746 0.13487548 0.84533346 2.3508339e-38
-0.11783043 0.13487546 0.84533346 2.3509446e-38
-0.11421564 0.13498124 0.84600002 2.3502589e-38
-0.11046263 0.1356703 0.84566677 1.879412e-38
-0.10692528 0.13588421 0.847 2.3501863e-38
-0.097272299 0.13588421 0.847 2.3498607e-38
-0.094302163 0.13588421 0.847 2.3500409e-38
-0.090589464 0.13514167 0.847 2.3501483e-38
-0.14074883 0.13704492 0.84500003 1.7973418e-38
-0.1377857 0.1377857 0.84500003 1.0321533e-38
-0.13413468 0.13783976 0.84533346 2.202016e-38
-0.13000748 0.13741532 0.84500003 2.3501137e-38
-0.11408064 0.13704492 0.84500003 2.3509849e-38
-0.11000632 0.13741532 0.84500003 1.5019532e-38
-0.10605738 0.13794789 0.84600008 1.851817e-38
-0.10156798 0.13789383 0.84566677 2.3509448e-38
-0.097783402 0.13704492 0.84500003 2.3500074e-38
-0.094079487 0.13704494 0.84500003 2.3500418e-38
-0.089369595 0.13757749 0.84600002 2.3501855e-38
-0.086031683 0.13869041 0.84600002 2.2940041e-38
-0.085683942 0.1405019 0.84500003 1.989866e-38
-0.083840594 0.14171171 0.84633338 8.9285105e-39
-0.083840594 0.14616576 0.84633338 5.5230441e-39
-0.15037902 0.1511198 0.84500003 8.5637077e-39
-0.08519008 0.1511198 0.84500003 1.1238793e-38
-0.083906636 0.14924985 0.847 5.245744e-39
-0.14889744 0.15334216 0.84500003 8.8406589e-39
-0.14741588 0.15482372 0.84500003 8.3814604e-39
-0.086313389 0.15407914 0.84633338 1.1606477e-38
-0.14519353 0.15704606 0.84500003 8.5654789e-39
-0.14297119 0.15926841 0.84500003 8.7502205e-39
-0.088292316 0.15803699 0.84633338 1.1236982e-38
-0.1418245 0.16113044 0.847 8.9331922e-39
-0.092597909 0.16371311 0.84500003 1.1331331e-38
-0.090375572 0.16149077 0.84500003 1.1330255e-38
-0.0927075 0.16613272 0.84600002 1.1237696e-38
-0.13736929 0.16855581 0.847 8.6562522e-39
-0.13556336 0.17038016 0.84500003 8.3821708e-39
-0.095787227 0.16855581 0.847 1.0224297e-38
-0.13424133 0.17466047 0.84600002 8.1059483e-39
-0.12979138 0.17799839 0.84600002 8.6591263e-39
-0.10074653 0.17778799 0.84500003 1.0501596e-38
-0.12845884 0.1804364 0.847 8.7509492e-39
-0.12608308 0.18244749 0.84600002 9.0275375e-39
-0.10445045 0.18223271 0.84500003 1.0868576e-38
-0.10296888 0.18001035 0.84500003 1.1514628e-38
-0.1248949 0.18573615 0.84633338 9.2112211e-39
-0.12230157 0.18641789 0.84550005 9.3041398e-39
-0.10889515 0.18741818 0.84500003 1.1053724e-38
-0.10609917 0.18573615 0.84633338 1.0960794e-38
-0.12103347 0.19008937 0.847 9.0286305e-39
-0.11824954 0.19005835 0.84619999 9.0282619e-39
-0.11408064 0.19038132 0.84500003 9.949135e-39
-0.11050646 0.18986496 0.84600002 1.0684909e-38
-0.11286557 0.19231699 0.847 1.0501576e-38
-0.14249428 0.12309715 0.85100001 2.3509827e-38
-0.14567965 0.12630443 0.85000002 2.3507656e-38
-0.14245667 0.126048 0.85077775 2.3502606e-38
-0.13861485 0.12667815 0.85100001 2.3502921e-38
-0.13354176 0.1275734 0.85100001 2.3507209e-38
-0.14885798 0.12876217 0.84899998 2.3509852e-38
-0.14588082 0.12950645 0.84899998 1.63999e-38
-0.14227024 0.13035224 0.8496666 2.2940006e-38
-0.13790989 0.13045414 0.85033327 2.3499324e-38
-0.13364938 0.13029349 0.85049993 2.3502557e-38
-0.13007507 0.13126664 0.84980005 2.3502188e-38
-0.12593316 0.13114846 0.85000002 2.3509451e-38
-0.12085901 0.13055758 0.85100001 2.2029561e-38
-0.11862089 0.13055758 0.85100001 2.229355e-38
-0.11414464 0.13055758 0.85100001 2.3503594e-38
-0.10966837 0.13055758 0.85100001 2.3507632e-38
-0.10668419 0.13055758 0.85100001 2.3501844e-38
-0.096239582 0.13055758 0.85100001 2.3501125e-38
-0.094747499 0.13055758 0.85100001 2.350224e-38
-0.081318721 0.13055758 0.85100001 2.3509867e-38
-0.078243367 0.13114846 0.85000002 1.6960675e-38
-0.14141509 0.1332279 0.84899998 2.0452821e-38
-0.13769364 0.1339722 0.84899998 2.3499264e-38
-0.13471648 0.1339722 0.84899998 2.3501143e-38
-0.12950645 0.1332279 0.84899998 2.350042e-38
-0.12727359 0.1332279 0.84899998 2.3502916e-38
-0.12178846 0.13252096 0.8502 2.3509102e-38
-0.1181552 0.13275661 0.84980005 2.2028884e-38
-0.11377868 0.1329356 0.84985715 2.3221937e-38
-0.1099464 0.13314825 0.84985721 2.3507209e-38
-0.10634053 0.13353078 0.84974992 2.3507984e-38
-0.10212786 0.13343598 0.85033333 2.3502948e-38
-0.097629972 0.1334011 0.85011107 2.350114e-38
-0.093854181 0.13333136 0.84966671 2.3498221e-38
-0.090165161 0.13313556 0.85000002 2.1012271e-38
-0.086093403 0.13443701 0.85100001 1.2807532e-38
-0.08206477 0.13354176 0.85100001 2.2395514e-38
-0.078443505 0.13378772 0.84985715 1.4184359e-38
-0.073982418 0.13412106 0.84899998 1.077712e-38
-0.10494488 0.13620505 0.84899998 2.3509432e-38
-0.10196772 0.13620505 0.84899998 2.3507637e-38
-0.098990567 0.13620505 0.84899998 2.3498621e-38
-0.088570505 0.13620505 0.84899998 2.35033e-38
-0.085409001 0.13731417 0.84928572 2.2114253e-38
-0.081968628 0.13785467 0.85000002 1.4737169e-38
-0.07817129 0.1377293 0.84922218 8.5565008e-39
-0.073761083 0.13783859 0.84988892 1.2067503e-38
-0.081871897 0.14215939 0.84899998 4.5957209e-39
-0.078442 0.14187811 0.84985709 8.7463067e-39
-0.074284606 0.14228112 0.85100001 1.1515034e-38
-0.081967458 0.14605266 0.85000002 3.1252767e-39
-0.079826631 0.14547846 0.85100001 6.9960022e-39
-0.15293887 0.15144679 0.85100001 7.5524438e-39
-0.084104761 0.15109086 0.84899998 4.6011019e-39
-0.082340479 0.14940634 0.85000002 2.573196e-39
-0.15070075 0.155177 0.85100001 8.380394e-39
-0.084625512 0.15471238 0.85050005 5.3383124e-39
-0.1481137 0.15704517 0.84899998 8.5662048e-39
-0.14697054 0.15890722 0.85100001 8.5655013e-39
-0.086721323 0.15778917 0.85033339 1.0961129e-38
-0.14324032 0.16263744 0.85100001 8.8413539e-39
-0.088674828 0.16244721 0.85000002 1.1053316e-38
-0.14067081 0.16448808 0.84899998 8.565151e-39
-0.13918222 0.16746524 0.84899998 8.8406435e-39
-0.090963364 0.16552474 0.85050005 1.1328827e-38
-0.13876405 0.17009787 0.85100001 8.5647769e-39
-0.096239582 0.17084391 0.85100001 1.022465e-38
-0.094524823 0.16895382 0.84899998 1.0224632e-38
-0.13652593 0.17532018 0.85100001 8.1984971e-39
-0.096239582 0.17233601 0.85100001 1.0500888e-38
-0.13413087 0.17809483 0.85000002 8.1055924e-39
-0.13173932 0.17937388 0.84899998 8.5665705e-39
-0.10071585 0.17979644 0.85100001 1.0684892e-38
-0.099223755 0.17830436 0.85100001 1.0501597e-38
-0.13204966 0.18128853 0.85100001 8.6580529e-39
-0.12950645 0.18160674 0.84899998 8.6587577e-39
-0.12727359 0.1838396 0.84899998 8.8431448e-39
-0.10295397 0.18203457 0.85100001 1.096183e-38
-0.1290655 0.18501875 0.85100001 8.658406e-39
-0.1274235 0.18629253 0.85000002 8.7502457e-39
-0.10568918 0.18681678 0.84899998 1.0777831e-38
-0.10370002 0.18501875 0.85100001 1.0593438e-38
-0.12543699 0.18952131 0.85000002 9.0268382e-39
-0.12280784 0.19053823 0.84899998 9.2108749e-39
-0.10941062 0.19128251 0.84899998 1.0777473e-38
-0.1069301 0.18964359 0.85000002 1.1238457e-38
-0.12130664 0.19382204 0.85100001 8.8442434e-39
-0.11766751 0.19362979 0.8495 9.0282339e-39
-0.1143147 0.19400193 0.8495 9.9484091e-39
-0.10991164 0.19337118 0.85000002 1.0961852e-38
-0.11787485 0.19620939 0.85100001 9.120054e-39
-0.11414464 0.1962094 0.85100001 1.0039885e-38
-0.14108022 0.1238204 0.85600001 2.3509823e-38
-0.13807851 0.1238204 0.85600001 2.3509803e-38
-0.13582723 0.1238204 0.85600001 2.3509811e-38
-0.13775587 0.1257771 0.85399997 2.3503993e-38
-0.13411656 0.1258747 0.85466665 2.3509052e-38
-0.1298238 0.1268221 0.85600007 2.2863782e-38
-0.1268221 0.1268221 0.85600001 1.3549491e-38
-0.11631613 0.1268221 0.85600001 2.3509409e-38
-0.11406485 0.1268221 0.85600001 2.3508717e-38
-0.10956229 0.1268221 0.85600001 2.3500769e-38
-0.10581016 0.1268221 0.85600007 2.3502582e-38
-0.12952048 0.12877181 0.85400003 2.3509453e-38
-0.12592351 0.1289226 0.85500002 2.2494621e-38
-0.12241147 0.1292645 0.85514289 1.4742922e-38
-0.11769901 0.1292645 0.85514283 2.2760606e-38
-0.11386541 0.12884676 0.85449994 2.3509792e-38
-0.11009179 0.1291355 0.85428578 2.3503669e-38
-0.10540623 0.12937078 0.85425001 2.3500406e-38
-0.10197853 0.12972152 0.85533333 2.3497896e-38
-0.098435625 0.12955949 0.85549998 2.3404271e-38
-0.093561366 0.12955949 0.85550004 1.6398146e-38
-0.090117119 0.13000123 0.85519999 1.7226375e-38
-0.086035848 0.12989634 0.85525 2.3046636e-38
-0.082168788 0.12937087 0.85466665 2.2493877e-38
-0.089092121 0.13251516 0.85399997 8.201699e-39
-0.085723095 0.13288951 0.85399997 1.9073135e-38
-0.072621308 0.14299659 0.85399997 1.3637311e-38
-0.071123958 0.14299659 0.85399997 1.2259495e-38
-0.080108039 0.14748864 0.85399997 6.9952819e-39
-0.077952899 0.1461634 0.85500002 1.188166e-38
-0.074258223 0.14626551 0.8556 1.1976004e-38
-0.080669694 0.15010169 0.85466671 7.1796844e-39
-0.078794792 0.14933489 0.85600001 1.1974549e-38
-0.15449804 0.1537476 0.85549998 8.1985069e-39
-0.082318991 0.15399316 0.85519999 5.7045894e-39
-0.15233661 0.15683918 0.85600001 8.1038001e-39
-0.14933489 0.15984088 0.85600001 8.657697e-39
-0.085447818 0.15890372 0.85500002 7.2751212e-39
-0.083102733 0.15647271 0.85399997 3.2142424e-39
-0.14633319 0.16209215 0.85600001 8.4732749e-39
-0.087594777 0.16171342 0.85399997 1.0961112e-38
-0.14483234 0.16509385 0.85600001 8.3814492e-39
-0.14224792 0.16620547 0.85399997 8.5647909e-39
-0.089300767 0.16584428 0.85600001 1.1144089e-38
-0.087799914 0.16434343 0.85600001 1.0960404e-38
-0.1412199 0.17021535 0.85533333 8.7488122e-39
-0.092086814 0.16845149 0.85399997 1.1237375e-38
-0.090801626 0.168846 0.85600001 1.0961149e-38
-0.13882893 0.17334856 0.85600001 8.473642e-39
-0.13432637 0.18085283 0.85600001 8.2903438e-39
-0.13101782 0.18342495 0.85399997 8.6584032e-39
-0.10193792 0.18288931 0.85500002 1.0409034e-38
-0.13026914 0.18641964 0.85399997 8.658406e-39
-0.12907338 0.19060837 0.85600001 8.4743889e-39
-0.10531045 0.19076003 0.85499996 1.0502323e-38
-0.12592527 0.19338301 0.85500002 9.3034391e-39
-0.12353108 0.19540372 0.85399997 8.4751162e-39
-0.1093063 0.19540372 0.85399997 1.2157891e-38
-0.10651149 0.19369844 0.85439998 1.0872902e-38
-0.1211296 0.19755507 0.85466665 8.7527596e-39
-0.1175417 0.19839844 0.85399997 9.1200722e-39
-0.11379834 0.19839843 0.85399997 1.013244e-38
-0.11099783 0.19799736 0.85549998 1.0593783e-38
-0.11706655 0.20036392 0.85600001 9.0275361e-39
-0.11406485 0.20036392 0.85600001 9.9491266e-39
-0.1311844 0.1198754 0.86000001 1.7224e-38
-0.12439901 0.11912146 0.86000001 2.3504374e-38
-0.12238851 0.11937278 0.86000001 2.3502554e-38
-0.11836754 0.1198754 0.86000001 2.3503285e-38
-0.09801133 0.1198754 0.86000001 2.3509855e-38
-0.094241664 0.1198754 0.86000001 2.1847791e-38
-0.13764894 0.12185316 0.85799998 2.3509845e-38
-0.13420013 0.1221372 0.86000001 1.6229972e-38
-0.13043046 0.1221372 0.86000007 1.5470003e-38
-0.12590687 0.1221372 0.86000007 2.3221627e-38
-0.1221372 0.1221372 0.86000001 2.3505825e-38
-0.11827636 0.12204193 0.85933328 2.3503664e-38
-0.11375509 0.12204193 0.8593334 2.3505109e-38
-0.11032557 0.12238851 0.86000001 2.3500072e-38
-0.1063046 0.12289114 0.86000001 2.3497855e-38
-0.10140403 0.12251417 0.86000001 2.3509427e-38
-0.09801133 0.1221372 0.86000001 2.3509835e-38
-0.094058439 0.12190079 0.85833329 2.3325092e-38
-0.090723321 0.12238851 0.86000001 1.9725145e-38
-0.13388804 0.12410969 0.85799998 2.3233266e-38
-0.13012713 0.12486187 0.85799998 1.7234046e-38
-0.12546259 0.12546217 0.8582499 1.5841648e-38
-0.12185316 0.12561405 0.85799998 2.3219085e-38
-0.11828029 0.12542599 0.85799992 2.3505819e-38
-0.11336426 0.12518424 0.85799998 2.3502578e-38
-0.10981827 0.12486187 0.85799998 2.3501154e-38
-0.10613921 0.12495831 0.85866666 2.3497155e-38
-0.10162321 0.12571049 0.85866672 2.350182e-38
-0.097859375 0.12571049 0.85866666 1.8986465e-38
-0.094046459 0.12564619 0.85822213 2.0456159e-38
-0.089556172 0.12567833 0.85844439 2.2862659e-38
-0.085898958 0.12591492 0.85799998 2.0185395e-38
-0.083491974 0.12636623 0.85799998 1.5857613e-38
-0.088757232 0.12862277 0.85799998 2.3509451e-38
-0.15870997 0.15118816 0.85799998 1.1246419e-38
-0.077563956 0.15098828 0.85899997 1.1420318e-38
-0.074465811 0.14893162 0.85799998 1.1516096e-38
-0.15795779 0.15344471 0.85799998 1.0323737e-38
-0.15570125 0.15570125 0.85799998 9.7657975e-39
-0.080483258 0.15344471 0.85799998 8.9335734e-39
-0.078599006 0.15343244 0.8593334 1.123773e-38
-0.1605878 0.158326 0.86000001 1.0878719e-38
-0.15782337 0.15807471 0.86000007 1.0783275e-38
-0.15419689 0.15795779 0.85799998 7.921927e-39
-0.15118816 0.15870997 0.85799998 8.4714882e-39
-0.082050152 0.15732661 0.85866666 7.9179893e-39
-0.15380239 0.1605878 0.86000001 7.6442653e-39
-0.15009962 0.16236444 0.8591429 8.4725784e-39
-0.085848458 0.16190806 0.85899997 8.7491499e-39
-0.083686598 0.1605878 0.86000001 6.8055125e-39
-0.14891236 0.16548602 0.8593334 8.2889144e-39
-0.14617364 0.16623178 0.85799998 8.3810834e-39
-0.14366637 0.16773613 0.85799998 8.9328545e-39
-0.088757232 0.16698395 0.85799998 1.0960057e-38
-0.086702332 0.16511139 0.86000001 1.0592697e-38
-0.14852487 0.16812712 0.86000001 7.919413e-39
-0.14634618 0.16985767 0.85960007 8.2885249e-39
-0.14366637 0.16999267 0.85799998 8.8406505e-39
-0.093270317 0.17074485 0.85799998 1.1053688e-38
-0.089374766 0.16985767 0.85960007 1.0592718e-38
-0.14550912 0.17265074 0.86000001 8.2888962e-39
-0.1417584 0.17429887 0.8592 8.4725714e-39
-0.13915329 0.17525794 0.85799998 8.7491541e-39
-0.097031213 0.17525794 0.85799998 1.0408691e-38
-0.094498701 0.17317358 0.85960007 1.0501954e-38
-0.091225937 0.17265072 0.86000001 1.0593458e-38
-0.13796979 0.17868219 0.86000001 8.1981481e-39
-0.098535575 0.17826664 0.85799998 1.013353e-38
-0.13721585 0.180944 0.86000001 7.9211997e-39
-0.13464022 0.18277971 0.85799998 8.0126835e-39
-0.10015653 0.18224058 0.85899997 1.0501227e-38
-0.098765269 0.18019007 0.86000001 1.0134237e-38
-0.13384537 0.18507311 0.8593334 8.472577e-39
-0.13163149 0.18729281 0.85799998 8.5665733e-39
-0.1019128 0.186005 0.85899997 1.0501597e-38
-0.13193832 0.18923725 0.86000001 8.5665733e-39
-0.10455301 0.18879718 0.85799998 1.0593442e-38
-0.12967652 0.19300693 0.86000001 8.4736714e-39
-0.12741472 0.19526874 0.86000001 9.1201226e-39
-0.10455301 0.19331025 0.85799998 9.8594477e-39
-0.12486187 0.19707114 0.85799998 8.6602165e-39
-0.12289114 0.19979233 0.86000001 8.936432e-39
-0.10906609 0.19857551 0.85799998 1.2068927e-38
-0.10781246 0.19903839 0.86000001 1.1794518e-38
-0.12110098 0.20083205 0.85799998 8.8442364e-39
-0.11813872 0.20266575 0.85833329 8.7513093e-39
-0.11357918 0.20233642 0.85799998 1.0041315e-38
-0.11023967 0.20164678 0.8593334 1.0502314e-38
-0.11836754 0.20532118 0.86000001 8.5665635e-39
-0.11384393 0.20506985 0.86000001 1.0040945e-38
-0.1108282 0.20431592 0.86000001 1.013318e-38
-0.13224515 0.11486436 0.86199999 2.350973e-38
-0.13022999 0.11511626 0.86199999 2.3508306e-38
-0.13300085 0.11788711 0.86199999 2.2669157e-38
-0.12997809 0.11788711 0.86199999 2.3506461e-38
-0.12650195 0.11773597 0.86199999 2.3504372e-38
-0.12136327 0.11773598 0.86199999 2.3501869e-38
-0.11788711 0.11788711 0.86199999 2.3499356e-38
-0.11486436 0.1186428 0.86199999 2.3501158e-38
-0.13753498 0.12015417 0.86199999 2.3508386e-38
-0.13451222 0.12015417 0.86199999 1.5388674e-38
-0.12922241 0.12015417 0.86199999 2.3494258e-38
-0.12695536 0.12015417 0.86199999 2.3503281e-38
-0.11410868 0.12015417 0.86199999 2.3504366e-38
-0.10881887 0.12166554 0.86199999 2.350078e-38
-0.10579613 0.12166554 0.86199999 2.3509786e-38
-0.10201769 0.12090985 0.86199999 2.3509804e-38
-0.074812971 0.151893 0.86199999 1.1609363e-38
-0.077080026 0.15416007 0.86199999 1.1051874e-38
-0.080858469 0.15793851 0.86199999 9.6707783e-39
-0.079347096 0.15642713 0.86199999 1.096261e-38
-0.15340438 0.16247262 0.86199999 7.5516773e-39
-0.085392587 0.163984 0.86199999 9.5781861e-39
-0.083881214 0.1632283 0.86199999 9.1175877e-39
-0.15138923 0.16650295 0.86199999 8.1952727e-39
-0.08690396 0.16700675 0.86199999 1.0867836e-38
-0.14962596 0.17002949 0.86199999 8.2871194e-39
-0.088415332 0.17154086 0.86199999 1.0409047e-38
-0.092949457 0.1745636 0.86199999 1.0777473e-38
-0.091438085 0.1745636 0.86199999 1.0500888e-38
-0.13980202 0.17758635 0.86199999 8.3818093e-39
-0.097483575 0.17834204 0.86199999 9.5803679e-39
-0.094838679 0.17645282 0.86199999 1.0684536e-38
-0.13829066 0.18212049 0.86199999 8.0130338e-39
-0.098994948 0.18287617 0.86199999 1.0317902e-38
-0.10050632 0.1866546 0.86199999 1.0501597e-38
-0.098994948 0.18589891 0.86199999 1.0133872e-38
-0.13300085 0.18967736 0.86199999 8.5665817e-39
-0.1020177 0.18892166 0.86199999 1.0685632e-38
-0.10504045 0.19572283 0.86199999 9.7672493e-39
-0.10655182 0.19723421 0.86199999 1.0133919e-38
-0.12242123 0.20252401 0.86199999 8.9360803e-39
-0.10957456 0.2032797 0.86199999 1.1055484e-38
-0.12090985 0.20554677 0.86199999 8.750973e-39
-0.11788711 0.20781383 0.86199999 8.3810961e-39
-0.11410868 0.20705813 0.86199999 9.7636578e-39
-0.11033024 0.20554677 0.86199999 1.0685991e-38
-0.13149211 0.11173028 0.86699998 1.6770973e-38
-0.10945007 0.11097021 0.86699998 2.3509112e-38
-0.10641769 0.11096583 0.86500001 2.2307305e-38
-0.10376928 0.11134367 0.86400002 1.8804585e-38
-0.12931623 0.1141306 0.86600006 2.3133786e-38
-0.12602609 0.11463642 0.86600006 2.3501126e-38
-0.12240697 0.11503244 0.86571431 2.3501848e-38
-0.10869 0.1140105 0.86699998 2.3509831e-38
-0.10552698 0.11387988 0.86600006 2.3417296e-38
-0.10260944 0.11325043 0.86699998 1.7338129e-38
-0.13709664 0.11891808 0.86400002 2.3504799e-38
-0.13558176 0.11891808 0.86400002 2.350944e-38
-0.11781085 0.11629071 0.86699998 2.340647e-38
-0.11406529 0.11735278 0.86549997 2.0733867e-38
-0.11012482 0.11771908 0.86633337 1.5936757e-38
-0.10564971 0.11781085 0.86700004 2.3509775e-38
-0.10173191 0.11767321 0.86600006 2.3509136e-38
-0.098386101 0.1181111 0.86550009 2.2217653e-38
-0.1098288 0.12043296 0.86400002 2.3499323e-38
-0.1060416 0.12043296 0.86400002 2.3509796e-38
-0.10376928 0.12043296 0.86400002 2.3509806e-38
-0.073471673 0.15073055 0.86400002 1.3360733e-38
-0.076767065 0.15581435 0.86699998 1.1051873e-38
-0.074359298 0.15326981 0.86549997 1.253132e-38
-0.082560956 0.15981983 0.86400002 9.8537192e-39
-0.078150444 0.15782103 0.86550003 1.1329188e-38
-0.16037476 0.16189489 0.86699998 1.1154575e-38
-0.15765974 0.16221488 0.86600006 1.0966943e-38
-0.1552752 0.16284961 0.86400002 8.0156094e-39
-0.082245357 0.16170818 0.86600006 1.0867507e-38
-0.15444499 0.16505967 0.86500001 7.8275804e-39
-0.084906265 0.16678211 0.86475003 1.0683815e-38
-0.15224543 0.16890912 0.86400002 7.7353875e-39
-0.15073055 0.17193888 0.86400002 7.8272328e-39
-0.086699709 0.16960959 0.86500001 1.0500851e-38
-0.14568228 0.17527239 0.86549997 8.3803758e-39
-0.089531772 0.17451364 0.86549997 1.0223225e-38
-0.14517337 0.17709631 0.86699998 8.6565983e-39
-0.14180696 0.17870937 0.86500001 8.3818065e-39
-0.096194878 0.17951328 0.86400002 1.0042389e-38
-0.094175041 0.17850336 0.86400002 1.0778516e-38
-0.090626121 0.17745925 0.86580002 1.0408322e-38
-0.14095747 0.18144721 0.86600006 8.288885e-39
-0.097035825 0.18194404 0.86475003 1.0132798e-38
-0.093995318 0.18115 0.86699998 1.0409746e-38
-0.091968462 0.18013658 0.86699998 1.059414e-38
-0.14061294 0.184697 0.86699998 8.3800185e-39
-0.13799031 0.18565643 0.86580002 7.9204808e-39
-0.13558176 0.18708767 0.86400002 7.8275832e-39
-0.09737312 0.18578529 0.86640006 9.7640081e-39
-0.13605252 0.18925741 0.86699998 7.5517025e-39
-0.13406688 0.19087487 0.86400002 8.4743749e-39
-0.10225441 0.19062239 0.86400002 1.0594141e-38
-0.098722965 0.18985377 0.86624998 9.8572967e-39
-0.10412958 0.19533798 0.86699998 1.0504817e-38
-0.10229605 0.19345272 0.86650002 1.0594154e-38
-0.098809093 0.1922977 0.86699998 1.0224297e-38
-0.12866047 0.19792239 0.86500001 8.6594906e-39
-0.12649249 0.19920672 0.86400002 8.7531198e-39
-0.10679904 0.19920672 0.86400002 1.0318313e-38
-0.12595464 0.20107007 0.86549997 8.8438861e-39
-0.10831392 0.20223647 0.86400002 1.1241298e-38
-0.10698445 0.20183013 0.86549997 1.0504471e-38
-0.12313133 0.20597896 0.86699998 8.7516947e-39
-0.10945007 0.20597896 0.86699998 1.0778908e-38
-0.11705077 0.21053937 0.86699998 8.565116e-39
-0.11381325 0.20941769 0.86550003 1.0224976e-38
-0.11153698 0.20941769 0.86549997 1.0133515e-38
-0.12950996 0.11198803 0.86900002 2.2856125e-38
-0.12558228 0.11071751 0.86949998 2.3504028e-38
-0.12221207 0.11031079 0.87019998 2.045869e-38
-0.11988153 0.11071861 0.87099999 9.8662538e-39
-0.11440587 0.1098288 0.87 2.3509027e-38
-0.11198803 0.11046438 0.86900008 2.3508043e-38
-0.12173072 0.11308971 0.8696667 2.2396281e-38
-0.11817322 0.11359759 0.86966664 1.7142209e-38
-0.11436117 0.11359759 0.8696667 1.7495824e-38
-0.11122621 0.1142735 0.86900002 2.1937696e-38
-0.10284615 0.11503533 0.86900002 2.304524e-38
-0.072881095 0.15414226 0.86900008 1.2719368e-38
-0.076944157 0.15922107 0.86900002 1.0960404e-38
-0.073972844 0.15785833 0.86988884 1.198034e-38
-0.070849568 0.15922107 0.86900002 1.2353849e-38
-0.16074473 0.16379201 0.86900002 1.096945e-38
-0.15922107 0.16379201 0.86900002 1.0784698e-38
-0.081068583 0.16290075 0.8696667 1.1146225e-38
-0.079229623 0.16074473 0.86900002 1.1052974e-38
-0.073135033 0.16074473 0.86900002 1.3456198e-38
-0.15787977 0.16626859 0.87 1.0228666e-38
-0.082148045 0.16556931 0.87033337 1.114515e-38
-0.15729678 0.16875044 0.87099999 9.9510072e-39
-0.15500607 0.16875044 0.87099999 8.0112317e-39
-0.085070275 0.17090237 0.86900008 1.0776019e-38
-0.14931737 0.17521936 0.86900002 8.1052266e-39
-0.087169014 0.17357561 0.8696667 1.0866038e-38
-0.1504246 0.17638621 0.87099999 8.1059511e-39
-0.14663681 0.17865793 0.8696667 8.3810876e-39
-0.08913333 0.17902848 0.86900002 1.0316498e-38
-0.08698111 0.17777602 0.87033331 1.0499793e-38
-0.14296883 0.18207578 0.86900008 8.1045036e-39
-0.09332335 0.18321851 0.86900002 1.0500858e-38
-0.089895152 0.18207578 0.86900008 1.0317199e-38
-0.087169014 0.1811997 0.8696667 1.0317201e-38
-0.14169914 0.18588489 0.86900002 8.1048637e-39
-0.094246924 0.18582441 0.87050003 1.0224274e-38
-0.090102047 0.18554913 0.87099999 1.050157e-38
-0.14093731 0.18817036 0.86900002 8.1052294e-39
-0.13796936 0.19018495 0.86949998 7.9194074e-39
-0.096862897 0.18915047 0.87 9.9484176e-39
-0.13636638 0.1927413 0.86900002 7.5531445e-39
-0.13331908 0.19426495 0.86900002 9.0275711e-39
-0.13179544 0.19578859 0.86900002 8.6573466e-39
-0.1013225 0.19578859 0.86900002 1.059488e-38
-0.099037036 0.19426495 0.86900002 1.0500886e-38
-0.13209875 0.19852993 0.87099999 8.3821863e-39
-0.13027178 0.19883588 0.86900002 8.5676551e-39
-0.10495774 0.19848053 0.8696667 1.0318635e-38
-0.10155569 0.19700277 0.87099999 1.0593807e-38
-0.12965988 0.20135191 0.87 8.8438749e-39
-0.12646267 0.20340683 0.86900002 8.7520408e-39
-0.10554686 0.20117602 0.87033337 1.022574e-38
-0.12446298 0.20692927 0.87099999 9.0275739e-39
-0.10894074 0.20645413 0.86900002 1.1331376e-38
-0.1075407 0.20592988 0.87 1.1239896e-38
-0.12112991 0.20950142 0.86900002 8.5662048e-39
-0.11988153 0.21151073 0.87099999 8.1052266e-39
-0.10982792 0.20974162 0.87 1.0501234e-38
-0.1076643 0.20845643 0.87099999 1.1791632e-38
-0.1175908 0.21303788 0.87099999 8.1974377e-39
-0.11359759 0.21271178 0.8696667 1.0133142e-38
-0.12015681 0.10944219 0.87300003 1.5471501e-38
-0.11786082 0.11020751 0.87300003 2.1282579e-38
-0.077808551 0.16250508 0.87300003 1.105224e-38
-0.074703828 0.16281936 0.87400007 1.2072528e-38
-0.16166961 0.16703393 0.87400001 1.0600673e-38
-0.15995397 0.16760728 0.87300003 1.0785066e-38
-0.081124976 0.16684195 0.87300003 1.1147296e-38
-0.078359798 0.16607484 0.87460005 1.1329194e-38
-0.074407086 0.16492292 0.875 1.2441328e-38
-0.1610875 0.1702925 0.875 1.1337889e-38
-0.1584233 0.17015837 0.87300003 1.0507041e-38
-0.155362 0.17066859 0.87300003 7.8275832e-39
-0.081951678 0.17003302 0.87366676 1.1328825e-38
-0.079009578 0.16952541 0.875 1.1513944e-38
-0.15801916 0.17259374 0.875 1.0323392e-38
-0.15418375 0.17412791 0.875 7.8282908e-39
-0.085716955 0.17449525 0.87300003 1.1510685e-38
-0.082749441 0.1723965 0.87400001 1.1421027e-38
-0.15264958 0.17719625 0.875 7.2758317e-39
-0.14986472 0.1789683 0.8736667 8.2885333e-39
-0.15111542 0.18026458 0.875 8.1045036e-39
-0.14589107 0.18268184 0.87433338 8.2892732e-39
-0.14497875 0.18640125 0.875 8.1038001e-39
-0.14311671 0.18750586 0.87300003 7.9211857e-39
-0.09413559 0.18750586 0.87300003 1.0040596e-38
-0.14213265 0.19040191 0.87400001 8.0126779e-39
-0.095775828 0.19002013 0.87400001 1.013245e-38
-0.14078069 0.19290261 0.87433338 7.919776e-39
-0.13791633 0.19461736 0.87400001 7.7361022e-39
-0.13577375 0.19560625 0.875 9.0275585e-39
-0.097196907 0.19209783 0.87300003 9.8562275e-39
-0.13423958 0.19714041 0.875 9.0261291e-39
-0.10178889 0.19873071 0.87300003 1.041013e-38
-0.13270541 0.2017429 0.875 8.3829079e-39
-0.13087143 0.20281245 0.87300003 8.5676551e-39
-0.10485021 0.20281245 0.87300003 1.0226096e-38
-0.10234645 0.20124409 0.87450004 1.0410119e-38
-0.12902692 0.20618936 0.87433338 8.7520394e-39
-0.1268861 0.20654237 0.8736667 8.7520408e-39
-0.10591344 0.2058506 0.87420005 1.0501971e-38
-0.12545072 0.2097656 0.87433338 8.6591291e-39
-0.1224528 0.21123108 0.87300003 8.566209e-39
-0.10791153 0.21046576 0.87300003 1.2160408e-38
-0.12191119 0.2139184 0.87460005 8.2906927e-39
-0.11813083 0.21555041 0.875 7.646747e-39
-0.11403418 0.21505773 0.87300003 9.764378e-39
-0.11063095 0.21385318 0.87433338 1.0593783e-38
-0.11736374 0.21708457 0.875 8.2002669e-39
-0.11429541 0.21708457 0.875 9.948419e-39
-0.076201618 0.16702779 0.87800002 1.0687055e-38
-0.074662194 0.16702779 0.87800002 1.3821706e-38
-0.16240951 0.17164607 0.87800002 1.1153857e-38
-0.077484474 0.17010665 0.87800014 1.133027e-38
-0.074832261 0.1689512 0.88 1.3636957e-38
-0.16087008 0.1731855 0.87800002 1.2166931e-38
-0.15815067 0.17512292 0.88 9.8609611e-39
-0.15471236 0.1731855 0.87800002 7.6428248e-39
-0.081974469 0.17434007 0.87800002 1.1513215e-38
-0.077858515 0.17370564 0.87933338 1.0962197e-38
-0.085053608 0.17704634 0.87933338 1.1328105e-38
-0.081775464 0.17666586 0.88 1.1421027e-38
-0.07868959 0.17666586 0.88 1.1421748e-38
-0.14855468 0.18242206 0.87800002 8.3807247e-39
-0.14701524 0.18627062 0.87800002 8.2885487e-39
-0.14661375 0.18975042 0.87866676 8.0130408e-39
-0.09378989 0.1898936 0.87933338 1.0316464e-38
-0.091804527 0.18900932 0.88 1.050157e-38
-0.14580719 0.19209519 0.88 7.6449898e-39
-0.14316669 0.19396776 0.87800002 7.9204822e-39
-0.096800357 0.19437218 0.87866676 9.8562079e-39
-0.094118923 0.19209519 0.88 1.0315401e-38
-0.13754988 0.1980425 0.87900001 8.3811017e-39
-0.13469984 0.19935575 0.87800002 8.6580501e-39
-0.097943954 0.19820255 0.87971431 1.0133166e-38
-0.13469984 0.20089518 0.87800002 8.3829079e-39
-0.10185874 0.20294774 0.87800002 1.040976e-38
-0.09874773 0.20135279 0.88 9.7650801e-39
-0.13346373 0.20443866 0.88 8.291441e-39
-0.13177088 0.20651899 0.87900001 8.3832569e-39
-0.104148 0.20752452 0.88 1.0594511e-38
-0.10252617 0.20531122 0.87933338 1.0501951e-38
-0.12931183 0.20936203 0.87800002 8.8435133e-39
-0.1270027 0.21167117 0.87800002 8.5676551e-39
-0.10604393 0.20977816 0.87866676 1.0226466e-38
-0.12637763 0.21422401 0.87900007 8.3825352e-39
-0.10912513 0.21439993 0.87866676 1.11459e-38
-0.10723386 0.21215333 0.88 1.1515726e-38
-0.12420612 0.21909651 0.88 8.5665803e-39
-0.12222078 0.21799485 0.87866676 8.3829135e-39
-0.11815099 0.21898343 0.87800002 8.2906801e-39
-0.11391757 0.21936829 0.87800002 1.0592711e-38
-0.11096407 0.2173055 0.87900001 1.0961492e-38
-0.12163457 0.22192524 0.88 8.4747336e-39
-0.11790027 0.22193079 0.87900007 8.750959e-39
-0.11411175 0.22205658 0.87950003 1.0317564e-38
-0.075002335 0.17088163 0.88200003 1.3821337e-38
-0.1623762 0.17474772 0.88200003 1.1890343e-38
-0.15541722 0.17552094 0.88200003 6.8152487e-39
-0.076548778 0.17552094 0.88200003 1.031718e-38
-0.16082975 0.17784059 0.88200003 1.1338245e-38
-0.15773688 0.17784059 0.88200003 9.8613198e-39
-0.084280975 0.17861381 0.88200003 1.1328458e-38
-0.15309757 0.1817067 0.88200003 7.919748e-39
-0.15077789 0.18325314 0.88200003 8.0115821e-39
-0.085311942 0.18067575 0.88200009 1.086821e-38
-0.15232435 0.18711925 0.88200003 8.1963278e-39
-0.15000467 0.18634602 0.88200009 8.1963377e-39
-0.092013173 0.19098534 0.88200003 1.0684511e-38
-0.14613858 0.19407824 0.88200009 7.7368211e-39
-0.094590575 0.19459371 0.88200009 9.8558702e-39
-0.095106058 0.19717109 0.88200003 1.05023e-38
-0.13685994 0.20181042 0.88200003 8.3825394e-39
-0.1353135 0.20335685 0.88200003 8.2907123e-39
-0.097683452 0.20181042 0.88200009 1.0040957e-38
-0.13376705 0.20722295 0.88200003 8.3814856e-39
-0.10206504 0.20722295 0.88200003 1.0502316e-38
-0.13299385 0.20954262 0.88200003 8.3825422e-39
-0.10438471 0.20954262 0.88200003 1.0594511e-38
-0.12974632 0.21449123 0.88200009 8.5669377e-39
-0.10670436 0.21340871 0.88200003 1.1147333e-38
-0.12603486 0.21804804 0.88200003 8.2907053e-39
-0.10979724 0.21804804 0.88200003 1.0685632e-38
-0.1250039 0.22191414 0.88200009 8.4743791e-39
-0.12294198 0.22346058 0.88200003 8.5665733e-39
-0.1121169 0.22191414 0.88200009 1.0501582e-38
-0.12216876 0.22500703 0.88200003 8.6584032e-39
-0.11830267 0.22500703 0.88200009 9.1193772e-39
-0.11520977 0.22500703 0.88200003 1.0409767e-38
-0.07525745 0.17301454 0.88499999 1.289938e-38
-0.16370435 0.17689379 0.88499999 1.0968386e-38
-0.15594584 0.17844549 0.88499999 6.1713465e-39
-0.082240097 0.17922135 0.88499999 1.1328484e-38
-0.078419879 0.17883912 0.88566673 1.0961497e-38
-0.16060093 0.18154889 0.88499999 1.1523371e-38
-0.1582734 0.18154889 0.88499999 1.004608e-38
-0.15516999 0.18232475 0.88499999 7.1840172e-39
-0.085343495 0.18310058 0.88499999 1.0867863e-38
-0.081990249 0.18146825 0.8865 1.1145893e-38
-0.15668707 0.18545839 0.88700002 7.6468241e-39
-0.15410952 0.18622592 0.88633341 7.7360644e-39
-0.089222744 0.18697985 0.88499999 1.0501597e-38
-0.086545758 0.1859899 0.88620007 1.0592714e-38
-0.15629826 0.1889576 0.88700002 6.541208e-39
-0.15396546 0.1897352 0.88700002 7.6427995e-39
-0.1505149 0.19008324 0.88499999 8.1052294e-39
-0.089875579 0.18985239 0.88633335 1.0685966e-38
-0.087671041 0.18853153 0.88499999 1.0409745e-38
-0.14929985 0.19362323 0.88700002 8.1045372e-39
-0.092430472 0.19418253 0.88600004 1.050085e-38
-0.090979584 0.19284563 0.88700002 1.0776354e-38
-0.14696702 0.19673364 0.88700002 8.103091e-39
-0.14157027 0.19902641 0.88566673 7.8282866e-39
-0.093962006 0.19802058 0.8858 1.0225355e-38
-0.14074619 0.20139925 0.88700002 7.9208354e-39
-0.13887714 0.20172098 0.88499999 8.0137555e-39
-0.095054917 0.2017663 0.88633335 1.0225342e-38
-0.13794701 0.2055608 0.8865 8.1981397e-39
-0.13577375 0.20637608 0.88499999 8.1978146e-39
-0.10019774 0.20661016 0.88600004 1.0317557e-38
-0.097867556 0.2050567 0.88600004 1.0225328e-38
-0.095645212 0.20450968 0.88700002 1.0225341e-38
-0.13608058 0.20995291 0.88700002 8.1052462e-39
-0.13344619 0.21180704 0.88499999 8.5665761e-39
-0.13111864 0.21180704 0.88499999 8.7513177e-39
-0.10473974 0.21180704 0.88499999 1.041049e-38
-0.10223015 0.20989649 0.88566673 1.0410127e-38
-0.13338864 0.21419859 0.88633335 8.474735e-39
-0.13111864 0.21335874 0.88499999 8.6594696e-39
-0.10563394 0.21437567 0.88600004 1.0317947e-38
-0.10342124 0.2122857 0.88700002 1.041049e-38
-0.13297017 0.21695133 0.88700002 8.5665733e-39
-0.12956695 0.21801385 0.88499999 8.1995999e-39
-0.10852285 0.21834114 0.88633335 1.0870049e-38
-0.10653166 0.21695133 0.88700002 1.0502003e-38
-0.12882295 0.22058015 0.88700002 8.1063252e-39
-0.12646355 0.22266893 0.88499999 8.3825422e-39
-0.10990297 0.22182806 0.88660002 1.0410486e-38
-0.12561844 0.22611248 0.88633341 8.843149e-39
-0.12180844 0.22732405 0.88499999 8.3829051e-39
-0.11792919 0.22732404 0.88499999 9.0275431e-39
-0.11384131 0.22690816 0.8858 1.01346e-38
-0.11119728 0.22472736 0.88700002 1.0501597e-38
-0.12130612 0.22939298 0.88700002 8.2903508e-39
-0.1181957 0.22939298 0.88700002 8.7513135e-39
-0.1158629 0.22939298 0.88700002 9.9494895e-39
-0.081143379 0.18335482 0.88999999 1.1515027e-38
-0.084949873 0.18626623 0.889 1.105226e-38
-0.082995497 0.1855053 0.89033335 1.1237007e-38
-0.085140981 0.18824749 0.89099997 1.1054411e-38
-0.15136439 0.19349873 0.88999999 7.6435534e-39
-0.090145588 0.19405979 0.88900006 1.0501573e-38
-0.14418097 0.19873594 0.889 7.8289901e-39
-0.092743441 0.19873594 0.889 1.031718e-38
-0.090800747 0.19747296 0.89033335 1.0409735e-38
-0.14450534 0.20074525 0.89099997 7.4595069e-39
-0.14210269 0.20289251 0.88900006 7.7364441e-39
-0.093627125 0.20207867 0.88999999 1.0040948e-38
-0.14216201 0.20543191 0.89099997 7.5531318e-39
-0.13950484 0.20652951 0.889 8.0133967e-39
-0.096076518 0.20699413 0.89099997 1.0134237e-38
-0.094302155 0.20497081 0.889 1.0132786e-38
-0.13857031 0.20980299 0.88966668 7.9201291e-39
-0.10065009 0.21066387 0.88999999 1.0317576e-38
-0.098443173 0.20952456 0.88980001 1.0133173e-38
-0.13711271 0.21360421 0.89033335 7.9208578e-39
-0.10521314 0.21588179 0.889 1.0408695e-38
-0.10310651 0.21402413 0.89099997 1.0318293e-38
-0.13420099 0.21768335 0.88999999 8.1995929e-39
-0.10611085 0.21846445 0.88999999 1.0501268e-38
-0.10388763 0.21636745 0.89099997 1.0500891e-38
-0.13044536 0.22261634 0.89099997 8.1977978e-39
-0.10833057 0.22289601 0.889 1.0503043e-38
-0.10701206 0.22183523 0.89099997 1.1055862e-38
-0.12703513 0.22679278 0.889 8.8431448e-39
-0.11001202 0.22626767 0.88999999 1.0501597e-38
-0.12639691 0.22938946 0.88999999 9.3033901e-39
-0.12235899 0.23068956 0.889 8.474742e-39
-0.11768286 0.23146892 0.88900006 8.84207e-39
-0.11413177 0.23060337 0.88966668 1.0041684e-38
-0.111448 0.22835149 0.889 1.031792e-38
-0.086211398 0.19044882 0.89399999 1.0962225e-38
-0.083860174 0.18888132 0.89399999 1.1330982e-38
-0.15753174 0.19201629 0.89399999 6.5433716e-39
-0.15596426 0.19201629 0.89399999 7.3662154e-39
-0.086211398 0.19201629 0.89399999 1.0776382e-38
-0.089085102 0.19776373 0.89399999 1.0226423e-38
-0.14499189 0.20298865 0.89399999 7.7353875e-39
-0.093265057 0.20298865 0.89399999 1.0132436e-38
-0.091697574 0.20220491 0.89399999 1.0593767e-38
-0.14499189 0.20533988 0.89399999 7.3683875e-39
-0.14264068 0.20769109 0.89399999 7.5531108e-39
-0.093656927 0.20651548 0.89399999 9.9498329e-39
-0.091697574 0.20533988 0.89399999 9.9494685e-39
-0.14133444 0.21030354 0.89399999 7.7375147e-39
-0.096400015 0.2100423 0.89399999 1.0041687e-38
-0.094832532 0.20925857 0.89399999 1.0134234e-38
-0.14081195 0.21291602 0.89399999 7.7360994e-39
-0.13872197 0.21552849 0.89399999 8.0130338e-39
-0.10188619 0.21474475 0.89399999 1.0318294e-38
-0.098751239 0.21317726 0.89399999 1.0225373e-38
-0.13793823 0.21709597 0.89399999 7.8304474e-39
-0.10423741 0.21866344 0.89399999 1.0317947e-38
-0.10266993 0.21709597 0.89399999 1.0409761e-38
-0.10541303 0.22140655 0.89399999 1.0318297e-38
-0.12931709 0.22493337 0.89399999 7.9215767e-39
-0.10737237 0.22571711 0.89399999 1.0778904e-38
-0.11207481 0.2312033 0.89399999 1.0318618e-38
-0.1097236 0.22885206 0.89399999 1.0409764e-38
-0.11834474 0.23433825 0.89399999 8.7502233e-39
-0.1136423 0.23277077 0.89399999 9.9494952e-39
-0.079334825 0.18301994 0.89600003 1.114588e-38
-0.081691302 0.18694741 0.89600003 1.1791251e-38
-0.079511911 0.18500295 0.898 1.1330626e-38
-0.084047787 0.19087489 0.89600003 1.1421729e-38
-0.081827626 0.18962079 0.89749998 1.1606844e-38
-0.15666208 0.19444992 0.898 7.092532e-39
-0.15508759 0.19444992 0.898 6.1709359e-39
-0.088760741 0.19323136 0.89600003 1.0593053e-38
-0.085712567 0.19344613 0.89700001 1.0777455e-38
-0.15098217 0.1981661 0.89700001 8.2874851e-39
-0.088958867 0.19602442 0.898 1.0502649e-38
-0.08738438 0.19681166 0.898 1.0593776e-38
-0.14721511 0.20074789 0.898 7.736793e-39
-0.090398952 0.20202315 0.89666671 1.050157e-38
-0.14531627 0.20894122 0.89600003 7.0928684e-39
-0.14374527 0.20972672 0.89600003 7.0924984e-39
-0.093577147 0.21035352 0.89699996 9.9498483e-39
-0.097211234 0.21407557 0.89666671 1.0133173e-38
-0.095256843 0.21334384 0.898 1.004134e-38
-0.1406033 0.21601066 0.89600003 8.0130338e-39
-0.10172138 0.21797439 0.89600003 1.0318279e-38
-0.099261455 0.21755885 0.89720005 1.0317569e-38
-0.10447062 0.2230801 0.89600003 1.0226459e-38
-0.10252792 0.22157691 0.89733332 1.0502302e-38
-0.12960641 0.22700757 0.89600003 8.1974251e-39
-0.10567456 0.22629689 0.89733332 1.013533e-38
-0.10996906 0.23093504 0.89600003 1.0226076e-38
-0.10785279 0.22908877 0.898 1.0594161e-38
-0.1226746 0.23433739 0.89700001 8.3821722e-39
-0.11398128 0.23451361 0.89666671 9.489582e-39
-0.11100178 0.23381224 0.898 1.0227872e-38
-0.12088415 0.23731016 0.89733332 7.6420779e-39
-0.11795551 0.2374846 0.89700001 9.1182897e-39
-0.11572525 0.23774847 0.898 9.5814091e-39
-0.078019299 0.1868999 0.90259999 1.1976707e-38
-0.079954632 0.18919957 0.903 1.151464e-38
-0.086096555 0.19509953 0.90100002 1.0593793e-38
-0.083121151 0.19394934 0.903 1.1145149e-38
-0.15735993 0.19768921 0.90200001 7.3719958e-39
-0.15490218 0.19757919 0.90149999 6.7241111e-39
-0.08628767 0.19790749 0.903 1.0593776e-38
-0.15003537 0.20224437 0.90233338 7.9190473e-39
-0.14770693 0.2029983 0.90100002 7.5517025e-39
-0.089355126 0.20243374 0.90200001 1.031718e-38
-0.087870926 0.201074 0.903 1.0501216e-38
-0.14961806 0.20503215 0.903 7.7350372e-39
-0.14770693 0.20536792 0.90100002 7.827579e-39
-0.090245813 0.20582378 0.903 1.0224988e-38
-0.1480348 0.20819868 0.903 7.553492e-39
-0.092415564 0.21089706 0.90100002 1.0042038e-38
-0.091037445 0.20899031 0.903 9.6729083e-39
-0.095787227 0.21611498 0.903 1.013353e-38
-0.13695198 0.22165638 0.903 8.4758098e-39
-0.13427903 0.22353509 0.90100002 8.1073944e-39
-0.10110421 0.22274521 0.90100002 1.0502677e-38
-0.13378546 0.22640619 0.903 7.9222689e-39
-0.10309921 0.22597574 0.90233338 1.0227506e-38
-0.13220219 0.22878107 0.903 7.8282838e-39
-0.13061894 0.23036432 0.903 8.5651356e-39
-0.1082131 0.23143387 0.90100002 1.0594511e-38
-0.10565791 0.2294976 0.90166664 1.0042396e-38
-0.12874989 0.23301362 0.90100002 9.2104602e-39
-0.12666079 0.23511411 0.903 9.118308e-39
-0.10979286 0.23301362 0.90100002 9.8569408e-39
-0.12447526 0.23748901 0.90149999 8.1041252e-39
-0.12243088 0.23933263 0.90100002 7.0889111e-39
-0.11380491 0.23788482 0.90149999 9.2115588e-39
-0.1113726 0.23617312 0.90100002 1.0225341e-38
-0.1242859 0.24144715 0.903 4.7880042e-39
-0.12155771 0.24179666 0.90233338 6.6297602e-39
-0.11773576 0.24179195 0.90133333 8.1048623e-39
-0.11465923 0.24197139 0.90200001 5.7070907e-39
-0.12111938 0.24461366 0.903 1.2021403e-39
