# .PCD v0.7 - Point Cloud Data file format
VERSION 0.7
FIELDS x y z rgb
SIZE 4 4 4 4
TYPE F F F F
COUNT 1 1 1 1
WIDTH 993
HEIGHT 1
VIEWPOINT 0 0 0 1 0 0 0
POINTS 993
DATA ascii
-0.061630543 0.1696841 0.91300005 2.3313852e-38
-0.057628557 0.16968408 0.91299999 2.3504011e-38
-0.053704306 0.16993132 0.91433334 2.3504762e-38
-0.0497333 0.17005581 0.91500002 2.3504405e-38
-0.04567375 0.16986965 0.91400003 2.3504018e-38
-0.041620627 0.16968408 0.91299999 2.3501853e-38
-0.037618645 0.1696841 0.91300005 2.3501503e-38
-0.033653475 0.16986907 0.91400003 2.3500089e-38
-0.029658511 0.16993132 0.91433334 2.3129851e-38
-0.025640747 0.16986907 0.91399997 2.3407857e-38
-0.021625321 0.169808 0.91366673 2.3127333e-38
-0.0176473 0.17005581 0.91500002 2.3126618e-38
-0.01363655 0.17005581 0.91500008 2.1929152e-38
-0.0093584172 0.17032319 0.91500008 2.2018819e-38
-0.0059359102 0.17021625 0.91500008 2.294149e-38
-0.0016043 0.17085795 0.91500002 2.247909e-38
0.0018716834 0.17032319 0.91500008 2.2942578e-38
0.00561505 0.17005581 0.91500008 2.3311359e-38
0.0096258 0.17005581 0.91500002 2.2851811e-38
0.01363655 0.17005579 0.91500008 2.3407142e-38
0.0176473 0.17005581 0.91500002 2.3500072e-38
0.021318955 0.16974598 0.91420001 1.5571981e-38
-0.10508165 0.1732644 0.91500002 1.115059e-38
-0.10187305 0.17406656 0.91500008 1.0962959e-38
-0.097684339 0.17374891 0.91333336 1.1968773e-38
-0.093646407 0.17368609 0.91299999 1.1142259e-38
-0.089676857 0.17374891 0.91333342 1.0590883e-38
-0.085787579 0.17398161 0.91455555 1.1050787e-38
-0.081819296 0.17406654 0.91500008 1.1048655e-38
-0.07763847 0.17368607 0.91299999 1.0956435e-38
-0.073636487 0.17368607 0.91300005 1.0771678e-38
-0.069634505 0.17368607 0.91299999 1.0957137e-38
-0.065632522 0.17368607 0.91300005 1.1878375e-38
-0.061630547 0.17368606 0.91299999 1.2063121e-38
-0.057628557 0.17368607 0.91300005 1.2064197e-38
-0.053664565 0.17381291 0.91366673 1.1788335e-38
-0.049697649 0.1739403 0.91433334 1.1603952e-38
-0.045634106 0.17372873 0.91322231 1.1605027e-38
-0.041620627 0.17368607 0.91300005 1.1787979e-38
-0.03762741 0.17372875 0.91322231 1.1694351e-38
-0.033616662 0.17368607 0.91300005 1.1510316e-38
-0.029614678 0.17368609 0.91299999 1.1419555e-38
-0.025612693 0.17368607 0.91300005 1.1789057e-38
-0.021625319 0.1738129 0.91366673 1.1605033e-38
-0.0176473 0.17406654 0.91500008 1.1880892e-38
-0.01363655 0.17326441 0.91500008 1.1694323e-38
-0.0094653694 0.17374568 0.91500008 1.1786897e-38
-0.0056150504 0.17406654 0.91500008 1.1973088e-38
-0.00176473 0.17374568 0.91500008 1.1419904e-38
0.0016043 0.1732644 0.91500002 1.1415224e-38
0.006016125 0.17286333 0.91500002 1.1781848e-38
0.0096258 0.1732644 0.91500002 1.0678746e-38
0.013436012 0.173866 0.91500002 1.1694343e-38
0.0176473 0.17326438 0.91500002 1.1875478e-38
0.020558124 0.1727457 0.91366673 1.0958249e-38
-0.10187304 0.17807731 0.91500008 1.0689273e-38
-0.097809255 0.17798042 0.9145 1.1884894e-38
-0.093681179 0.17775321 0.91333336 1.2255479e-38
-0.089644425 0.17768805 0.91299999 1.2532081e-38
-0.085703813 0.17781781 0.91366673 1.124203e-38
-0.081819296 0.17807731 0.91500002 1.1332791e-38
-0.07769575 0.17781839 0.91366673 1.1792687e-38
-0.073636487 0.17768805 0.91299999 1.179269e-38
-0.069659345 0.17775321 0.91333336 1.1885246e-38
-0.065704413 0.17788354 0.91400003 1.2068547e-38
-0.061765552 0.17807731 0.91500008 1.1883438e-38
-0.0577548 0.1780773 0.91500002 1.1975987e-38
-0.053704303 0.17794812 0.91433334 1.2253301e-38
-0.049733296 0.17807731 0.91500002 1.2070372e-38
-0.045722555 0.17807731 0.91500008 1.2254761e-38
-0.041666213 0.17788355 0.91399997 1.2162904e-38
-0.037701048 0.17807731 0.91500008 1.2346946e-38
-0.033690296 0.1780773 0.91500002 1.25317e-38
-0.029679552 0.17807731 0.91500008 1.2347316e-38
-0.0256688 0.1780773 0.91500002 1.2346956e-38
-0.0224602 0.17807731 0.91500002 1.2531348e-38
-0.10026874 0.18048374 0.91500002 1.2070753e-38
-0.097862303 0.18048374 0.91500002 1.4193053e-38
-0.093783759 0.1811544 0.91433334 1.4197404e-38
-0.0898408 0.1812859 0.91500002 1.4841334e-38
-0.085830055 0.1812859 0.91500008 1.1149845e-38
-0.081819296 0.1812859 0.91500002 1.1610102e-38
-0.078209624 0.18088482 0.91500002 1.1701582e-38
-0.0737978 0.18048374 0.91500002 1.1977446e-38
-0.069787048 0.18048374 0.91500008 1.1793783e-38
-0.065776303 0.18048374 0.91500002 1.2160743e-38
-0.061765548 0.18048374 0.91500008 1.188452e-38
-0.0577548 0.18048374 0.91500002 1.1609727e-38
-0.053744048 0.18048374 0.91500008 1.1794127e-38
-0.0497333 0.18048374 0.91500002 1.1608661e-38
-0.0449204 0.18048374 0.91500002 1.1976371e-38
-0.02807525 0.18048374 0.91500002 1.197709e-38
-0.0256688 0.18048374 0.91500002 1.1977446e-38
-0.0224602 0.18048374 0.91500002 1.1885965e-38
-0.10542617 0.16337034 0.91799998 2.3509886e-38
-0.10224359 0.16262428 0.91833341 2.3232576e-38
-0.098290108 0.16274177 0.91899997 2.3508651e-38
-0.094296023 0.1617263 0.9193334 2.3509802e-38
-0.090091877 0.16164891 0.91919994 2.3509813e-38
-0.086236529 0.16199455 0.91933334 2.3509818e-38
-0.082236305 0.16205388 0.91966671 2.3509811e-38
-0.078464173 0.16257408 0.92000008 2.3509838e-38
-0.074039757 0.16243581 0.92000002 2.3509855e-38
-0.070100985 0.16195542 0.91911113 2.350986e-38
-0.066210426 0.16157842 0.9188 2.3509862e-38
-0.061584331 0.16196115 0.9191429 2.350986e-38
-0.058028318 0.16199455 0.9193334 2.3509855e-38
-0.053998575 0.16199456 0.91933334 2.3509863e-38
-0.049951002 0.16193582 0.91900003 2.3509874e-38
-0.045927588 0.1619554 0.91911113 2.350987e-38
-0.042064574 0.16229343 0.91920006 2.350986e-38
-0.037892748 0.16286042 0.91966671 2.3509866e-38
-0.033837579 0.16274177 0.91900003 2.3509827e-38
-0.029841732 0.16372627 0.92000002 2.3509832e-38
-0.025809066 0.16291973 0.92000002 2.3509842e-38
-0.02174367 0.16348898 0.91866672 2.3509832e-38
-0.017743733 0.16372627 0.92000002 2.3509845e-38
-0.0145176 0.16372627 0.92000002 2.3509804e-38
0.0024195998 0.16372627 0.92000002 2.3509866e-38
0.0056457329 0.16372627 0.92000002 2.3509881e-38
0.0096783992 0.16372627 0.92000002 2.3509881e-38
0.013711067 0.16372627 0.92000002 2.3509873e-38
0.017743733 0.16372627 0.92000002 2.3509862e-38
0.022079377 0.16293867 0.91920006 1.1522945e-38
-0.10596269 0.16605294 0.91799998 2.3509886e-38
-0.10260944 0.16538228 0.91799998 2.3509886e-38
-0.098183155 0.16497989 0.91799998 2.3509373e-38
-0.089330569 0.16497989 0.91799998 2.3509818e-38
-0.084501892 0.16497989 0.91799998 2.3509862e-38
-0.081819296 0.16551642 0.91799998 2.3509858e-38
-0.078063659 0.16578467 0.9180001 2.3509874e-38
-0.074039757 0.16578467 0.91799998 2.3509881e-38
-0.071088895 0.16551642 0.91799998 2.3509883e-38
-0.050701138 0.16578467 0.91799998 2.3509859e-38
-0.045872457 0.16497989 0.91799998 2.3509853e-38
-0.041043781 0.16497989 0.91799998 2.3509838e-38
-0.037824661 0.1649799 0.91799998 2.350986e-38
-0.033800758 0.16497989 0.91799998 2.3509828e-38
-0.029776856 0.1649799 0.91799998 2.3509839e-38
-0.025752958 0.16497989 0.91799998 2.3509848e-38
-0.021326669 0.16538228 0.91799998 2.3509845e-38
-0.017705159 0.16578467 0.91799998 2.350986e-38
-0.013681261 0.16578467 0.9180001 2.3509873e-38
-0.009667879 0.16596439 0.91900003 2.350988e-38
-0.0056395968 0.16596439 0.91900003 2.3509877e-38
-0.0016113132 0.16596439 0.91900003 2.3509865e-38
0.0016113133 0.16596439 0.91900003 2.3509873e-38
0.0056349207 0.16584459 0.91833341 2.3509879e-38
0.0096573597 0.16578467 0.91799998 2.3509874e-38
0.013681259 0.16578467 0.9180001 2.3509869e-38
0.017705159 0.16578467 0.91799998 2.3509856e-38
0.021729058 0.16578467 0.9180001 1.4378473e-38
-0.10864531 0.16980857 0.91799998 1.4922995e-38
-0.10663334 0.16940618 0.91799998 2.0923296e-38
-0.020119498 0.16819902 0.91799998 2.3509877e-38
-0.012071699 0.16819902 0.91799998 2.3509886e-38
-0.0099256206 0.16873553 0.91799998 2.2954156e-38
-0.0052310699 0.16860141 0.91799998 2.3507688e-38
-0.0016095599 0.16900378 0.91799998 2.3413311e-38
0.0013413 0.16873553 0.91799998 2.3507327e-38
0.0040238998 0.16819902 0.91799998 2.350988e-38
0.014486039 0.16819902 0.91799998 2.3509866e-38
0.017705159 0.16819902 0.91799998 2.3509865e-38
0.02333862 0.16819902 0.91799998 1.0133594e-38
-0.108882 0.17340466 0.92000002 1.1793841e-38
-0.10715233 0.1740227 0.91900003 1.0872963e-38
0.0048286794 0.17463724 0.91799998 9.6703495e-39
-0.10604042 0.17691132 0.91866672 1.1430795e-38
-0.020119498 0.17866114 0.91799998 1.2071449e-38
-0.017705159 0.17866115 0.91799998 1.2347668e-38
-0.01368126 0.17785634 0.9180001 1.2438413e-38
-0.0098267319 0.1783347 0.9188 1.253062e-38
-0.0056360895 0.17872632 0.91833341 1.253097e-38
-0.0014489547 0.1782565 0.91839999 1.2623156e-38
0.00160956 0.17785637 0.9180001 1.2623168e-38
0.0056334594 0.17785636 0.9180001 1.2623868e-38
0.0096605737 0.17792153 0.91833341 1.2623884e-38
0.013911197 0.17831625 0.9180001 1.2806837e-38
0.017705161 0.17785637 0.9180001 1.2714989e-38
0.020119499 0.17785637 0.91799998 1.1610817e-38
-0.10228011 0.18174469 0.91866672 1.0690343e-38
-0.098397061 0.18308306 0.92000002 1.3918258e-38
-0.07725887 0.18268505 0.91799998 1.13328e-38
-0.074039757 0.18268505 0.91799998 1.1976726e-38
-0.070015855 0.18268506 0.91799998 1.170087e-38
-0.065991953 0.18268505 0.91799998 1.1607922e-38
-0.061968058 0.18268506 0.91799998 1.1792692e-38
-0.058008157 0.18288405 0.91900003 1.1793042e-38
-0.053959422 0.18281773 0.91866672 1.1884882e-38
-0.049896356 0.18268505 0.91799998 1.1609384e-38
-0.046274845 0.18228266 0.91799998 1.206856e-38
-0.041848559 0.18188028 0.91799998 1.2252937e-38
-0.037865862 0.18207929 0.91900003 1.2069274e-38
-0.033837579 0.18207929 0.91900003 1.2069646e-38
-0.03009877 0.18204124 0.91800004 1.2070016e-38
-0.025752958 0.18268505 0.91799998 1.2161826e-38
-0.02174367 0.18228003 0.91866672 1.1886314e-38
-0.017743733 0.18146999 0.92000002 1.1610442e-38
-0.013711065 0.18147001 0.92000002 1.1885598e-38
-0.0096783992 0.18146999 0.92000002 1.2071078e-38
-0.0056457329 0.18147001 0.92000002 1.1977795e-38
-0.0016130665 0.18146999 0.92000002 1.2162541e-38
0.0016130665 0.18146999 0.92000002 1.2069288e-38
0.0056457329 0.18227653 0.92000002 1.2438047e-38
0.0096783992 0.18146999 0.92000002 1.2254379e-38
0.014015796 0.18187854 0.9188 1.225402e-38
0.017714364 0.18197979 0.91850001 1.2254377e-38
0.020671798 0.1822812 0.91866672 1.1517199e-38
-0.093557864 0.18469614 0.92000002 1.3460912e-38
-0.090331733 0.18469614 0.92000002 1.4841329e-38
-0.086175166 0.18442845 0.91866672 1.1334247e-38
-0.082087554 0.18429461 0.91799998 1.1977809e-38
-0.07770291 0.18479824 0.91850001 1.1609391e-38
-0.07412041 0.1853019 0.91899997 1.1794134e-38
-0.070494518 0.18489864 0.91900003 1.1609754e-38
-0.066135734 0.18469614 0.92000002 1.1057266e-38
-0.063716128 0.18469614 0.92000002 1.1240594e-38
-0.052424666 0.18469614 0.92000002 1.1976347e-38
-0.050005067 0.18469614 0.92000002 1.1517897e-38
-0.045972403 0.18469614 0.92000002 1.179233e-38
-0.041939735 0.18469614 0.92000002 1.1976717e-38
-0.037907064 0.18469614 0.92000002 1.1976719e-38
-0.0338744 0.18469614 0.92000002 1.1978162e-38
-0.029841732 0.18469614 0.92000002 1.1978523e-38
-0.025809066 0.18469614 0.92000002 1.2161469e-38
-0.022582933 0.18469614 0.92000002 1.1885242e-38
0.017743733 0.18469614 0.92000002 1.2806128e-38
0.020969866 0.18550266 0.92000002 1.1517562e-38
-0.10276374 0.15940516 0.92299998 1.6396331e-38
-0.096290432 0.15940516 0.92299998 2.3509802e-38
-0.093862936 0.15940516 0.92299998 2.3509807e-38
-0.08941254 0.15900059 0.92299998 2.3509823e-38
-0.085771307 0.15859601 0.92299998 2.3509841e-38
-0.082049154 0.15875785 0.92299998 2.3509846e-38
-0.077679679 0.15940516 0.92299998 2.3509848e-38
-0.073310189 0.15875784 0.92299998 2.3509879e-38
-0.069588043 0.15859601 0.92299998 2.3509883e-38
-0.066351391 0.15859601 0.92299998 2.350988e-38
-0.062305577 0.15859601 0.92299998 2.3509884e-38
-0.058259755 0.15859601 0.92299998 2.3509884e-38
-0.054213941 0.15859601 0.92299998 2.3509884e-38
-0.050168123 0.15940516 0.92299998 2.3509883e-38
-0.046445973 0.15875785 0.92299998 2.3509877e-38
-0.042076491 0.15940516 0.92299998 2.3509865e-38
-0.039648999 0.15940516 0.92299998 2.3509859e-38
-0.10195458 0.1610235 0.92299998 2.1753118e-38
-0.097908758 0.1610235 0.92300004 2.3509769e-38
-0.077679679 0.1610235 0.92299998 2.3509828e-38
-0.075252183 0.1610235 0.92299998 2.3509817e-38
-0.063923903 0.1610235 0.92299998 2.3509886e-38
-0.041267328 0.1610235 0.92299998 2.3509859e-38
-0.038030677 0.1610235 0.92300004 2.350986e-38
-0.033984859 0.1610235 0.92299998 2.3509785e-38
-0.029939041 0.16183266 0.92299998 2.3509831e-38
-0.025893226 0.1610235 0.92299998 2.3509866e-38
-0.022171075 0.1619945 0.92299998 2.3509865e-38
-0.017801594 0.16264182 0.92299998 2.3509851e-38
-0.013755776 0.16264182 0.92300004 2.3509872e-38
-0.010519123 0.16264182 0.92299998 2.3509886e-38
-0.0016183266 0.16264182 0.92299998 2.3509874e-38
0.0016183266 0.16264182 0.92299998 2.3509886e-38
0.0056641432 0.16264182 0.92300004 2.350988e-38
0.0089007961 0.16264182 0.92299998 2.3509886e-38
0.014564939 0.16264182 0.92299998 2.3509883e-38
0.017801594 0.16264182 0.92299998 2.3509884e-38
0.020229081 0.16264182 0.92299998 2.3509825e-38
-0.012137448 0.16426013 0.92299998 2.3509874e-38
-0.0097099598 0.16426013 0.92299998 2.3509872e-38
-0.0056641432 0.16426013 0.92300004 2.3509863e-38
-0.0016183266 0.16426013 0.92299998 2.3509845e-38
0.00080916326 0.16426013 0.92299998 2.3509865e-38
-0.10923705 0.17558843 0.92299998 1.1427216e-38
-0.10276374 0.18368007 0.92299998 1.0229364e-38
-0.020229081 0.18368007 0.92299998 1.1610443e-38
-0.017801594 0.18368007 0.92299998 1.1793758e-38
-0.013755776 0.18368009 0.92300004 1.2069629e-38
-0.0097099598 0.18368007 0.92299998 1.2254024e-38
-0.0056641432 0.18368009 0.92300004 1.2161839e-38
-0.0016183266 0.18368007 0.92299998 1.2438774e-38
0.0016183266 0.18368007 0.92299998 1.2345525e-38
0.0097099598 0.18368007 0.92299998 1.2438772e-38
0.012137448 0.18368007 0.92299998 1.2346579e-38
-0.10114541 0.18529838 0.92299998 1.0136538e-38
-0.097908758 0.18529838 0.92300004 1.3643831e-38
-0.093862936 0.18691672 0.92299998 1.0418459e-38
-0.089817129 0.18691674 0.92300004 1.3274723e-38
-0.085771307 0.18691672 0.92299998 1.1793793e-38
-0.081725493 0.18691674 0.92300004 1.1978536e-38
-0.078488842 0.18691672 0.92299998 1.1886359e-38
-0.069588043 0.18691672 0.92299998 1.1793443e-38
-0.066351391 0.18691672 0.92299998 1.1794497e-38
-0.062305577 0.18583784 0.92300004 1.1609378e-38
-0.058259755 0.18529838 0.92299998 1.1792329e-38
-0.054213941 0.18610755 0.92299998 1.1884154e-38
-0.050168123 0.18691672 0.92299998 1.1609737e-38
-0.046122305 0.18691674 0.92300004 1.1700845e-38
-0.042076491 0.18691672 0.92299998 1.1515742e-38
-0.038030677 0.18691674 0.92300004 1.1700125e-38
-0.033984859 0.18691672 0.92299998 1.1609363e-38
-0.029939041 0.18691674 0.92300004 1.1700474e-38
-0.025893226 0.18691672 0.92299998 1.1884526e-38
-0.02184741 0.18637727 0.92300004 1.1516829e-38
-0.018610757 0.18529838 0.92299998 1.1793399e-38
0.0016183266 0.18529838 0.92299998 1.1979245e-38
0.0056641432 0.18529838 0.92300004 1.2254742e-38
0.0097099598 0.18529838 0.92299998 1.2438062e-38
0.01483466 0.18583784 0.92300004 1.2345861e-38
0.017801594 0.18691672 0.92299998 1.2806482e-38
0.017801594 0.18853503 0.92299998 1.1976717e-38
0.020229081 0.18853503 0.92299998 1.1335336e-38
0.018711573 0.14725195 0.92799997 2.3509851e-38
0.020338666 0.14725195 0.92799997 2.1011169e-38
0.017898025 0.14969257 0.92799997 2.3509863e-38
0.020338666 0.14969257 0.92799997 2.0921141e-38
-0.093557857 0.1553874 0.92799997 2.350982e-38
-0.089920931 0.1546361 0.92740005 2.3509817e-38
-0.086096555 0.1543227 0.92649996 2.3509849e-38
-0.082204916 0.15365106 0.92612499 2.3509862e-38
-0.077974238 0.1543227 0.92649996 2.350986e-38
-0.073913082 0.15432268 0.92650002 2.3509848e-38
-0.069965005 0.1553874 0.92799997 2.3509814e-38
-0.067524366 0.1553874 0.92799997 2.3509859e-38
-0.061829545 0.1553874 0.92799997 2.3509859e-38
-0.056134716 0.1553874 0.92799997 2.3509865e-38
-0.053365912 0.1546776 0.92699999 2.3509863e-38
-0.050398469 0.15444827 0.92724997 2.3509872e-38
-0.046321314 0.15440643 0.92699999 2.3509856e-38
-0.042304426 0.15457386 0.92799997 2.3509842e-38
-0.038643461 0.15498063 0.92799997 2.3509811e-38
-0.034168959 0.15457386 0.92799997 2.350983e-38
-0.030507997 0.15498063 0.92799997 2.3509852e-38
-0.026033491 0.1553874 0.92799997 2.3509855e-38
-0.022779305 0.1553874 0.92799997 2.3509853e-38
-0.013016745 0.1553874 0.92799997 2.3509845e-38
-0.0097625591 0.1553874 0.92799997 2.3509855e-38
-0.0056948261 0.1553874 0.92799997 2.3509848e-38
-0.0016270932 0.15457386 0.92799997 2.3509849e-38
0.0016270932 0.1553874 0.92799997 2.3509814e-38
0.006101599 0.15498063 0.92799997 2.3509858e-38
0.0097625591 0.15457386 0.92799997 2.3509842e-38
0.013830292 0.15457386 0.92799997 2.3509844e-38
0.017898027 0.15376031 0.92799997 2.3509881e-38
0.021152213 0.1553874 0.92799997 1.5117129e-38
-0.097662054 0.15810998 0.92679995 2.3509799e-38
-0.094143257 0.15744472 0.92574996 2.3509814e-38
-0.090336122 0.15715563 0.92500001 2.3509827e-38
-0.085957162 0.15650691 0.92500001 2.3509848e-38
-0.081497125 0.15691236 0.92500001 2.3509866e-38
-0.077847995 0.15731782 0.92500001 2.350987e-38
-0.074198872 0.15691236 0.92500001 2.3509872e-38
-0.069738835 0.15650691 0.92500001 2.3509856e-38
-0.065684251 0.15650693 0.92500007 2.3509876e-38
-0.06162966 0.15650691 0.92500001 2.3509876e-38
-0.058481991 0.15676069 0.92649996 2.350987e-38
-0.054331418 0.15650693 0.92500007 2.3509874e-38
-0.050276831 0.15731782 0.92500001 2.350988e-38
-0.04581679 0.15691236 0.92500001 2.3509863e-38
-0.042167664 0.15731782 0.92500001 2.3509856e-38
-0.037940599 0.15805291 0.92575008 2.3509816e-38
-0.034095321 0.15829794 0.92600006 2.3509813e-38
-0.030003915 0.15812874 0.92500007 2.3509858e-38
-0.025962923 0.15821335 0.92550004 2.3509859e-38
-0.022132326 0.15818046 0.92650002 2.3509856e-38
-0.017878739 0.15846889 0.92699999 2.3509852e-38
-0.013815389 0.15846889 0.92700005 2.3509877e-38
-0.0097520407 0.15846889 0.92699999 2.3509873e-38
-0.0056886896 0.15846889 0.92700005 2.3509873e-38
-0.0016235866 0.15829794 0.92600006 2.3509876e-38
0.0016235866 0.15829794 0.92600006 2.3509873e-38
0.0056851828 0.15835492 0.92633331 2.3509863e-38
0.0097520389 0.15846889 0.92700005 2.350986e-38
0.013830292 0.15782803 0.92799997 2.3509865e-38
0.017898025 0.15782803 0.92799997 2.3509886e-38
0.021640342 0.15799074 0.92799997 1.4012936e-38
0.025219945 0.15864159 0.92799997 1.1155671e-38
-0.10087978 0.16026868 0.92799997 2.3509069e-38
-0.02030579 0.16082054 0.92649996 2.3509877e-38
-0.017840166 0.16137241 0.92500001 2.3509856e-38
-0.013785584 0.16137241 0.92500007 2.3509886e-38
-0.0094606951 0.16191302 0.92500007 2.3509886e-38
-0.0056764162 0.16218334 0.92500007 2.3509884e-38
-0.0016218333 0.16137241 0.92500001 2.3509886e-38
0.0016218333 0.16137241 0.92500001 2.3509886e-38
0.0056764162 0.16137241 0.92500007 2.350988e-38
0.010001305 0.16191302 0.92500007 2.3509883e-38
0.013573054 0.16113108 0.92628574 2.3509883e-38
0.017869096 0.16082054 0.92649996 2.3509886e-38
0.021930255 0.16082054 0.92650002 1.3276105e-38
-0.1024458 0.18678114 0.92500007 1.2071189e-38
-0.09812092 0.18732175 0.92500007 1.2445641e-38
-0.06162966 0.18732174 0.92500001 1.1701939e-38
-0.058385998 0.18732174 0.92500001 1.1701216e-38
-0.055953249 0.18732174 0.92500001 1.1424622e-38
-0.020272916 0.18732174 0.92500001 1.1239893e-38
-0.01756986 0.18678114 0.92500007 1.1424252e-38
-0.013807938 0.18681461 0.92650002 1.1700497e-38
-0.0097467797 0.18681461 0.92649996 1.1977076e-38
-0.0056834295 0.18671334 0.92600006 1.2069647e-38
-0.0016218334 0.18651082 0.92500001 1.216255e-38
0.0016218333 0.18732174 0.92500001 1.2161464e-38
0.0056764162 0.18732175 0.92500007 1.225403e-38
0.0097310003 0.18732174 0.92500001 1.2345144e-38
0.012704361 0.18678114 0.92500007 1.2437341e-38
-0.10152763 0.19006351 0.92649996 1.3552056e-38
-0.097922787 0.18983953 0.92620003 1.180278e-38
-0.094218865 0.19006351 0.92649996 8.8540231e-39
-0.09015771 0.19006352 0.92650002 1.2077644e-38
-0.086096555 0.19006351 0.92649996 1.1427191e-38
-0.081947736 0.18985751 0.92550004 1.1793771e-38
-0.077974238 0.19006351 0.92649996 1.1794851e-38
-0.073913082 0.19006352 0.92649996 1.1887757e-38
-0.069965005 0.18955636 0.92799997 1.1978542e-38
-0.065897278 0.18955636 0.92799997 1.1978884e-38
-0.06162966 0.18894358 0.92500001 1.1794865e-38
-0.057667132 0.19006351 0.92649996 1.1885973e-38
-0.054076482 0.18983953 0.92620003 1.2069993e-38
-0.050358359 0.19006351 0.92649996 1.1977812e-38
-0.046297204 0.19006352 0.92650002 1.1885252e-38
-0.042236045 0.19006351 0.92649996 1.1516829e-38
-0.037885498 0.19008464 0.92740005 1.179305e-38
-0.034113728 0.19006351 0.92649996 1.1701568e-38
-0.030052571 0.19006352 0.92650002 1.1516825e-38
-0.025991412 0.19006351 0.92649996 1.114768e-38
-0.022261722 0.18996207 0.92679995 1.1700492e-38
-0.017898025 0.18955636 0.92799997 1.1055823e-38
-0.013830293 0.18955636 0.92799997 1.1516109e-38
-0.0097625591 0.18955636 0.92799997 1.1885245e-38
-0.0056948266 0.18955636 0.92799997 1.1701226e-38
-0.0016270932 0.18955636 0.92799997 1.2070718e-38
0.0016270932 0.18955636 0.92799997 1.2069639e-38
0.0056948266 0.18955636 0.92799997 1.2161114e-38
0.0097625591 0.18955636 0.92799997 1.206855e-38
0.014136776 0.18996207 0.92679995 1.1976358e-38
0.017840166 0.19056541 0.92500001 1.1792313e-38
0.020338666 0.19118345 0.92799997 1.1242787e-38
0.017898025 0.19281054 0.92799997 1.1975998e-38
0.0171213 0.1475693 0.93000001 2.3509863e-38
0.0073376996 0.15083049 0.93000001 2.3509866e-38
0.0097835995 0.15083049 0.93000001 2.3509872e-38
0.014267749 0.15042286 0.93000001 2.3509867e-38
0.022556633 0.15028697 0.93000001 7.0017798e-39
-0.10028189 0.15572229 0.93000001 2.3509762e-38
-0.097835995 0.15572229 0.93000001 2.3509788e-38
-0.094167143 0.15449935 0.93000001 2.3509797e-38
-0.089682996 0.1524611 0.93000001 2.3509821e-38
-0.086421803 0.1524611 0.93000001 2.3509839e-38
-0.080714695 0.1524611 0.93000001 2.3509821e-38
-0.078268796 0.1524611 0.93000001 2.3509838e-38
-0.0741923 0.1524611 0.93000001 2.3509858e-38
-0.070115805 0.1532764 0.93000001 2.3509846e-38
-0.066039294 0.15436347 0.93000001 2.3509863e-38
-0.061962798 0.1540917 0.93000001 2.3509851e-38
-0.057886295 0.154907 0.93000001 2.3509862e-38
-0.053809799 0.1532764 0.93000001 2.350988e-38
-0.049733296 0.1524611 0.93000001 2.3509867e-38
-0.0456568 0.1524611 0.93000001 2.3509846e-38
-0.042395599 0.1524611 0.93000001 2.3509845e-38
-0.037992977 0.15311335 0.93000001 2.3509842e-38
-0.0342426 0.1524611 0.93000001 2.3509848e-38
-0.029839978 0.15311335 0.93000001 2.3509853e-38
-0.026089599 0.1540917 0.93000001 2.3509849e-38
-0.022013098 0.15463524 0.93000001 2.3509855e-38
-0.017936599 0.15490699 0.93000001 2.3509832e-38
-0.014267749 0.15449935 0.93000001 2.3509827e-38
-0.009511834 0.15354817 0.93000001 2.3509844e-38
-0.0060332203 0.15343946 0.93000001 2.3509842e-38
-0.0016306 0.1524611 0.93000001 2.3509851e-38
0.0016306 0.1532764 0.93000001 2.3509835e-38
0.0053809802 0.15311335 0.93000001 2.3509856e-38
0.0097835995 0.1524611 0.93000001 2.3509877e-38
0.013860099 0.1524611 0.93000001 2.3509886e-38
0.022246042 0.15362582 0.93000001 1.1614086e-38
0.025274299 0.1540917 0.93000001 1.0694322e-38
-0.1019125 0.1581682 0.93000001 2.0921879e-38
0.023643699 0.15735289 0.93000001 8.389431e-39
0.025274299 0.15735289 0.93000001 1.1524081e-38
-0.070115805 0.19159549 0.93000001 1.1887767e-38
-0.066039294 0.19159549 0.93000001 1.1795211e-38
-0.061962798 0.19159549 0.93000001 1.1887064e-38
-0.059516896 0.19159549 0.93000001 1.179416e-38
-0.039949697 0.19159549 0.93000001 1.1609384e-38
-0.020382499 0.19159549 0.93000001 1.2070358e-38
-0.017936599 0.19159549 0.93000001 1.1978162e-38
-0.013860099 0.19159549 0.93000001 1.1977817e-38
-0.0097835995 0.19159549 0.93000001 1.1793066e-38
-0.0057071 0.19159549 0.93000001 1.1792716e-38
-0.0016306 0.19159549 0.93000001 1.1977809e-38
0.0016306 0.19159549 0.93000001 1.1978168e-38
0.0048917998 0.19159549 0.93000001 1.1885613e-38
0.0105989 0.19159549 0.93000001 1.1609357e-38
0.012229499 0.19159549 0.93000001 1.1701553e-38
-0.10028189 0.1932261 0.93000001 9.767566e-39
-0.097835995 0.1932261 0.93000001 1.2725072e-38
-0.093759499 0.1932261 0.93000001 6.3740905e-39
-0.089682996 0.1932261 0.93000001 1.2167695e-38
-0.086421803 0.1932261 0.93000001 1.170486e-38
-0.082345299 0.1932261 0.93000001 1.1793771e-38
-0.078268796 0.1932261 0.93000001 1.1795224e-38
-0.0741923 0.1932261 0.93000001 1.1795927e-38
-0.053809799 0.1932261 0.93000001 1.2071067e-38
-0.048102695 0.1932261 0.93000001 1.1978892e-38
-0.0456568 0.1932261 0.93000001 1.1887061e-38
-0.043210898 0.1932261 0.93000001 1.1426087e-38
-0.0342426 0.1932261 0.93000001 1.1703004e-38
-0.030166097 0.1932261 0.93000001 1.151754e-38
-0.026089599 0.1932261 0.93000001 1.1793052e-38
-0.10409978 0.14508393 0.935 1.003778e-38
-0.10234995 0.14615655 0.93400002 1.9258045e-38
-0.099181682 0.14672332 0.935 2.3509788e-38
-0.0934439 0.14672332 0.935 2.3509807e-38
-0.090984851 0.14672332 0.935 2.3509806e-38
-0.072951816 0.14672332 0.935 2.3509859e-38
-0.069345206 0.14606757 0.93500006 2.3509848e-38
-0.065574661 0.14590362 0.935 2.3509848e-38
-0.062295932 0.14672332 0.935 2.3509855e-38
-0.049180999 0.14672332 0.935 2.3509807e-38
-0.045902267 0.14672332 0.935 2.3509797e-38
-0.041803848 0.14672332 0.93500006 2.3509842e-38
-0.038525116 0.14672332 0.935 2.3509852e-38
-0.029508598 0.14672332 0.935 2.3509844e-38
-0.026229866 0.14672332 0.935 2.3509813e-38
-0.022951134 0.14672332 0.935 2.3509771e-38
-0.018033031 0.14590362 0.935 2.3509803e-38
-0.015573982 0.14672332 0.935 2.3509754e-38
0.0061476249 0.14631347 0.935 2.3509858e-38
0.0095629711 0.14617686 0.93500006 2.3509853e-38
0.014255828 0.1460048 0.93460006 2.3509849e-38
0.018013747 0.14574671 0.93400002 2.3509842e-38
0.021023929 0.14607224 0.93433332 1.5850732e-38
-0.10226522 0.14971645 0.93322223 1.9535359e-38
-0.098291278 0.14989451 0.93433332 2.3509806e-38
-0.094196372 0.14989392 0.93433338 2.3509806e-38
-0.090036586 0.14978698 0.93366671 2.3509846e-38
-0.086156167 0.15000513 0.93375003 2.3509859e-38
-0.081880666 0.15065955 0.93400002 2.3509863e-38
-0.077564344 0.15033142 0.93414289 2.3509876e-38
-0.073718905 0.14989392 0.93433332 2.3509866e-38
-0.070055321 0.14958352 0.9338572 2.3509848e-38
-0.06608291 0.14996502 0.93350005 2.3509865e-38
-0.062250927 0.14989451 0.93433332 2.3509863e-38
-0.058197517 0.15000203 0.935 2.3509866e-38
-0.054080099 0.149948 0.93466675 2.3509873e-38
-0.049941648 0.14982261 0.93388897 2.3509865e-38
-0.045836814 0.14978698 0.93366671 2.3509858e-38
-0.041744236 0.14978698 0.93366665 2.350986e-38
-0.037678547 0.14989394 0.93433344 2.3509863e-38
-0.034377605 0.14978698 0.93366671 2.3509842e-38
-0.030285034 0.14978696 0.93366665 2.3509838e-38
-0.026192462 0.14978698 0.93366671 2.3509816e-38
-0.022109631 0.14985867 0.93411118 2.3509806e-38
-0.01802076 0.14989452 0.93433332 2.3509813e-38
-0.01392098 0.1498583 0.93411106 2.3509821e-38
-0.0098361997 0.15000203 0.93500006 2.3509823e-38
-0.0057377825 0.15000205 0.935 2.3509816e-38
-0.0014740272 0.15020017 0.93419999 2.3509841e-38
0.0016381978 0.14989394 0.93433332 2.3509835e-38
0.005526287 0.14963627 0.93400002 2.3509856e-38
0.0098151602 0.14886326 0.93300003 2.3509859e-38
0.013577639 0.14869967 0.93300003 2.3509852e-38
0.02213145 0.14836268 0.935 8.0115849e-39
-0.10224124 0.15377085 0.93300003 1.9536807e-38
-0.098151594 0.15377083 0.93300003 2.3509793e-38
-0.094061956 0.15295291 0.93300003 2.3509795e-38
-0.065434396 0.15295291 0.93300003 2.3509865e-38
-0.062162675 0.15295291 0.93300003 2.3509842e-38
-0.058481995 0.15336187 0.93300003 2.3509849e-38
-0.054801308 0.15295291 0.93300003 2.3509886e-38
-0.026173759 0.15295291 0.93300003 2.3509841e-38
-0.021686103 0.15344384 0.93350005 2.3509862e-38
-0.01799446 0.15295291 0.93300003 2.3509816e-38
-0.01390481 0.15295291 0.93300003 2.3509802e-38
-0.010633091 0.15295291 0.93300003 2.3509831e-38
-0.0040896498 0.15295291 0.93300003 2.3509839e-38
-0.10305918 0.15622462 0.93300003 1.8519434e-38
-0.10169597 0.19493997 0.93300003 1.1889985e-38
-0.098151602 0.19548526 0.93300003 1.3183545e-38
-0.094061956 0.19548528 0.93300003 1.2082643e-38
-0.089972302 0.19548526 0.93300003 1.2722644e-38
-0.085882656 0.19548528 0.93300003 1.1610854e-38
-0.081792995 0.19548526 0.93300003 1.197854e-38
-0.077760041 0.19562495 0.93366671 1.1609762e-38
-0.073691726 0.19569477 0.93400002 1.1610102e-38
-0.069940642 0.19508235 0.93419999 1.1702301e-38
-0.065981261 0.19467136 0.93380004 1.1702655e-38
-0.062229306 0.19487685 0.93400002 1.1702307e-38
-0.058073029 0.19466734 0.93300003 1.1885978e-38
-0.053983375 0.19548526 0.93300003 1.2346944e-38
-0.050220903 0.19483092 0.93300003 1.1978173e-38
-0.045902267 0.1959043 0.935 1.2163645e-38
-0.041440912 0.19508235 0.93419999 1.1979245e-38
-0.037624776 0.19466734 0.93300003 1.2255817e-38
-0.034353059 0.19548526 0.93300003 1.2533488e-38
-0.030263409 0.19548528 0.93300003 1.2809002e-38
-0.026173759 0.19548526 0.93300003 1.3085241e-38
-0.02210661 0.19487628 0.93400002 1.225548e-38
-0.018013746 0.19487685 0.93400002 1.1979615e-38
-0.013919714 0.19487685 0.93400002 1.1887064e-38
-0.0098256795 0.19487685 0.93400002 1.1701599e-38
-0.0057337754 0.1946151 0.93442857 1.1977821e-38
-0.0016376134 0.19487685 0.93400002 1.1978542e-38
0.0013655545 0.19467288 0.93433332 1.1887412e-38
0.0057377834 0.19371849 0.93500006 1.1701939e-38
0.0095629711 0.19371849 0.93500006 1.179449e-38
0.013606742 0.19492069 0.93500006 1.1794491e-38
0.01799446 0.19548526 0.93300003 1.2716456e-38
0.021300809 0.19498074 0.93449998 1.1703751e-38
-0.10082104 0.19754368 0.935 9.129381e-39
-0.098019227 0.19794929 0.93433332 1.3368302e-38
-0.094162777 0.1981521 0.93400002 1.3368705e-38
-0.090116508 0.19825773 0.93449998 1.2722991e-38
-0.086004794 0.19822252 0.93433332 1.1519747e-38
-0.08196833 0.19754368 0.935 1.1517559e-38
-0.058197513 0.19754368 0.93500006 1.1794508e-38
-0.054099098 0.19754368 0.935 1.2162183e-38
-0.050000682 0.19754368 0.93500006 1.2255109e-38
-0.03688575 0.19754368 0.935 1.2717532e-38
-0.034426697 0.19754368 0.935 1.2717885e-38
-0.030328281 0.19754368 0.93500006 1.290156e-38
-0.026229866 0.19754368 0.935 1.2810089e-38
-0.023770815 0.19754368 0.935 1.2534232e-38
-0.076638192 0.14256352 0.94 2.3509828e-38
-0.073839292 0.14301063 0.93933338 2.3509824e-38
-0.069971144 0.14323418 0.93900007 2.350982e-38
-0.065855198 0.14323418 0.93900001 2.3509831e-38
-0.062562436 0.14323418 0.93900001 2.3509823e-38
-0.057409979 0.14201415 0.94 2.3509825e-38
-0.054663088 0.14201415 0.94 2.3509823e-38
-0.050035749 0.1422808 0.93950003 2.3509818e-38
-0.046422422 0.14201415 0.94 2.3509827e-38
-0.042027399 0.14256352 0.94 2.3509814e-38
-0.037907064 0.14256352 0.94 2.3509827e-38
-0.033786736 0.14256352 0.94 2.3509825e-38
-0.029634841 0.14323418 0.93900001 2.3509795e-38
-0.026625535 0.14301063 0.93933338 2.3509804e-38
-0.023073867 0.14256352 0.94 2.3509827e-38
-0.013185065 0.14256352 0.94 2.350982e-38
-0.010712867 0.14256352 0.94 2.3509825e-38
0.0024695699 0.14323418 0.93900001 2.35098e-38
0.0055578472 0.14265448 0.93925005 2.350981e-38
0.0098782796 0.14323418 0.93900001 2.350982e-38
0.01398371 0.14313307 0.93833339 2.3509825e-38
0.018110178 0.14323418 0.93900001 2.3139174e-38
0.02057975 0.14323418 0.93900001 1.824961e-38
-0.10465646 0.14421166 0.94 1.1144126e-38
-0.10183769 0.1446576 0.93933338 2.2116055e-38
-0.097727954 0.14545894 0.93875009 2.3509767e-38
-0.093843661 0.14488056 0.93900001 2.3509752e-38
-0.090001814 0.14515468 0.93900007 2.35098e-38
-0.086447097 0.14619669 0.93914294 2.3509848e-38
-0.082406662 0.14668386 0.94 2.3509862e-38
-0.078231588 0.14575557 0.93933338 2.3509851e-38
-0.07445924 0.14562617 0.93849999 2.3509844e-38
-0.071541257 0.14554946 0.93800002 2.3509838e-38
-0.061041247 0.14561082 0.93839997 2.3509831e-38
-0.057602845 0.14565174 0.9386667 2.3509828e-38
-0.054311253 0.14565174 0.93866676 2.3509834e-38
-0.05084106 0.14561082 0.93839997 2.350983e-38
-0.046098638 0.14488056 0.93900001 2.3509825e-38
-0.041982692 0.14488058 0.93900007 2.3509804e-38
-0.037694212 0.14534327 0.93880004 2.3509831e-38
-0.033738807 0.14565174 0.93866676 2.3509809e-38
-0.02960328 0.14554946 0.93800002 2.3509795e-38
-0.026058039 0.14510354 0.9386667 2.3509804e-38
-0.021987803 0.14521107 0.9388572 2.3509795e-38
-0.013530223 0.14577013 0.93942863 2.3509795e-38
-0.009881787 0.14575519 0.93933338 2.3509786e-38
-0.005764375 0.14575519 0.93933338 2.3509789e-38
-0.0016469643 0.14575517 0.93933338 2.350981e-38
0.0014805145 0.14593975 0.93839997 2.3509817e-38
0.0049338797 0.14554946 0.93800002 2.3509827e-38
0.010690073 0.14554946 0.93800002 2.3509844e-38
0.0123347 0.14554946 0.93800002 2.3509845e-38
0.02220246 0.14554946 0.93800002 7.6485631e-39
-0.084698275 0.14883871 0.93800002 2.3509862e-38
-0.082231328 0.14883871 0.93800002 2.3509872e-38
-0.078942075 0.14883871 0.93800002 2.3509881e-38
-0.0024669401 0.14883871 0.93800002 2.3509842e-38
0.00740082 0.19488825 0.93800002 1.2070358e-38
-0.10196685 0.19899982 0.93800002 1.1981074e-38
-0.099499911 0.19982214 0.93800002 1.3364308e-38
-0.083053641 0.19982214 0.93800002 1.1517559e-38
-0.07811977 0.1981775 0.93800008 1.1517205e-38
-0.074008197 0.1981775 0.93800002 1.1517907e-38
-0.069896631 0.19899982 0.93800008 1.1333867e-38
-0.066059172 0.19872573 0.93800008 1.1518608e-38
-0.062495813 0.19899982 0.93800002 1.161118e-38
-0.05756193 0.19982214 0.93800002 1.1886709e-38
-0.054272678 0.19982214 0.93800002 1.1978512e-38
-0.050161116 0.19982216 0.93800008 1.2254742e-38
-0.046049546 0.19899982 0.93800002 1.2256189e-38
-0.041937985 0.1981775 0.93800008 1.2072521e-38
-0.038100522 0.19927393 0.93800008 1.2624973e-38
-0.033714846 0.19982216 0.93800008 1.2993401e-38
-0.02960328 0.19982214 0.93800002 1.2717173e-38
-0.026314026 0.19982214 0.93800002 1.2901913e-38
-0.02220246 0.19872573 0.93800008 1.2348758e-38
-0.018090893 0.1981775 0.93800002 1.2072175e-38
-0.013979326 0.1981775 0.93800008 1.2347682e-38
-0.0098677594 0.1981775 0.93800002 1.216294e-38
-0.0057561933 0.1981775 0.93800008 1.2346967e-38
-0.0016455033 0.19838879 0.93900001 1.2162563e-38
0.0019210689 0.19791101 0.93933338 1.2163639e-38
0.0057623303 0.19756648 0.93900007 1.2164006e-38
0.0098782806 0.19756648 0.93900001 1.2533848e-38
0.014412837 0.19808327 0.93950003 1.2348749e-38
0.018090893 0.1981775 0.93800002 1.2901217e-38
0.021380147 0.1981775 0.93800002 1.1889233e-38
-0.097651541 0.20238376 0.93920004 1.2350921e-38
-0.093843654 0.20250562 0.93900001 1.1890659e-38
-0.090075746 0.20271337 0.93920004 1.1797022e-38
-0.086086921 0.20229785 0.93880004 1.1703032e-38
-0.082406662 0.20107226 0.94 1.1517205e-38
-0.077956706 0.20090745 0.94 1.1333171e-38
-0.073891312 0.20079759 0.94 1.1241693e-38
-0.070045665 0.20189634 0.94 1.1149849e-38
-0.06592533 0.20107226 0.94 1.1334944e-38
-0.060156867 0.2002482 0.94 1.1518986e-38
-0.0568606 0.20189632 0.94 1.1240621e-38
-0.054388396 0.20189632 0.94 1.1516814e-38
-0.050268065 0.20189634 0.94 1.1608998e-38
-0.046147734 0.20189632 0.94 1.1423542e-38
-0.041615363 0.20066023 0.94 1.2071794e-38
-0.037907064 0.20189632 0.94 1.1886322e-38
-0.033786733 0.20189634 0.94 1.1886691e-38
-0.029666398 0.20189632 0.94 1.1795221e-38
-0.026370132 0.20189632 0.94 1.2072165e-38
-0.022249799 0.2002482 0.94 1.2532785e-38
-0.013185065 0.2002482 0.94 1.271611e-38
-0.0098887999 0.2002482 0.94 1.2162944e-38
-0.0057684667 0.20024821 0.94 1.2531369e-38
-0.0016481332 0.2002482 0.94 1.3454002e-38
0.0024721997 0.2002482 0.94 1.2532064e-38
0.0057684667 0.20024821 0.94 1.2717547e-38
0.0090647331 0.2002482 0.94 1.2717882e-38
0.018129466 0.2002482 0.94 1.280939e-38
-0.089283243 0.13971174 0.94300002 2.3509795e-38
-0.085976452 0.13971174 0.94300002 2.350981e-38
-0.081512287 0.13905038 0.94300002 2.3509813e-38
-0.077709489 0.13888504 0.94300002 2.3509823e-38
-0.074678272 0.1391606 0.94300002 2.3509789e-38
-0.07026922 0.13971174 0.94300002 2.3509796e-38
-0.066135734 0.13971174 0.94300002 2.3509796e-38
-0.062002249 0.13971174 0.94300002 2.3509823e-38
-0.057593197 0.1391606 0.94300002 2.3509856e-38
-0.053735282 0.13888505 0.94300002 2.3509851e-38
-0.049601801 0.13888504 0.94300002 2.3509841e-38
-0.046019446 0.1391606 0.94300002 2.350982e-38
-0.042161532 0.13888505 0.94300002 2.3509821e-38
-0.038028046 0.13805833 0.94300002 2.3509839e-38
-0.034130763 0.13853073 0.94300002 2.3509842e-38
-0.02976108 0.13888504 0.94300002 2.3509832e-38
-0.02728099 0.13971174 0.94300002 2.350983e-38
-0.023147505 0.13971174 0.94300002 2.3509779e-38
-0.01240045 0.13971174 0.94300002 2.3509848e-38
-0.010747056 0.13971174 0.94300002 2.3509848e-38
0.019014023 0.13888504 0.94300002 2.0282572e-38
0.020667417 0.13888504 0.94300002 1.6125226e-38
-0.10581717 0.14301853 0.94300002 8.2906899e-39
-0.10168369 0.14301853 0.94300002 2.2119615e-38
-0.097274631 0.14246741 0.94300002 2.3509804e-38
-0.094243422 0.14219183 0.94300002 2.350982e-38
-0.090109944 0.14219183 0.94300002 2.3509811e-38
-0.085976452 0.14219183 0.94300002 2.3509834e-38
-0.081842974 0.14219183 0.94300002 2.3509828e-38
-0.077985056 0.14191626 0.94300002 2.3509831e-38
-0.074402705 0.14136513 0.94300002 2.350981e-38
-0.07026922 0.14136514 0.94300002 2.3509804e-38
-0.066135734 0.14136513 0.94300002 2.3509816e-38
-0.061588898 0.14177847 0.94300002 2.3509818e-38
-0.058695462 0.14136513 0.94300002 2.3509825e-38
-0.053735282 0.14136513 0.94300002 2.3509807e-38
-0.045468315 0.14136513 0.94300002 2.3509823e-38
-0.042161532 0.14136514 0.94300002 2.3509834e-38
-0.038028046 0.14136513 0.94300002 2.3509832e-38
-0.033894565 0.14136514 0.94300002 2.3509851e-38
-0.02976108 0.14136513 0.94300002 2.3509859e-38
-0.026454292 0.14136513 0.94300002 2.3509837e-38
-0.022320811 0.14191626 0.94300002 2.3509831e-38
-0.018187325 0.14301853 0.94300002 2.3509821e-38
-0.014467192 0.14177847 0.94300002 2.3509825e-38
-0.0096447943 0.14191626 0.94300002 2.3509837e-38
-0.0057868767 0.14219183 0.94300002 2.3509835e-38
-0.0016533933 0.14219183 0.94300002 2.350983e-38
0.0013778278 0.14191626 0.94300002 2.3509841e-38
0.0074402699 0.14136513 0.94300002 2.3509809e-38
0.01488054 0.14136513 0.94300002 2.350983e-38
0.019014023 0.14136513 0.94300002 2.1109084e-38
0.020667417 0.14136513 0.94300002 1.7693925e-38
-0.10664387 0.14467192 0.94300002 8.8503923e-39
-0.085149758 0.14467192 0.94300002 2.3509845e-38
-0.08266966 0.14467192 0.94300002 2.3509825e-38
-0.018187325 0.14467192 0.94300002 2.3509809e-38
-0.015707236 0.14467192 0.94300002 2.3509797e-38
-0.10168369 0.20254068 0.94300002 9.2151293e-39
-0.081016272 0.20254068 0.94300002 1.1241342e-38
-0.075229399 0.20254068 0.94300002 1.1333888e-38
-0.065309033 0.20254068 0.94300002 1.114948e-38
-0.062002249 0.20254068 0.94300002 1.1333872e-38
-0.058695462 0.20254068 0.94300002 1.1517206e-38
-0.042988226 0.20254068 0.94300002 1.1608298e-38
-0.022320811 0.20198956 0.94300002 1.2256562e-38
-0.018187325 0.20088728 0.94300002 1.1979261e-38
-0.015707236 0.20088728 0.94300002 1.2440222e-38
-0.0099203596 0.20254068 0.94300002 1.1794155e-38
-0.0057868771 0.20254068 0.94300002 1.2070384e-38
-0.0016533933 0.20254068 0.94300002 1.2808646e-38
0.0013778278 0.20198956 0.94300002 1.2255119e-38
0.0057868767 0.20254068 0.94300002 1.2347317e-38
0.010747056 0.20088728 0.94300002 1.2625331e-38
0.014053843 0.20088729 0.94300002 1.2717172e-38
0.020667417 0.20088728 0.94300002 1.1889584e-38
-0.1000303 0.20419407 0.94300002 1.2712528e-38
-0.097550198 0.20584747 0.94300002 1.179272e-38
-0.094243415 0.20584747 0.94300002 1.1609402e-38
-0.089696586 0.20626083 0.94300002 1.0594164e-38
-0.085976452 0.20667416 0.94300002 9.6722062e-39
-0.082394101 0.20529634 0.94300002 1.096367e-38
-0.077709489 0.20419407 0.94300002 1.1609755e-38
-0.074402705 0.20419407 0.94300002 1.2071083e-38
-0.07026922 0.20419407 0.94300002 1.1610841e-38
-0.066962428 0.20419407 0.94300002 1.1701597e-38
-0.05704207 0.20419407 0.94300002 1.1517541e-38
-0.053735282 0.20419407 0.94300002 1.1701212e-38
-0.049601801 0.20419407 0.94300002 1.1517161e-38
-0.04629501 0.20419407 0.94300002 1.1332074e-38
-0.042161532 0.20419407 0.94300002 1.1884885e-38
-0.037752479 0.20474522 0.94300002 1.2162923e-38
-0.034307912 0.20460743 0.94300002 1.19771e-38
-0.02976108 0.20419407 0.94300002 1.1701242e-38
-0.02728099 0.20419407 0.94300002 1.1424655e-38
-0.097236358 0.12715524 0.94800001 2.2669233e-38
-0.094543234 0.12688696 0.94599998 2.3128018e-38
-0.10111474 0.12992552 0.94800007 2.147939e-38
-0.097860545 0.12937495 0.94599998 2.3509824e-38
-0.093713909 0.13020429 0.94599998 2.3509446e-38
-0.089567274 0.13020429 0.94600004 2.3509821e-38
-0.086340263 0.12951171 0.94700003 2.3509853e-38
-0.082440853 0.13020208 0.94749999 2.3509834e-38
-0.052358039 0.13047956 0.94800001 2.3509827e-38
-0.049864799 0.12964848 0.94800001 2.3509842e-38
-0.044047236 0.13047956 0.94800001 2.3509852e-38
-0.041553997 0.13047956 0.94800001 2.350987e-38
-0.038149022 0.13103361 0.94599998 2.350986e-38
-0.034905359 0.12964848 0.94800001 2.3509856e-38
-0.029918879 0.13047956 0.94800001 2.3509848e-38
-0.02576348 0.13047956 0.94800007 2.3509853e-38
-0.021608081 0.13047956 0.94800001 2.3509867e-38
-0.01745268 0.13047956 0.94800001 2.3509867e-38
-0.013773485 0.12959588 0.94640011 2.3509856e-38
-0.0099633168 0.13034105 0.94700003 2.3509844e-38
-0.0069151465 0.13084893 0.94666666 2.3509846e-38
0.0074797203 0.12964848 0.94800001 2.3509828e-38
0.0091418801 0.12964848 0.94800001 2.3509824e-38
0.01579052 0.13047956 0.94800001 2.350983e-38
0.01745268 0.13047956 0.94800001 2.3509838e-38
-0.10554716 0.13463496 0.94800001 2.3509886e-38
-0.1021753 0.13374037 0.94755554 2.3509523e-38
-0.098033249 0.13375625 0.94766665 2.3509771e-38
-0.093747519 0.13439795 0.94633335 2.3509816e-38
-0.089567274 0.13435091 0.94599998 2.3509799e-38
-0.086341441 0.13366155 0.94699997 2.3509795e-38
-0.081890687 0.13403532 0.94628578 2.3509816e-38
-0.078221813 0.13402198 0.9472 2.3509804e-38
-0.073939525 0.13458732 0.94766665 2.3509832e-38
-0.069810718 0.13463496 0.94800001 2.3509806e-38
-0.066486396 0.13463496 0.94800001 2.3509806e-38
-0.062090792 0.13394019 0.94750005 2.3509814e-38
-0.058134686 0.1337086 0.94733334 2.3509807e-38
-0.053957272 0.13364586 0.94688892 2.3509796e-38
-0.049811907 0.13366155 0.94700003 2.3509802e-38
-0.045892622 0.13352466 0.94749999 2.3509814e-38
-0.041846804 0.13383819 0.94657153 2.3509842e-38
-0.038149022 0.13435091 0.94599998 2.3509852e-38
-0.03403395 0.13364586 0.9468888 2.3509859e-38
-0.029897839 0.13370861 0.94733334 2.3509862e-38
-0.025757052 0.1337721 0.94777775 2.3509855e-38
-0.021608081 0.13380387 0.94800007 2.3509855e-38
-0.017868221 0.13421941 0.94800001 2.3509867e-38
-0.014128361 0.13380387 0.94800007 2.350986e-38
-0.010135318 0.13407984 0.94760001 2.3509865e-38
-0.0058153062 0.13423845 0.94771433 2.3509844e-38
-0.0016621599 0.13463496 0.94800001 2.3509814e-38
0.0016621599 0.13546604 0.94800001 2.3509848e-38
0.0063716136 0.13435793 0.94800007 2.3509848e-38
0.0095574204 0.13421941 0.94800001 2.3509842e-38
0.014682414 0.13435793 0.94800007 2.3509821e-38
0.018283762 0.13380387 0.94800007 2.0649927e-38
-0.10610121 0.13823631 0.94800007 2.3509846e-38
-0.1020437 0.13771644 0.94633335 2.2955976e-38
-0.097860545 0.13766822 0.94599998 2.35098e-38
-0.093713909 0.13766822 0.94600004 2.3509803e-38
-0.089567274 0.13766822 0.94599998 2.350982e-38
-0.086249962 0.13766822 0.94599998 2.3509814e-38
-0.082517996 0.13725357 0.94599998 2.3509824e-38
-0.077956699 0.1368389 0.94599998 2.3509837e-38
-0.073478341 0.13750236 0.94600004 2.3509821e-38
-0.069663435 0.13766822 0.94599998 2.3509806e-38
-0.066346131 0.13766822 0.94599998 2.3509806e-38
-0.062199499 0.13766822 0.94600004 2.3509827e-38
-0.05832931 0.13739179 0.94599998 2.3509849e-38
-0.053906232 0.1368389 0.94599998 2.3509828e-38
-0.049759597 0.1368389 0.94599998 2.3509793e-38
-0.046718732 0.13739179 0.94599998 2.3509418e-38
-0.042295661 0.1368389 0.94599998 2.3509807e-38
-0.033173062 0.1368389 0.94599998 2.3509852e-38
-0.029855758 0.1368389 0.94599998 2.3509852e-38
-0.025709128 0.13766822 0.94600004 2.3509835e-38
-0.02157345 0.13774055 0.94649994 2.3509806e-38
-0.018264472 0.13781287 0.94700003 2.350983e-38
-0.014109073 0.13776466 0.94666666 2.3509853e-38
-0.0099519193 0.13766822 0.94599998 2.3509862e-38
-0.0058052866 0.13766822 0.94600004 2.3509846e-38
-0.0016590916 0.13774054 0.94650006 2.3509823e-38
0.0016604067 0.13781287 0.94699997 2.3509855e-38
0.0058114231 0.13781287 0.94699997 2.350987e-38
0.0099729598 0.13795927 0.94800001 2.350986e-38
0.014113456 0.13781287 0.94700003 2.3509835e-38
0.017968744 0.13739179 0.94599998 2.14804e-38
0.020733165 0.1368389 0.94599998 1.4278391e-38
-0.10887147 0.1412836 0.94800001 1.4922262e-38
-0.10621035 0.14105959 0.94650006 1.8154208e-38
-0.10200717 0.14098552 0.94600004 2.1937064e-38
-0.098136984 0.14070909 0.94599998 2.3509771e-38
-0.093713909 0.14015619 0.94599998 2.3509755e-38
-0.025709126 0.14015619 0.94599998 2.3509797e-38
-0.020733165 0.14098552 0.94599998 2.3509807e-38
-0.018245187 0.14098552 0.94599998 2.3509811e-38
-0.014927879 0.14015619 0.94599998 2.3509832e-38
-0.0091225933 0.14015619 0.94599998 2.3509851e-38
-0.0058052866 0.14015619 0.94599998 2.3509831e-38
-0.0016586533 0.14015619 0.94599998 2.3509831e-38
0.0016586533 0.14015619 0.94599998 2.3509853e-38
0.0058052866 0.14015619 0.94599998 2.3509849e-38
0.0099519193 0.14098552 0.94599998 2.3509832e-38
0.013683889 0.14057085 0.94599998 2.3509837e-38
0.017415859 0.14098552 0.94599998 2.3509802e-38
-0.10366583 0.20235568 0.94599998 9.3056321e-39
-0.020733165 0.20318502 0.94599998 1.1796667e-38
-0.018245187 0.20318502 0.94599998 1.1609755e-38
-0.014098553 0.20318502 0.94599998 1.1794145e-38
0.0099519193 0.20318502 0.94599998 1.2256188e-38
0.014098553 0.20318502 0.94599998 1.234983e-38
0.018245187 0.20318502 0.94599998 1.1796317e-38
0.021885108 0.20306055 0.94800007 1.0875081e-38
0.024101319 0.20278351 0.94800001 1.1060588e-38
-0.10246971 0.20610011 0.9472 6.4471696e-39
-0.080444686 0.20650233 0.94599998 1.1701247e-38
-0.077956699 0.20650233 0.94599998 1.1516487e-38
-0.073810071 0.20650235 0.94599998 1.1885631e-38
-0.069663435 0.20650233 0.94599998 1.1793799e-38
-0.066069692 0.20594946 0.94599998 1.1793436e-38
-0.062220827 0.20574579 0.94633335 1.1885983e-38
-0.05832931 0.20594946 0.94599998 1.1701592e-38
-0.053906228 0.20650235 0.94599998 1.1977466e-38
-0.049759597 0.20650233 0.94599998 1.1886709e-38
-0.046442293 0.20650233 0.94599998 1.1517571e-38
-0.042295661 0.20650235 0.94599998 1.1793078e-38
-0.038978349 0.20650233 0.94599998 1.2346967e-38
-0.033173062 0.20650233 0.94599998 1.206823e-38
-0.029855758 0.20650233 0.94599998 1.2069314e-38
-0.025387568 0.20592621 0.94640011 1.1978905e-38
-0.021596245 0.20599957 0.94749999 1.1887065e-38
-0.018560788 0.20583081 0.94800007 1.1793437e-38
-0.01412836 0.20610784 0.94800007 1.2069657e-38
-0.0099729598 0.20527676 0.94800001 1.2070373e-38
-0.0053998288 0.20558403 0.94749999 1.2162577e-38
-0.0016604066 0.2058913 0.94700003 1.2162578e-38
0.0016604066 0.2058913 0.94700003 1.2531357e-38
0.005811424 0.2058913 0.94700003 1.2532436e-38
0.0099729598 0.20610784 0.94800001 1.262463e-38
0.01412836 0.20610784 0.94800007 1.2348406e-38
0.01828376 0.20610784 0.94800001 1.1794516e-38
-0.041998997 0.20900188 0.94679993 5.8046841e-39
-0.034363579 0.20900188 0.94680005 5.8961539e-39
0.0066486401 0.20860107 0.94800001 5.8032646e-39
0.01579052 0.20860107 0.94800001 5.9833385e-39
0.01745268 0.20860107 0.94800001 5.435875e-39
-0.084204704 0.12755762 0.95099998 2.3317471e-38
-0.082537279 0.12755762 0.95099998 2.3501516e-38
-0.10421374 0.13089246 0.95099998 1.0880526e-38
-0.078646645 0.13033666 0.95099998 2.3509865e-38
-0.074200191 0.13089246 0.95099998 2.3509863e-38
-0.070031635 0.13089246 0.95099998 2.3509856e-38
-0.065863088 0.13089246 0.95099998 2.3509877e-38
-0.061416633 0.13033666 0.95099998 2.3509883e-38
-0.058359694 0.13005875 0.95099998 2.3509879e-38
-0.05452463 0.12989202 0.95100003 2.3509869e-38
-0.046965659 0.13033666 0.95099998 2.3509846e-38
-0.032514688 0.13005875 0.95099998 2.3509834e-38
-0.019175328 0.13089246 0.95099998 2.3509867e-38
-0.0047243568 0.12978086 0.95099998 2.3509846e-38
-0.0016674199 0.13005875 0.95099998 2.3509844e-38
0.0016674199 0.13005875 0.95099998 2.3509845e-38
