# .PCD v0.7 - Point Cloud Data file format
VERSION 0.7
FIELDS x y z rgb
SIZE 4 4 4 4
TYPE F F F F
COUNT 1 1 1 1
WIDTH 993
HEIGHT 1
VIEWPOINT 0 0 0 1 0 0 0
POINTS 993
DATA ascii
-0.10600039 0.20148166 0.92299998 1.1031204e-39
-0.10276374 0.20633663 0.92299998 1.8367099e-40
-0.069965005 0.14725195 0.92799997 2.3509722e-38
-0.067524366 0.14725195 0.92799997 2.3509719e-38
-0.077829294 0.14996377 0.92799997 2.020345e-38
-0.074032739 0.14969258 0.92799997 2.1213641e-38
-0.069965005 0.14969257 0.92799997 2.2499353e-38
-0.067524366 0.14969257 0.92799997 2.2591241e-38
-0.10901524 0.1553874 0.92799997 2.2310408e-38
-0.081354663 0.15457386 0.92799997 1.9927947e-38
-0.078100473 0.15376031 0.92799997 1.9376931e-38
-0.074032739 0.15376031 0.92799991 1.9285095e-38
-0.069965005 0.15376031 0.92799997 1.9836108e-38
-0.066129722 0.1542252 0.92800003 1.9836108e-38
-0.061829545 0.15457386 0.92799997 1.9560602e-38
-0.11633717 0.15864159 0.92799997 1.1966115e-38
-0.11352833 0.15812874 0.92500007 1.1412589e-38
-0.11008929 0.1581146 0.9262858 1.4365669e-38
-0.10640147 0.1586546 0.92649996 1.7042511e-38
-0.10234118 0.15919608 0.92649996 2.3323139e-38
-0.088676587 0.15782803 0.92799997 2.3050473e-38
-0.08623594 0.15782803 0.92799997 2.1764734e-38
-0.082168207 0.15782803 0.92799997 2.038718e-38
-0.078100473 0.15782803 0.92799997 1.9009589e-38
-0.074032739 0.15782803 0.92799997 1.8091234e-38
-0.069965005 0.15782803 0.92799997 1.818307e-38
-0.065897278 0.15782803 0.92799997 1.8458576e-38
-0.061829545 0.15782803 0.92799997 1.8274905e-38
-0.057761811 0.15864161 0.92799997 1.7448386e-38
-0.12508498 0.16325855 0.92649996 1.1050209e-38
-0.12204017 0.16208749 0.926 1.0303005e-38
-0.11804389 0.16109085 0.92650002 1.2052223e-38
-0.11466362 0.16202115 0.92500001 1.5006039e-38
-0.11028466 0.16137241 0.92500001 1.2424944e-38
-0.10631622 0.16109648 0.92574996 1.1308886e-38
-0.10006623 0.16026868 0.92799997 2.3509716e-38
-0.097625591 0.16026868 0.92799997 2.3509663e-38
-0.094086669 0.16135995 0.92679995 2.3325937e-38
-0.090238795 0.1617783 0.9273333 2.2958574e-38
-0.086189032 0.16180766 0.92750001 2.2591231e-38
-0.082168207 0.16189577 0.92799991 2.1121857e-38
-0.078100473 0.16189578 0.92799997 1.8734082e-38
-0.074032739 0.16189577 0.92799991 1.7448386e-38
-0.069965005 0.16189578 0.92799997 1.6437119e-38
-0.065849349 0.1617783 0.92733341 1.6620431e-38
-0.061829545 0.16189578 0.92799997 1.6896296e-38
-0.058226693 0.16166334 0.92800003 1.7079609e-38
-0.13055758 0.16785975 0.92500001 1.0507431e-38
-0.12534592 0.16615877 0.92585725 4.41072e-39
-0.12244841 0.16461608 0.92500001 8.0816876e-39
-0.093255416 0.16461608 0.92500001 2.3509528e-38
-0.089687385 0.16526483 0.92500001 2.1764654e-38
-0.085794978 0.16591354 0.92500001 2.0295286e-38
-0.081961021 0.16635655 0.92566669 2.0019779e-38
-0.078100473 0.1659635 0.92799997 1.818307e-38
-0.074032739 0.1659635 0.92799997 1.625273e-38
-0.069965005 0.1659635 0.92799997 1.5699206e-38
-0.06593892 0.16616933 0.92575008 1.5513742e-38
-0.061829545 0.1659635 0.92799997 1.5605218e-38
-0.058575355 0.1659635 0.92799997 1.5053488e-38
-0.12974666 0.1702925 0.92500001 9.3085244e-39
-0.1257609 0.17038499 0.92550009 3.7710749e-39
-0.085146248 0.16948158 0.92500001 1.9376931e-38
-0.081945978 0.17038499 0.92550004 1.7723892e-38
-0.078100473 0.17003125 0.92799997 1.6528596e-38
-0.074032739 0.17003123 0.92799991 1.5331506e-38
-0.069965005 0.17003123 0.92799997 1.4868382e-38
-0.065897278 0.17030244 0.92799997 1.4681841e-38
-0.062100723 0.16894653 0.92799997 1.4682559e-38
-0.058575355 0.16840415 0.92799997 1.4498888e-38
-0.13016745 0.17328544 0.92799997 1.0691818e-38
-0.12553182 0.17359911 0.92619991 4.8759834e-39
-0.081513599 0.17427619 0.92585719 1.6434609e-38
-0.078100473 0.17409897 0.92799997 1.5604501e-38
-0.074358158 0.17393626 0.92799997 1.4497811e-38
-0.069965005 0.17409897 0.92799997 1.3667346e-38
-0.066710822 0.17328544 0.92799997 1.3576587e-38
-0.041490879 0.17409897 0.92799997 2.5209359e-42
-0.039863784 0.17409897 0.92799997 6.5076441e-40
-0.12447263 0.17816672 0.92799997 5.2498063e-39
-0.1219078 0.17867199 0.92500007 6.3522022e-39
-0.080280751 0.17840166 0.92500001 1.4314499e-38
-0.078015439 0.17797385 0.92699999 1.3761334e-38
-0.07484629 0.17816672 0.92799997 1.1917808e-38
-0.12447263 0.18223444 0.92799997 4.2421032e-39
-0.12183605 0.18193989 0.92649996 3.9576578e-39
-0.080280751 0.18164533 0.92500001 1.3665562e-38
-0.077972919 0.18193987 0.92649996 1.1914595e-38
-0.075659834 0.18142089 0.92799997 9.8881001e-39
-0.1258959 0.1851875 0.92650002 9.9531918e-39
-0.1219078 0.1846187 0.92500007 9.1159538e-39
-0.077972919 0.18600105 0.92650002 6.0955937e-39
-0.074846283 0.18792927 0.92799997 0
-0.077577695 0.18948418 0.92500007 1.0761972e-42
-0.074604332 0.18975449 0.92500001 7.1746481e-43
-0.075415246 0.19218725 0.92500001 2.5111268e-42
-0.11271741 0.20191824 0.92500001 1.7484898e-39
-0.11028466 0.20191824 0.92500001 1.1034791e-39
-0.10731131 0.20299947 0.92500007 9.2016264e-40
-0.11308298 0.20420019 0.92799997 1.3825841e-39
-0.10982879 0.20474258 0.92799997 7.3721892e-40
-0.10559143 0.20630552 0.92649996 4.5954742e-40
-0.077453494 0.1475693 0.93000001 2.204016e-38
-0.0741923 0.146754 0.93000001 2.332594e-38
-0.069844037 0.14539516 0.93000001 2.3509827e-38
-0.06669154 0.14561258 0.93000001 2.3509772e-38
-0.080714695 0.15083049 0.93000001 2.0387121e-38
-0.079084098 0.1491999 0.93000001 2.020345e-38
-0.065223999 0.15001521 0.93000001 2.2591257e-38
-0.061962798 0.15083049 0.93000001 2.1213675e-38
-0.1068043 0.15572229 0.93000001 2.3509583e-38
-0.088867702 0.15572229 0.93000001 2.2683162e-38
-0.086150035 0.15517876 0.93000001 2.1397362e-38
-0.082997538 0.15343946 0.93000001 2.0019784e-38
-0.065223999 0.1524611 0.93000001 2.0754463e-38
-0.061962798 0.1524611 0.93000001 2.0478957e-38
-0.058090121 0.15429552 0.92999995 1.9101424e-38
-0.053809799 0.15490699 0.93000001 1.919326e-38
-0.1051737 0.15735289 0.93000001 2.3509771e-38
-0.1019125 0.1581682 0.93000001 2.3509657e-38
-0.097835995 0.1589835 0.93000001 2.3509625e-38
-0.093351848 0.15857585 0.93000001 2.3509654e-38
-0.090498298 0.1581682 0.93000001 2.3325985e-38
-0.057886299 0.15735289 0.93000001 1.818307e-38
-0.053809799 0.1581682 0.93000001 1.6895938e-38
-0.056255694 0.16305999 0.93000001 1.6434608e-38
-0.054625101 0.16224471 0.93000001 1.6066548e-38
-0.056255694 0.16632119 0.93000001 1.4869817e-38
-0.054625098 0.16632119 0.93000001 1.5144965e-38
-0.061147496 0.17039768 0.93000001 1.449817e-38
-0.057478644 0.16999003 0.93000001 1.431414e-38
-0.054625098 0.16876709 0.93000001 1.3763128e-38
-0.12881739 0.1752895 0.93000001 8.2017789e-39
-0.072561704 0.1752895 0.93000001 1.3391839e-38
-0.065387063 0.17431115 0.93000001 1.2930151e-38
-0.061962806 0.17365889 0.93000001 1.3022345e-38
-0.058701601 0.17365889 0.93000001 1.2561015e-38
-0.041580297 0.17202829 0.93000001 8.2508454e-42
-0.039949697 0.17202829 0.93000001 3.9460565e-42
-0.12854563 0.17800717 0.93000001 7.6518785e-39
-0.12637149 0.17773539 0.93000001 4.3242585e-39
-0.072561704 0.17773539 0.93000001 1.1826331e-38
-0.070387572 0.17746362 0.93000001 1.1548672e-38
-0.066039301 0.1769201 0.93000001 1.2283715e-38
-0.061962798 0.17692009 0.93000001 1.1914938e-38
-0.12840974 0.18140423 0.93000001 1.0697215e-38
-0.12637149 0.1818119 0.93000001 9.0362802e-39
-0.073866181 0.18213801 0.93000001 9.3349767e-39
-0.070931099 0.1809966 0.93000001 9.3353018e-39
-0.075007595 0.18588839 0.93000001 1.4955568e-39
-0.072561704 0.18914959 0.93000001 0
-0.1108808 0.2062709 0.93000001 8.2941735e-40
-0.1068043 0.20790149 0.93000001 1.8404094e-40
-0.08524707 0.13852647 0.935 2.3234041e-38
-0.08196833 0.13852647 0.935 2.3142219e-38
-0.07761243 0.13801524 0.93471438 2.341775e-38
-0.07414145 0.13845152 0.93450004 2.3509681e-38
-0.069673084 0.13852647 0.93500006 2.3509654e-38
-0.065301433 0.13798001 0.93500006 2.3509656e-38
-0.062295932 0.13770679 0.935 2.3509646e-38
-0.059836879 0.13770679 0.935 2.350964e-38
-0.084837228 0.14139538 0.935 2.2499377e-38
-0.081968337 0.1418052 0.93500006 2.2407533e-38
-0.077991985 0.14185716 0.93400002 2.2774847e-38
-0.073512539 0.1419497 0.93380004 2.3509666e-38
-0.069840305 0.14152358 0.93449998 2.3417843e-38
-0.065865092 0.14190792 0.93414289 2.3234151e-38
-0.062251508 0.14170295 0.93433332 2.2958597e-38
-0.058402434 0.14201014 0.935 2.2499384e-38
-0.054918781 0.14344458 0.935 2.1397312e-38
-0.089345478 0.14590362 0.935 2.0478957e-38
-0.086066753 0.14590363 0.93500006 2.2315693e-38
-0.08196833 0.14590363 0.935 2.2040198e-38
-0.078030519 0.14542794 0.93300003 2.2407502e-38
-0.073613703 0.1447736 0.93300003 2.3509687e-38
-0.071159914 0.1447736 0.93300003 2.3509792e-38
-0.064616472 0.14559153 0.93300003 2.3326034e-38
-0.062162675 0.14559153 0.93300003 2.2407609e-38
-0.058134109 0.1457473 0.93400002 2.1672853e-38
-0.054372326 0.14617686 0.93500006 1.9101424e-38
-0.090001233 0.15032992 0.93500006 2.0846316e-38
-0.085985318 0.14985827 0.93411118 2.0754466e-38
-0.081992 0.14941749 0.93340009 2.075447e-38
-0.079339206 0.14804533 0.93300003 2.1397317e-38
-0.064616472 0.14804533 0.93300003 2.3509687e-38
-0.062162675 0.14886326 0.93300003 2.2315731e-38
-0.058086473 0.14971645 0.93322223 2.020345e-38
-0.05404095 0.14984044 0.93400002 1.9468766e-38
-0.050820362 0.15000205 0.93500006 1.919326e-38
-0.10573915 0.15492015 0.93500006 2.3509638e-38
-0.10246041 0.15492015 0.935 2.3509584e-38
-0.093394369 0.15401763 0.93449998 2.3050487e-38
-0.090020955 0.15385281 0.93349999 2.2315751e-38
-0.08697322 0.1534982 0.93300003 2.1121849e-38
-0.056437168 0.15295291 0.93300003 1.919326e-38
-0.053983375 0.15295291 0.93300003 2.0295286e-38
-0.049982272 0.15404525 0.93466663 1.8734082e-38
-0.04672195 0.15410046 0.935 1.6804461e-38
-0.10551297 0.15622462 0.93300003 2.3509582e-38
-0.10200105 0.15701292 0.93380004 2.3509626e-38
-0.098494969 0.15742683 0.93366671 2.3509659e-38
-0.094470471 0.15701292 0.93380004 2.3509688e-38
-0.090790227 0.15622462 0.93300003 2.3142346e-38
-0.049963858 0.15808608 0.93433338 1.7170368e-38
-0.04672195 0.1573792 0.935 1.6340261e-38
-0.053165447 0.16195014 0.93300003 1.5789607e-38
-0.049963862 0.16218159 0.93433332 1.5328636e-38
-0.04672195 0.16229729 0.935 1.4499246e-38
-0.053165447 0.16603979 0.93300003 1.4776547e-38
-0.050000679 0.16557604 0.93500006 1.4957706e-38
-0.053748727 0.17052424 0.93366671 1.3026291e-38
-0.050205596 0.16946951 0.935 1.4035047e-38
-0.042623531 0.17131381 0.935 9.1441101e-39
-0.056437168 0.17340115 0.93300003 1.3114181e-38
-0.054099098 0.17377286 0.935 1.2468104e-38
-0.043443214 0.17377286 0.935 1.7646047e-39
-0.13005087 0.1774908 0.93300003 1.1708129e-38
-0.06952405 0.17912666 0.93300003 1.0166476e-38
-0.066252336 0.17912666 0.93300003 1.0165041e-38
-0.062162675 0.17912666 0.93300003 1.025616e-38
-0.057945032 0.17828532 0.93471432 1.108519e-38
-0.054918781 0.17623191 0.935 1.1453608e-38
-0.042896759 0.17732482 0.93500006 5.5783029e-40
-0.06952405 0.18158045 0.93300003 8.9665207e-39
-0.066275418 0.18164563 0.9333334 9.0579947e-39
-0.062480323 0.18143815 0.93366671 9.7944751e-39
-0.072795771 0.18567011 0.93300003 2.880645e-39
-0.069840312 0.18617439 0.93449998 2.6915819e-39
-0.065884881 0.1857212 0.93442857 3.7964931e-39
-0.063115619 0.18524842 0.935 4.3528899e-39
-0.068033718 0.18934684 0.935 0
-0.065574661 0.18934684 0.935 1.0761972e-42
-0.11393598 0.20737988 0.935 1.7510079e-39
-0.10491946 0.21065861 0.935 5.5209198e-40
-0.068397529 0.1310266 0.94 2.3509716e-38
-0.06592533 0.1310266 0.94 2.3509717e-38
-0.06345313 0.1310266 0.94 2.3509719e-38
-0.085368037 0.13532519 0.93933338 2.350961e-38
-0.082318991 0.13500229 0.93900001 2.3509654e-38
-0.078230813 0.13422643 0.93933338 2.3509673e-38
-0.074113399 0.13422644 0.93933338 2.3509701e-38
-0.069963254 0.13416292 0.93888897 2.3509708e-38
-0.065831825 0.13413116 0.93866676 2.3509716e-38
-0.061717331 0.13413116 0.93866664 2.3509689e-38
-0.057663918 0.13427465 0.93966669 2.3417844e-38
-0.055212464 0.13597099 0.94 2.2958601e-38
-0.089632154 0.13897096 0.93800002 2.102997e-38
-0.086342901 0.13787454 0.93800008 2.3325906e-38
-0.082231328 0.13732633 0.93800002 2.3509586e-38
-0.073185883 0.13732633 0.93800002 2.3509719e-38
-0.069896631 0.13732633 0.93800008 2.3509677e-38
-0.066607378 0.13732633 0.93800002 2.3509667e-38
-0.05756193 0.13814864 0.93800002 2.3325979e-38
-0.054301169 0.13822185 0.93849999 2.2958618e-38
-0.050597694 0.13860802 0.94 2.2591273e-38
-0.089632154 0.14226022 0.93800008 2.0019779e-38
-0.087329678 0.14258914 0.93800002 2.2223831e-38
-0.056739617 0.14061558 0.93800002 2.3050418e-38
-0.054108214 0.14193128 0.93800002 2.240755e-38
-0.050419729 0.14220497 0.93900001 2.1489185e-38
-0.046971798 0.14256352 0.94 2.0478957e-38
-0.096415795 0.14750792 0.94 1.9652437e-38
-0.09379413 0.14644936 0.93849999 1.9836108e-38
-0.091341659 0.14565174 0.9386667 2.0019779e-38
-0.053450365 0.14554946 0.93800002 1.9927944e-38
-0.049940947 0.14606319 0.93828589 1.9376931e-38
-0.046272572 0.14606458 0.93920004 1.8734082e-38
-0.043675531 0.14668386 0.94 1.818307e-38
-0.097239867 0.14998013 0.94 2.1580983e-38
-0.093743727 0.14966102 0.93800002 2.1030013e-38
-0.09127678 0.14883871 0.93800002 1.9468766e-38
-0.048516486 0.14966103 0.93800002 1.818307e-38
-0.046097763 0.14982058 0.93900001 1.8091234e-38
-0.043675531 0.14998013 0.94 1.7540221e-38
-0.10654306 0.15331006 0.93920004 1.9462347e-38
-0.10183769 0.15453938 0.93933338 2.3417801e-38
-0.097925611 0.1538811 0.93866676 2.3234135e-38
-0.093743719 0.15212797 0.93800002 2.204026e-38
-0.048516486 0.15212797 0.93800002 1.7632057e-38
-0.045662496 0.15344252 0.93849999 1.6896296e-38
-0.043675534 0.15410046 0.94 1.6344207e-38
-0.097855285 0.15706185 0.93800002 2.3509664e-38
-0.045227233 0.15788415 0.93800002 1.5236083e-38
-0.043675531 0.1582208 0.94 1.5328277e-38
-0.04563839 0.16158457 0.93800002 1.4683276e-38
-0.042979106 0.1625319 0.93920004 1.3576228e-38
-0.046049543 0.1661073 0.93800002 1.4588571e-38
-0.042782649 0.16619539 0.93850005 1.2375909e-38
-0.048516486 0.17186348 0.93800002 1.3663759e-38
-0.046049546 0.17021887 0.93800008 1.3386826e-38
-0.042760294 0.16939655 0.93800002 1.1357468e-38
-0.050178356 0.17439267 0.93833339 1.2005342e-38
-0.046123624 0.17460875 0.93949997 1.0157514e-38
-0.040379267 0.17222993 0.94 1.7663984e-39
-0.038731132 0.17305399 0.94 5.0222537e-42
-0.053998575 0.17789379 0.93800008 1.0991939e-38
-0.050213419 0.17780934 0.93900007 1.0435206e-38
-0.046099514 0.17780903 0.93900001 1.4883808e-39
-0.06057708 0.18282768 0.93800008 9.6990523e-39
-0.05756193 0.18255356 0.93800002 7.1187391e-39
-0.054330833 0.18192558 0.93900007 6.0062861e-39
-0.050460275 0.18206985 0.93975002 8.4051563e-40
-0.060851183 0.18584281 0.93800002 4.2560475e-39
-0.057622422 0.18604094 0.93900001 5.6752868e-40
-0.054359905 0.18614042 0.93950003 3.9460565e-42
-0.051805738 0.18502049 0.93800002 0
-0.070795208 0.19015688 0.93900001 0
-0.061760001 0.18857741 0.93933338 1.4349296e-42
-0.057684664 0.18871126 0.94 1.8654085e-40
-0.10936768 0.2096899 0.93800002 6.4396251e-40
-0.080189571 0.13144477 0.94300002 2.3509674e-38
-0.077709489 0.13144477 0.94300002 2.3509685e-38
-0.074402705 0.13144477 0.94300002 2.3509682e-38
-0.07026922 0.13089365 0.94300002 2.3509684e-38
-0.066135734 0.12979138 0.94300002 2.3509719e-38
-0.062002245 0.13061807 0.94300002 2.350972e-38
-0.057868764 0.13144477 0.94300002 2.350968e-38
-0.085976452 0.13392484 0.94300002 2.3509597e-38
-0.08266966 0.13309816 0.94300002 2.3509671e-38
-0.05456198 0.13392484 0.94300002 2.3417761e-38
-0.090109937 0.13888504 0.94300002 2.1764693e-38
-0.052908584 0.13640495 0.94300002 2.295862e-38
-0.049601801 0.13723165 0.94300002 2.26831e-38
-0.04629501 0.13888504 0.94300002 2.2407518e-38
-0.04381492 0.13971174 0.94300002 2.1764654e-38
-0.093416721 0.14301853 0.94300002 1.9101424e-38
-0.091763332 0.14219183 0.94300002 1.9468766e-38
-0.046019446 0.14191626 0.94300002 2.0570792e-38
-0.042492211 0.14235717 0.94300002 1.9836108e-38
-0.038854741 0.14301853 0.94300002 1.9744273e-38
-0.097550198 0.14715201 0.94300002 1.9652437e-38
-0.094243415 0.14467192 0.94300002 1.9652437e-38
-0.045468315 0.14467192 0.94300002 1.8917753e-38
-0.041689135 0.14608912 0.94300002 1.7907563e-38
-0.038854741 0.14632532 0.94300002 1.7540221e-38
-0.10499047 0.15128548 0.94300002 1.9193333e-38
-0.10127035 0.15087213 0.94300002 2.1856515e-38
-0.041334834 0.15045878 0.94300002 1.6712984e-38
-0.038854741 0.15045878 0.94300002 1.6160895e-38
-0.10499047 0.15293887 0.94300002 2.1948417e-38
-0.10251039 0.15293887 0.94300002 2.2591266e-38
-0.041334834 0.15376557 0.94300002 1.5791759e-38
-0.038854741 0.15293887 0.94300002 1.5238235e-38
-0.041334834 0.15789907 0.94300002 1.4959141e-38
-0.041059271 0.16175699 0.94300002 1.3851734e-38
-0.040508136 0.16533932 0.94300002 1.2283715e-38
-0.040508136 0.1702995 0.94300002 7.8540873e-39
-0.048775103 0.18269995 0.94300002 0
-0.047121707 0.18187326 0.94300002 4.3047889e-42
-0.049864799 0.12383091 0.94800001 2.350972e-38
-0.045709401 0.12383091 0.94800007 2.2217765e-38
-0.072303958 0.12715524 0.94800001 2.3509694e-38
-0.069533691 0.12660119 0.94800007 2.3509708e-38
-0.066486396 0.12632415 0.94800001 2.3509724e-38
-0.062330998 0.12632415 0.94800007 2.3509751e-38
-0.058175597 0.12632415 0.94800001 2.3509781e-38
-0.054020204 0.12632415 0.94800007 2.3509755e-38
-0.049864799 0.12632415 0.94800001 2.3509694e-38
-0.045709398 0.12632416 0.94800007 2.3417798e-38
-0.042385079 0.12632415 0.94800001 2.3325912e-38
-0.086371541 0.13038664 0.94733334 2.3142224e-38
-0.082190134 0.13061778 0.94700003 2.350966e-38
-0.07799834 0.1294429 0.94650006 2.3509699e-38
-0.073861502 0.12946555 0.94666666 2.3509687e-38
-0.069989562 0.1291891 0.94666672 2.3509696e-38
-0.066346131 0.12854561 0.94599998 2.350972e-38
-0.061784834 0.12896028 0.94599998 2.3509738e-38
-0.058052868 0.12937495 0.94599998 2.3509743e-38
-0.053944219 0.13029487 0.9466666 2.350967e-38
-0.049794666 0.13029487 0.94666666 2.3417795e-38
-0.045868073 0.13013327 0.94699997 2.3325948e-38
-0.042348605 0.13070048 0.9472 2.3050429e-38
-0.039060757 0.13047956 0.94800001 2.3509636e-38
-0.092665412 0.13421941 0.94800001 2.0938134e-38
-0.089694105 0.13370919 0.94733334 2.2407502e-38
-0.087079294 0.13352159 0.94599998 2.3509528e-38
-0.052247576 0.13435091 0.94599998 2.3417801e-38
-0.049759597 0.13435091 0.94599998 2.323412e-38
-0.046442293 0.13435091 0.94599998 2.2958598e-38
-0.042083256 0.13407564 0.94657153 2.240753e-38
-0.038215946 0.13375625 0.94766665 2.1668878e-38
-0.035182387 0.13491198 0.94800007 1.8818041e-38
-0.097236358 0.13879037 0.94800001 1.9285095e-38
-0.093540683 0.13806693 0.94760001 2.0111615e-38
-0.089843713 0.13739179 0.94599998 2.2131996e-38
-0.048930269 0.1368389 0.94599998 2.2866755e-38
-0.046442293 0.1368389 0.94599998 2.2683059e-38
-0.042295657 0.13766822 0.94600004 2.148915e-38
-0.038168751 0.13774054 0.94649994 1.8454989e-38
-0.034074277 0.13795927 0.94800007 1.8818408e-38
-0.030749958 0.13795927 0.94800001 1.8177375e-38
-0.10554716 0.14377683 0.94800001 6.6578381e-39
-0.10222284 0.14211467 0.94800007 1.5141148e-38
-0.098033249 0.14206412 0.94766665 1.836674e-38
-0.094749428 0.14154238 0.94639999 1.8734082e-38
-0.04118989 0.14070909 0.94599998 2.0662628e-38
-0.03798316 0.14148311 0.94600004 1.8088005e-38
-0.034041159 0.14198102 0.94711113 1.8449249e-38
-0.030749958 0.1412836 0.94800001 1.7886757e-38
-0.10637824 0.14627008 0.94800001 8.5856506e-39
-0.10218748 0.14621836 0.94766665 1.7905848e-38
-0.098136984 0.14568506 0.94599998 1.9560602e-38
-0.037319697 0.14596149 0.94599998 1.7540221e-38
-0.034037169 0.14611609 0.94700003 1.7446233e-38
-0.10631967 0.14977638 0.94600004 1.1267219e-38
-0.1023389 0.14911292 0.94600004 1.9560682e-38
-0.037319697 0.15010813 0.94599998 1.560773e-38
-0.034279421 0.14981456 0.9471429 1.5697054e-38
-0.037872583 0.1545312 0.94599998 1.4776905e-38
-0.033847656 0.15387605 0.94749999 1.4956989e-38
-0.038149022 0.15757205 0.94599998 1.4130828e-38
-0.03407428 0.15790519 0.94800007 1.3940341e-38
-0.038149022 0.1617187 0.94600004 1.3389687e-38
-0.034905359 0.16206059 0.94800007 1.2650698e-38
-0.038209073 0.16612877 0.94749999 1.2096469e-38
-0.035182387 0.16593897 0.94800007 1.07107e-38
-0.040637005 0.1683533 0.94599998 1.0808966e-38
-0.038362931 0.16989447 0.9472 6.2864379e-39
-0.035182387 0.16981733 0.94800007 5.6788461e-40
-0.037398599 0.17286465 0.94800001 5.7397185e-42
-0.034905359 0.17203356 0.94800001 6.4669924e-42
-0.06228599 0.19184446 0.94733334 3.9460565e-42
-0.05419115 0.12255536 0.95099998 2.35098e-38
-0.050022595 0.12172165 0.95099998 2.3509748e-38
-0.046965659 0.12199955 0.95099998 2.12051e-38
-0.085872129 0.12755762 0.95099998 2.3417732e-38
-0.082537279 0.12755762 0.95099998 2.3509646e-38
-0.078090839 0.12700182 0.95099998 2.3509678e-38
-0.074533671 0.12655717 0.95100003 2.3509682e-38
-0.070031635 0.12505649 0.95099998 2.3509716e-38
-0.065863088 0.12422278 0.95099998 2.3509736e-38
-0.058359694 0.12422278 0.95099998 2.3509796e-38
-0.054191142 0.12422278 0.95099998 2.3509783e-38
-0.041407596 0.1258902 0.95099998 2.1211155e-38
-0.038350657 0.12672392 0.95099998 2.0292416e-38
-0.093375519 0.13089246 0.95099998 2.1121874e-38
-0.08976277 0.13033666 0.95099998 2.1856508e-38
-0.084204704 0.12922505 0.95099998 2.3509528e-38
-0.082537279 0.12922505 0.95099998 2.3509656e-38
-0.040851787 0.12922505 0.95099998 2.3509636e-38
-0.038072757 0.12978086 0.95099998 2.3050433e-38
-0.035849527 0.13089246 0.95099998 1.9560602e-38
-0.095042929 0.13339359 0.95099998 2.0754491e-38
-0.033848625 0.13389382 0.95100003 1.9743204e-38
-0.030013558 0.13506101 0.95099998 2.0111615e-38
-0.10421374 0.13922957 0.95099998 1.1624186e-38
-0.10171261 0.13922957 0.95099998 1.3848385e-38
-0.098655686 0.13811795 0.95099998 1.8274944e-38
-0.095876642 0.13756214 0.95099998 1.9652437e-38
-0.029179849 0.13839585 0.95099998 1.7535558e-38
-0.027512427 0.13839585 0.95099998 1.8641894e-38
-0.10588117 0.1417307 0.95099998 8.1254432e-39
-0.029179849 0.1417307 0.95099998 1.5774899e-38
-0.10754858 0.14423183 0.95099998 1.0140405e-38
-0.030013558 0.14589925 0.95100009 1.4859414e-38
-0.030291464 0.14978987 0.95099998 1.3939265e-38
-0.0301803 0.15456982 0.95100003 1.1998523e-38
-0.03029146 0.15812699 0.95099998 1.1537552e-38
-0.032514688 0.16173974 0.95099998 1.2831499e-38
-0.030847268 0.16173974 0.95099998 1.1356751e-38
-0.032931544 0.16632514 0.95099998 6.8388956e-39
-0.030847268 0.16424087 0.95099998 9.4189075e-39
-0.034182105 0.16924311 0.95099998 8.6095778e-42
-0.035849527 0.17424537 0.95099998 6.0984509e-42
-0.056152247 0.11900924 0.95599997 2.3509762e-38
-0.053581864 0.11888388 0.95499998 2.3509774e-38
-0.05025053 0.11808758 0.95533323 2.35098e-38
-0.046320312 0.11861426 0.95571429 2.3324256e-38
-0.042184025 0.11928861 0.95600003 2.3228354e-38
-0.037714198 0.11984734 0.95600003 2.3321219e-38
-0.033523731 0.11984733 0.95599997 2.0450421e-38
-0.085485518 0.12319972 0.95599997 2.1397315e-38
-0.082133144 0.12319972 0.95599997 2.3142186e-38
-0.077104583 0.12319972 0.95599997 2.35096e-38
-0.07375221 0.12319972 0.95599997 2.3509705e-38
-0.070399836 0.12319972 0.95599997 2.3509734e-38
-0.065790318 0.12278067 0.95599997 2.350975e-38
-0.062018901 0.12236162 0.95599997 2.3509761e-38
-0.058091085 0.12204006 0.95479995 2.3509782e-38
-0.053525757 0.12126929 0.954 2.350979e-38
-0.044883579 0.12182686 0.954 2.323117e-38
-0.041838475 0.1221692 0.95449996 2.3509591e-38
-0.038017176 0.1220909 0.95520002 2.3233411e-38
-0.034011509 0.12247769 0.95559996 1.7781013e-38
-0.030450722 0.12264099 0.95600003 1.683731e-38
-0.027657077 0.12319972 0.95599997 1.9876931e-38
-0.08948838 0.12796003 0.954 2.3509649e-38
-0.085206151 0.12543464 0.95600003 2.2774844e-38
-0.081931509 0.12616321 0.95559996 2.3050447e-38
-0.078239426 0.12509814 0.95449996 2.3509622e-38
-0.073597923 0.12461465 0.954 2.3509695e-38
-0.071088895 0.12461465 0.954 2.3509716e-38
-0.061889157 0.12461465 0.954 2.3509764e-38
-0.040980656 0.12461465 0.954 2.3509535e-38
-0.038471639 0.12461465 0.954 2.3509594e-38
-0.034297537 0.12631637 0.95422214 2.139022e-38
-0.03015032 0.12646268 0.95533335 1.9812916e-38
-0.026818983 0.125714 0.95599997 1.7764968e-38
-0.091256611 0.12893048 0.95499998 2.2591218e-38
-0.033955406 0.13030177 0.954 1.9188973e-38
-0.03010824 0.13046904 0.954 2.1947278e-38
-0.02598089 0.12990446 0.95599991 1.3999262e-38
-0.022628518 0.13074255 0.95599997 1.713145e-38
-0.018438052 0.12990445 0.95599997 1.8055474e-38
-0.03261726 0.13297805 0.954 2.0754463e-38
-0.03010824 0.13297805 0.954 2.1213641e-38
-0.025943486 0.1339079 0.95466661 2.0385333e-38
-0.022069789 0.13437429 0.95600003 1.6776967e-38
-0.018438052 0.13409494 0.95599997 1.3710535e-38
-0.09701544 0.13632341 0.954 2.020348e-38
-0.025455894 0.13779795 0.95428574 1.7441928e-38
-0.021790426 0.13828538 0.95599997 1.04162e-38
-0.018438052 0.1366092 0.95599997 1.26914e-38
-0.025943486 0.14227715 0.95466661 1.7624885e-38
-0.022069789 0.14219651 0.95600003 1.5686683e-38
-0.025943486 0.14562485 0.95466661 1.6244122e-38
-0.022628518 0.14582823 0.95599997 1.5323613e-38
-0.029271899 0.15137753 0.954 1.338323e-38
-0.025949527 0.14984474 0.95488888 1.458355e-38
-0.02262852 0.15001869 0.95600003 1.199924e-38
-0.029271899 0.15305021 0.954 1.1998523e-38
-0.026316127 0.15404156 0.95599997 1.2734642e-38
-0.029271899 0.15974094 0.954 1.2276182e-38
-0.027098348 0.15728217 0.95600003 1.3380011e-38
-0.029271899 0.16224995 0.954 9.7909284e-39
-0.026651366 0.16242246 0.95599997 4.807387e-39
-0.029870369 0.16610554 0.95533335 1.6734867e-39
-0.026293686 0.16563529 0.9551999 1.8761845e-40
-0.03261726 0.17061335 0.954 3.5873241e-43
-0.030118465 0.16983692 0.95433331 7.4186142e-40
-0.026762879 0.16894068 0.954 1.2031997e-39
-0.03261726 0.17312238 0.954 1.4794209e-39
-0.056328461 0.11517908 0.95899999 2.3509786e-38
-0.05380629 0.11517908 0.95899999 2.3509765e-38
-0.0504434 0.11433836 0.95899999 2.3508651e-38
-0.046576068 0.11450651 0.95900005 2.2668846e-38
-0.042036165 0.11517908 0.95899999 2.3504505e-38
-0.037832551 0.11517908 0.95899999 2.1932485e-38
-0.034469657 0.11517908 0.95899999 1.5841786e-38
-0.077346541 0.11854198 0.95899999 2.1948408e-38
-0.07482437 0.11854198 0.95899999 2.2866771e-38
-0.061372798 0.11854198 0.95899999 2.3509767e-38
-0.058009908 0.11798149 0.95899999 2.3509743e-38
-0.05380629 0.11686053 0.95899999 2.3509759e-38
-0.045399059 0.11686053 0.95899999 2.3509842e-38
-0.041755926 0.11742102 0.95899999 1.7870843e-38
-0.037832547 0.11770125 0.95900005 1.8407773e-38
-0.033628933 0.11770125 0.95899999 2.3214902e-38
-0.030266037 0.11854198 0.95899999 1.9432058e-38
-0.027743869 0.11854198 0.95899999 1.6564315e-38
-0.082390882 0.12190487 0.95899999 2.074875e-38
-0.078187265 0.12162463 0.95900005 2.3417739e-38
-0.073983647 0.12106415 0.95899999 2.3509642e-38
-0.069780037 0.12190487 0.95899999 2.3509731e-38
-0.066417143 0.12190487 0.95899999 2.3509771e-38
-0.062213525 0.12022343 0.95899999 2.3509755e-38
-0.058850627 0.12022343 0.95899999 2.3509717e-38
-0.029985797 0.12078391 0.95899999 1.7203607e-38
-0.026062425 0.12218511 0.95900005 1.8583286e-38
-0.021858808 0.12190487 0.95900005 1.8125199e-38
-0.018495914 0.12190487 0.95900005 1.9057171e-38
-0.015553381 0.12232523 0.95899999 1.7310122e-38
-0.088275947 0.1261085 0.95899999 2.010774e-38
-0.0865945 0.12694922 0.95899999 2.3509528e-38
-0.024380974 0.1261085 0.95899999 1.6836608e-38
-0.021858806 0.1261085 0.95899999 1.7109973e-38
-0.018495912 0.1261085 0.95899999 1.7395131e-38
-0.01513302 0.12610848 0.95899999 1.6103299e-38
-0.021438444 0.12989175 0.95899999 1.9331946e-38
-0.015301165 0.1306484 0.95900005 1.5371129e-38
-0.021018082 0.13367501 0.95899999 1.6683251e-38
-0.01513302 0.13451573 0.95899999 1.4169026e-38
-0.018495914 0.13871935 0.95899999 1.3240567e-38
-0.015413261 0.1375984 0.95899999 1.2424473e-38
-0.021018082 0.14376368 0.95899999 1.605758e-38
-0.018495914 0.14208224 0.95900005 1.0874687e-38
-0.015973743 0.14208224 0.95899999 1.1794167e-38
-0.021018082 0.14628585 0.95899999 1.3572282e-38
-0.018495914 0.14628585 0.95899999 9.1311971e-39
-0.015973743 0.14628585 0.95899999 7.9075819e-39
-0.021018082 0.14964874 0.95899999 1.1446075e-38
-0.018776154 0.14936851 0.95899999 1.0425481e-38
-0.024380974 0.15553381 0.95899999 1.2735e-38
-0.021690661 0.15418865 0.95900005 1.1809475e-38
-0.019336635 0.15301163 0.95899999 1.1991425e-38
-0.024941457 0.15833622 0.95899999 1.2460228e-38
-0.021858806 0.15721525 0.95899999 9.4120622e-39
-0.018495914 0.1588967 0.95899999 0
-0.025221698 0.16141888 0.95899999 5.5481666e-39
-0.021018082 0.16310033 0.95899999 2.8017141e-40
-0.018916273 0.16183925 0.95899999 3.7309572e-40
-0.024380974 0.16730393 0.95899999 1.571269e-39
-0.041410226 0.10732854 0.96399999 1.4914855e-38
-0.03972001 0.10732854 0.96399999 1.8148162e-38
-0.049413752 0.11022899 0.96349996 1.8426157e-38
-0.045588419 0.10974902 0.963 2.1095418e-38
-0.042255331 0.10986386 0.96399999 2.219206e-38
-0.038029801 0.10986386 0.96399993 2.2856893e-38
-0.033804268 0.10986385 0.96399999 2.2678314e-38
-0.03070554 0.11014557 0.96399999 1.9906382e-38
-0.070143849 0.1157796 0.96399999 2.323412e-38
-0.065918311 0.1157796 0.96399999 2.3509661e-38
-0.062005222 0.11471744 0.96359998 2.3509743e-38
-0.057970166 0.11396988 0.963 2.3509768e-38
-0.054030716 0.11312594 0.96299994 2.3044418e-38
-0.049757846 0.11216599 0.96200007 1.9430821e-38
-0.045259964 0.11272822 0.96200007 2.2847153e-38
-0.042167664 0.11300933 0.96200001 2.3503765e-38
-0.037964053 0.11304821 0.96233338 2.313282e-38
-0.033579141 0.11356199 0.96240008 1.8598325e-38
-0.030402798 0.11400932 0.96333331 2.0898922e-38
-0.026431499 0.11453799 0.96371424 1.9326585e-38
-0.022254474 0.1152162 0.96399999 1.8494343e-38
-0.016902132 0.1149345 0.96399999 2.2217433e-38
-0.013521707 0.1149345 0.96399999 2.2313175e-38
-0.010986386 0.1157796 0.96399999 2.2407502e-38
-0.073448002 0.11819132 0.963 2.3509582e-38
-0.070022002 0.11811009 0.96233338 2.350966e-38
-0.065883681 0.11825313 0.96350002 2.3509733e-38
-0.06268926 0.11778834 0.96200007 2.3509782e-38
-0.059034731 0.11722611 0.96200001 2.3509754e-38
-0.030360721 0.11722611 0.96200001 2.2382612e-38
-0.025827652 0.11799828 0.96280003 1.9046424e-38
-0.021949979 0.11819132 0.963 2.0717428e-38
-0.017710418 0.11806946 0.96200001 1.5930779e-38
-0.013500228 0.11813039 0.96249998 2.0556938e-38
-0.010422982 0.11859664 0.96399999 2.1764727e-38
-0.069998324 0.12059952 0.96200007 2.350973e-38
-0.065781556 0.12059952 0.96200001 2.3509792e-38
-0.0253006 0.12059952 0.96200001 1.9134334e-38
-0.013324982 0.12194889 0.96200001 1.5840648e-38
-0.01014128 0.12169535 0.96399999 2.0924922e-38
-0.0076059592 0.12169535 0.96399999 2.0472581e-38
-0.0126503 0.12650299 0.96200001 1.5084168e-38
-0.010133683 0.12583323 0.96333331 1.4083973e-38
-0.0076059597 0.12592089 0.96399999 2.0549816e-38
-0.013212536 0.12959531 0.96200007 1.4444523e-38
-0.010125061 0.12994348 0.96249998 1.3614053e-38
-0.0076059592 0.13014643 0.96399999 1.6015095e-38
-0.0126503 0.13409318 0.96200007 1.4077868e-38
-0.010292768 0.13381158 0.96239996 1.2691368e-38
-0.0076059592 0.13352683 0.96399999 1.1396361e-38
-0.013212536 0.13859105 0.96200007 1.4557455e-38
-0.0099676996 0.13803326 0.96359998 1.6403858e-38
-0.0076059592 0.13606216 0.96399999 1.2054931e-38
-0.013493653 0.14168337 0.96200001 1.6135213e-38
-0.010422982 0.14169621 0.96399999 1.4940207e-38
-0.013503004 0.1460024 0.96266669 9.9427017e-39
-0.010310302 0.14586541 0.96399993 7.8275551e-39
-0.016597053 0.15050262 0.96266669 1.1707232e-38
-0.013521707 0.14958386 0.96399999 1.3360002e-38
-0.016867066 0.1534903 0.96200001 1.097656e-38
-0.013521707 0.1538094 0.96399999 2.4906847e-39
-0.010986386 0.1538094 0.96399999 9.3270426e-41
-0.021949101 0.15955947 0.963 4.8977974e-39
-0.01746946 0.15722516 0.96200001 2.8641335e-39
-0.013803409 0.15690814 0.96399999 4.6635213e-42
-0.022224084 0.16175434 0.96266669 4.3047889e-42
-0.022238694 0.16580865 0.96333331 8.3261792e-40
-0.066123456 0.10766255 0.96700001 1.4947822e-38
-0.062732518 0.10766255 0.96700001 2.3142186e-38
-0.049168725 0.10766255 0.96700001 2.3509761e-38
-0.045495205 0.1070974 0.96700001 1.9999626e-38
-0.043234568 0.10681482 0.96700001 2.1102368e-38
-0.037300412 0.10766255 0.96700001 2.3509831e-38
-0.033909462 0.10766255 0.96700001 2.3509797e-38
-0.030518519 0.10766255 0.96700001 2.3509779e-38
-0.066123456 0.11020575 0.96700001 2.1024251e-38
-0.06222387 0.11037531 0.96700001 2.3234092e-38
-0.057646088 0.1110535 0.96700001 2.3509642e-38
-0.053972565 0.11048834 0.96700001 2.2585295e-38
-0.050864197 0.10935803 0.96700001 2.3508389e-38
-0.029670782 0.10935803 0.96700001 2.3509886e-38
-0.026618931 0.11037531 0.96700001 1.6396086e-38
-0.02288889 0.1110535 0.96700001 2.0368945e-38
-0.016954733 0.1110535 0.96700001 2.3509631e-38
-0.013563786 0.1110535 0.96700001 2.3325916e-38
-0.069231831 0.11387929 0.96700001 2.3234037e-38
-0.066123456 0.11359671 0.96700001 2.3325926e-38
-0.061884776 0.11274898 0.96700001 2.3509678e-38
-0.025432099 0.11274898 0.96700001 1.8582557e-38
-0.021758575 0.11331414 0.96700001 1.9976507e-38
-0.018226339 0.11317284 0.96700001 2.3509631e-38
-0.013563786 0.11274898 0.96700001 2.35096e-38
-0.010172839 0.11359671 0.96700001 2.0091885e-38
-0.006273251 0.11376625 0.96700001 2.2208766e-38
-0.019497944 0.11613992 0.96700001 2.1837276e-38
-0.0093251029 0.11698765 0.96700001 2.1121805e-38
-0.0059341565 0.11783539 0.96700001 1.9465195e-38
-0.0025432098 0.11783539 0.96700001 1.6884817e-38
-0.0050864201 0.12207408 0.96700001 1.4478085e-38
-0.0025432098 0.12207408 0.96700001 1.2626352e-38
-0.0050864201 0.12546504 0.96700001 1.6784752e-38
-0.0025432098 0.12546502 0.96700001 1.2993652e-38
-0.0050864201 0.1297037 0.96700001 1.7521634e-38
-0.0025432098 0.12885597 0.96700001 1.7344782e-38
-0.0050864201 0.1339424 0.96700001 1.0669124e-38
-0.0062167356 0.13818108 0.96700001 1.0312892e-38
-0.0093251029 0.1432675 0.96700001 9.4124265e-39
-0.0076296297 0.14157201 0.96700001 8.390751e-39
-0.0076296297 0.14581069 0.96700001 9.8590806e-39
-0.013563786 0.15174486 0.96700001 8.849602e-39
-0.010003293 0.15038846 0.96700001 4.7019351e-39
-0.0069514401 0.15038846 0.96700001 5.5603663e-40
-0.0093251029 0.15344034 0.96700001 1.4349296e-42
-0.065478235 0.10629583 0.97000003 9.2233913e-39
-0.061651587 0.10672101 0.97000003 1.706779e-38
-0.057824932 0.1071462 0.97000003 2.3325909e-38
-0.054423466 0.1071462 0.97000003 2.3509673e-38
-0.050596818 0.10672101 0.97000003 2.3509764e-38
-0.046770167 0.10629583 0.97000003 2.350988e-38
-0.041667968 0.10629583 0.97000003 2.3509855e-38
-0.037926354 0.10561555 0.97000009 2.2955853e-38
-0.034014665 0.10544547 0.97000003 2.2218658e-38
-0.029519875 0.10580991 0.97000015 2.3417548e-38
-0.025681073 0.10663598 0.97000009 2.350967e-38
-0.022109533 0.1071462 0.97000003 2.3509604e-38
-0.017007332 0.10799656 0.97000003 2.3509643e-38
-0.013605866 0.10799656 0.97000003 2.2958581e-38
-0.010204399 0.1071462 0.97000003 2.1947327e-38
-0.068879694 0.11054766 0.97000003 1.6140513e-38
-0.060376033 0.1096973 0.97000003 2.3509631e-38
-0.057824932 0.1096973 0.97000003 2.3509619e-38
-0.055273835 0.1096973 0.97000003 2.3509624e-38
-0.024660634 0.1096973 0.97000003 2.2583808e-38
-0.021826079 0.11026421 0.97000003 2.3509737e-38
-0.017857701 0.11026421 0.97000003 2.3509636e-38
-0.013605866 0.1096973 0.97000003 2.3142249e-38
-0.010204399 0.11054767 0.97000003 1.5764173e-38
-0.0076533002 0.11139803 0.97000003 1.3262399e-38
-0.07058043 0.11309877 0.97000003 1.8267013e-38
-0.0042518335 0.11309877 0.97000003 2.0263e-38
-0.001984189 0.11423258 0.97000003 1.9359712e-38
-0.00085036666 0.11820096 0.97000003 1.9742863e-38
0.00085036666 0.11905134 0.97000003 1.8642247e-38
-0.00085036666 0.1224528 0.97000003 1.6590393e-38
-0.00085036666 0.12585427 0.97000003 8.3835763e-39
-0.0025511 0.13180684 0.97000003 1.5127387e-38
-0.0025511 0.13435793 0.97000003 1.4379071e-38
-0.0042518335 0.13860977 0.97000003 6.3449001e-39
-0.0025511 0.13690902 0.97000003 9.9530306e-39
-0.0056124199 0.14235137 0.97000009 8.5701396e-39
-0.017095 0.097441494 0.97500002 2.203319e-38
-0.013676 0.097441494 0.97500002 2.0929641e-38
-0.010257 0.098296247 0.97500002 2.3509626e-38
-0.057268251 0.10342475 0.97500002 1.8636507e-38
-0.053360827 0.10195946 0.97500002 2.2221376e-38
-0.049860418 0.10285492 0.97500008 2.3509694e-38
-0.0461565 0.10342475 0.97500002 2.3509722e-38
-0.042737499 0.10342475 0.97500002 2.3508941e-38
-0.037531853 0.10321259 0.97299999 1.9167127e-38
-0.033858329 0.10271348 0.97366667 1.9076026e-38
-0.02967955 0.10184938 0.97424996 2.3509731e-38
-0.025792409 0.1019723 0.97420007 2.2956147e-38
-0.022208303 0.10164453 0.97433329 2.2030678e-38
-0.017934166 0.10162173 0.97411102 2.1384489e-38
-0.013666648 0.10164453 0.97433329 2.2309598e-38
-0.010249986 0.10164453 0.97433329 2.3234067e-38
-0.0064716795 0.10195946 0.97500002 2.3234078e-38
-0.00256425 0.10342475 0.97500002 2.2223831e-38
-0.061415754 0.10491858 0.97299999 1.6422517e-38
-0.058003772 0.10491858 0.97299999 2.3325878e-38
-0.053738788 0.10491858 0.97299999 2.3509622e-38
-0.049525529 0.10502642 0.97399998 2.3509752e-38
-0.046061821 0.10491858 0.97299999 2.350982e-38
-0.041796833 0.10491858 0.97299999 2.350972e-38
-0.024736902 0.10491858 0.97299999 2.3509727e-38
-0.022177912 0.10491858 0.97299999 2.3417334e-38
-0.01791293 0.10577159 0.97299999 2.3509617e-38
-0.013647947 0.10577158 0.97299999 2.2591248e-38
-0.01023596 0.10491858 0.97299999 2.277486e-38
-0.0059771137 0.10587942 0.9740001 2.2958647e-38
-0.0017095001 0.10598899 0.97500002 2.1672905e-38
0.00085474999 0.10684375 0.97500002 1.9927944e-38
-0.019618923 0.10918356 0.97299999 2.3509632e-38
-0.0057577277 0.10982331 0.97299999 1.7603455e-38
-0.00170687 0.11014965 0.9740001 1.6779769e-38
0.0017095001 0.11026275 0.97500002 1.9925466e-38
-0.0008529966 0.11344855 0.97299999 1.8981608e-38
0.0017090617 0.11447732 0.97450006 1.9832167e-38
0.0042737499 0.11539125 0.97500002 1.8917753e-38
0.001992079 0.11750927 0.97366667 1.8549694e-38
0.0042737499 0.1179555 0.97500002 1.7263997e-38
0.0018786967 0.12242071 0.9738 1.7344378e-38
0.0042737499 0.12222925 0.97500008 1.6156264e-38
0.0017086234 0.12637326 0.97399998 9.7568965e-39
0.0042737499 0.12650299 0.97500002 8.4919682e-39
-0.0008529966 0.12965548 0.97299999 1.4486737e-38
0.0017086233 0.12978874 0.97399998 1.1985995e-38
0.0042737499 0.129922 0.97500002 9.0357729e-39
-0.00085299666 0.13392048 0.97299999 1.4843635e-38
0.0017095001 0.13419574 0.97500002 1.217753e-38
-0.0014222455 0.13856505 0.97366667 1.3179878e-38
0.0014245834 0.13818459 0.97500008 1.1537616e-38
-0.00170687 0.14174296 0.97399998 7.5563632e-39
0.0014245834 0.14217341 0.97500008 3.5084212e-39
0.0042737499 0.14274324 0.97500002 4.6691265e-42
-0.0049515883 0.14632495 0.9738 5.8071882e-39
-0.0017095001 0.14616226 0.97500002 1.1999683e-39
0.0017095 0.1453075 0.97500002 6.4716447e-40
0.0042737499 0.14445275 0.97500002 1.2917954e-39
-0.0051285001 0.14958124 0.97500002 2.7981128e-40
-0.0017095 0.14958124 0.97500002 7.4401101e-40
-0.017147599 0.095169172 0.97799999 2.3509813e-38
-0.01371808 0.095169172 0.97799999 2.3509755e-38
-0.010288559 0.094311796 0.97799999 2.3509734e-38
-0.0077164196 0.095169172 0.97799999 2.3509724e-38
-0.030008299 0.098598704 0.97800004 2.3323346e-38
-0.025435604 0.09802711 0.97800004 2.3509682e-38
-0.02229188 0.097741313 0.97799999 2.3509769e-38
-0.019719739 0.097741321 0.97799999 2.3509755e-38
-0.010288559 0.096883938 0.97799999 2.350967e-38
-0.0060016597 0.097741321 0.97800004 2.3325971e-38
-0.0020005533 0.09802711 0.97800004 2.3142189e-38
0.00085737993 0.098598696 0.97799999 2.2223831e-38
-0.055729698 0.10202821 0.97799999 2.2315787e-38
-0.049442243 0.10088505 0.97800004 2.3509667e-38
-0.046298519 0.10117084 0.97799999 2.3049001e-38
-0.041766655 0.10153829 0.97800004 2.3509338e-38
-0.037724718 0.10117083 0.97799999 2.203286e-38
-0.034580991 0.10088505 0.97800004 2.2217933e-38
-0.03172306 0.10031345 0.97799999 2.3509674e-38
-0.024864018 0.10031345 0.97799999 2.3509607e-38
-0.0042868997 0.10117084 0.97799999 2.2774903e-38
-0.0015432838 0.10168526 0.97799999 2.2499338e-38
0.0017147599 0.10202821 0.97800004 2.1764654e-38
0.0060016597 0.10374298 0.97800004 2.0019779e-38
0.0020005533 0.10602932 0.97800004 2.0662628e-38
0.0060016601 0.10631512 0.97800004 1.9468766e-38
0.0094311787 0.1071725 0.97799999 1.919326e-38
0.0060016601 0.10974464 0.97800004 1.9009589e-38
0.0094311787 0.10974464 0.97799999 1.7999399e-38
0.0062160045 0.1138172 0.97800004 1.8090517e-38
0.0094311787 0.11403154 0.97800004 1.6710832e-38
0.0068590399 0.11831843 0.97799999 1.6066907e-38
0.010288559 0.11831843 0.97799999 1.4868023e-38
0.0068590399 0.12174796 0.97799999 1.4959859e-38
0.0094311787 0.12174796 0.97799999 1.3486186e-38
0.0068590394 0.12603486 0.97800004 1.3293956e-38
0.0094311787 0.12603486 0.97800004 1.2560298e-38
0.0065732463 0.13003597 0.97800004 1.2913701e-38
0.0051442795 0.13375127 0.97799999 1.1995294e-38
0.00257214 0.13975294 0.97799999 4.8952624e-39
0.0051442795 0.13803817 0.97800004 4.5297239e-39
0.00257214 0.14146769 0.97799999 5.6141622e-40
0.0051442795 0.14146769 0.97799999 3.5873241e-43
-0.017252799 0.090577193 0.98400003 2.3509752e-38
-0.01380224 0.090577193 0.98400003 2.3509782e-38
-0.01032012 0.090301044 0.98100001 2.3509781e-38
-0.0060384804 0.0905772 0.98400009 2.3509785e-38
-0.0025879201 0.090577193 0.98400003 2.3509703e-38
-0.03795616 0.095753044 0.98400003 2.3509681e-38
-0.029811576 0.094946153 0.98280001 2.3417541e-38
-0.025540804 0.094985083 0.98200005 2.3509731e-38
-0.022376698 0.094672762 0.98175001 2.3509751e-38
-0.018323209 0.093330815 0.98185718 2.3509762e-38
-0.013771337 0.092951432 0.98175001 2.3509779e-38
-0.01032012 0.09202107 0.98100001 2.3509781e-38
-0.0058090128 0.093596436 0.98175001 2.3509699e-38
-0.0017217733 0.093834899 0.98200005 2.3509633e-38
0.0017248418 0.093979105 0.98350012 2.3417766e-38
0.0057509332 0.094602853 0.98400009 2.2958566e-38
0.010064134 0.095177948 0.98400009 2.1581004e-38
-0.046440542 0.098901145 0.98100001 2.3509559e-38
-0.042161088 0.098090671 0.98150003 2.3509666e-38
-0.037898302 0.098189726 0.98250002 2.3509741e-38
-0.034427356 0.098115437 0.98175001 2.3509666e-38
-0.030100351 0.097181126 0.98100007 2.2585109e-38
-0.026660308 0.097181126 0.98100001 2.3509698e-38
-0.00086000998 0.097181126 0.98100001 2.3325867e-38
0.0020093201 0.097853534 0.98200005 2.2223831e-38
0.0060292752 0.098189734 0.98250008 2.204016e-38
0.010344448 0.09826535 0.98325002 2.102997e-38
0.01380224 0.098340958 0.98400003 2.020345e-38
0.017684119 0.098772272 0.98400003 1.6150144e-38
0.0060200701 0.10148117 0.98100007 2.0570792e-38
0.01032012 0.10148117 0.98100001 1.9652437e-38
0.013771337 0.1015581 0.98175001 1.9744273e-38
0.018097907 0.10168719 0.98300004 1.6980252e-38
0.010492122 0.10543722 0.98100007 1.9285095e-38
0.013767611 0.10583514 0.98150003 1.9009589e-38
0.01806693 0.10581658 0.98133343 1.7721381e-38
0.021997321 0.10653603 0.98400003 1.3564775e-38
0.01118013 0.11008128 0.98100001 1.7999399e-38
0.013760159 0.11008128 0.98100001 1.7356191e-38
0.018060209 0.11008129 0.98100007 1.6342414e-38
0.022428639 0.11041792 0.98400003 1.3013377e-38
0.01118013 0.11352132 0.98100001 1.6621149e-38
0.013771337 0.11360876 0.98175001 1.5330788e-38
0.018068537 0.11357962 0.98150003 1.4774753e-38
0.022394449 0.11369359 0.98250002 1.2921183e-38
0.01118013 0.11610134 0.98100001 1.4685429e-38
0.013782515 0.11800151 0.98250002 1.394644e-38
0.017622503 0.11793522 0.98400009 1.5233254e-38
0.022360258 0.11610134 0.98100001 1.3562617e-38
0.01118013 0.12212142 0.98100001 1.3208527e-38
0.013792377 0.12240217 0.98325002 1.5047481e-38
0.01118013 0.12556145 0.98100001 1.2465592e-38
0.013514693 0.1256579 0.98400009 1.485805e-38
0.0077400901 0.13158153 0.98100001 1.2644959e-38
0.010505798 0.13036542 0.98220009 1.0894354e-38
0.012939599 0.12853335 0.98400003 1.2648187e-38
0.0077400901 0.13416156 0.98100001 1.0615991e-38
0.010337215 0.13436669 0.98250002 3.1514796e-39
0.0077400901 0.1376016 0.98100001 1.1120705e-41
0.010044847 0.13745432 0.98200005 7.178852e-42
0.012939599 0.13715976 0.98400003 1.8507439e-39
0.0077400901 0.14018163 0.98100001 5.0292602e-42
-0.0043263496 0.087392263 0.98699999 2.3509823e-38
-0.0017305398 0.087392263 0.98699999 2.3509737e-38
0.0017305398 0.087392263 0.98699999 2.350971e-38
0.0043263496 0.087392263 0.98699999 2.3509656e-38
-0.019901209 0.090853348 0.98699999 2.3509729e-38
-0.01297905 0.089122802 0.98699999 2.3509778e-38
-0.010383239 0.089122802 0.98699999 2.3509781e-38
-0.0060568894 0.089122802 0.98699999 2.3509809e-38
-0.0014421166 0.089699648 0.98699999 2.3509705e-38
0.0017305398 0.089988068 0.98699999 2.3509666e-38
0.0049031964 0.090276502 0.98699999 2.3417798e-38
-0.038071878 0.094314426 0.98699999 2.350965e-38
-0.032014988 0.094314426 0.98699999 2.3509702e-38
-0.02682337 0.094314426 0.98699999 2.3509738e-38
-0.022497017 0.092583887 0.98699999 2.350974e-38
0.0066337362 0.093160734 0.98699999 2.3142244e-38
0.010671663 0.093160741 0.98699999 2.1948337e-38
0.013555897 0.093737587 0.98699999 2.1305527e-38
-0.041532956 0.096044965 0.98699999 2.3509577e-38
-0.034610797 0.096044965 0.98699999 2.3509715e-38
0.01384432 0.096044965 0.98699999 2.1213641e-38
0.017305398 0.096910238 0.98699999 1.4401006e-38
0.019901209 0.11854198 0.98699999 1.6243162e-38
0.022497017 0.11854198 0.98699999 1.3283571e-38
0.018417889 0.1224975 0.98700005 1.6144231e-38
0.022208594 0.12084936 0.98699999 1.3281773e-38
0.014709589 0.12719469 0.98699999 1.1994748e-38
0.01782456 0.12615637 0.98699999 1.2175543e-38
0.014132744 0.13007893 0.98699999 1.0060021e-38
0.017016975 0.12950209 0.98699999 8.0267329e-39
0.013844321 0.13411686 0.98699999 4.1595401e-39
0.016440129 0.13411686 0.98699999 8.2096738e-39
-0.029568212 0.082617059 0.99199998 2.1764661e-38
-0.0130448 0.082617059 0.99199998 2.3509799e-38
-0.010435839 0.082617059 0.99199998 2.3509772e-38
-0.0060875732 0.082617059 0.99199998 2.3509789e-38
-0.0026089598 0.082617059 0.99199998 2.3509776e-38
-0.029568212 0.084356368 0.99199998 2.2223838e-38
-0.02087168 0.086965337 0.99199998 2.3509781e-38
-0.017199147 0.086338334 0.99080002 2.3509782e-38
-0.0138864 0.085920349 0.99000001 2.3509771e-38
-0.010409979 0.085877828 0.98949999 2.3509759e-38
-0.0062859189 0.085618556 0.98899996 2.3509799e-38
-0.0017366766 0.085095838 0.99049997 2.3509767e-38
0.0014459154 0.085342333 0.99000001 2.3509752e-38
0.0052021397 0.086702332 0.98900002 2.3509677e-38
-0.033432998 0.090742007 0.99050003 2.3509625e-38
-0.029522186 0.090307184 0.99049997 2.3509712e-38
-0.026089597 0.090443939 0.99199998 2.3509772e-38
-0.022061842 0.09015955 0.99080002 2.3509765e-38
-0.017340466 0.089303404 0.98900002 2.3509759e-38
-0.014739396 0.089303404 0.98900002 2.3509762e-38
0.0072251945 0.08988142 0.98900002 2.3325927e-38
0.01042006 0.090305865 0.99049997 2.1580736e-38
-0.041617118 0.094505541 0.98900002 2.3325919e-38
-0.038264744 0.093052901 0.99199998 2.3509552e-38
-0.034160718 0.093465112 0.98900002 2.3509671e-38
-0.029478792 0.0927715 0.98900002 2.350981e-38
-0.0260107 0.0927715 0.98900002 2.350975e-38
0.014739396 0.0927715 0.98900002 1.5047143e-38
0.025143676 0.11791517 0.98900002 1.0053259e-38
0.022831615 0.12340632 0.98900002 9.5911187e-39
0.025143676 0.12225029 0.98900002 9.6805145e-39
0.019941535 0.12745243 0.98900002 8.8543356e-39
0.022253599 0.12629639 0.98900002 9.5897566e-39
0.019363521 0.13034251 0.98900002 9.7727171e-39
0.021675583 0.12918648 0.98900002 1.0325545e-38
0.01820749 0.13265456 0.98900002 1.0139349e-38
-0.01308425 0.079377778 0.995 2.3509778e-38
-0.010467399 0.079377778 0.995 2.3509774e-38
-0.026168499 0.082866915 0.995 2.3509538e-38
-0.020934798 0.082866915 0.995 2.3509681e-38
-0.017445665 0.082866915 0.995 2.3509751e-38
-0.013956534 0.08199463 0.995 2.3509786e-38
-0.010467399 0.081122346 0.995 2.3509771e-38
-0.0008722833 0.082866915 0.995 2.3509776e-38
-0.032274481 0.086356044 0.995 2.3509528e-38
-0.029657632 0.086356044 0.995 2.3509528e-38
-0.026168499 0.08548376 0.995 2.3509649e-38
-0.021807082 0.085193001 0.99500006 2.3509737e-38
-0.018317949 0.084611475 0.995 2.3509754e-38
-0.037508182 0.091589741 0.995 2.3142256e-38
-0.033146765 0.088972896 0.995 2.3325946e-38
-0.029657632 0.088100612 0.995 2.3509636e-38
-0.026168499 0.088100612 0.995 2.3509716e-38
