# .PCD v0.7 - Point Cloud Data file format
VERSION 0.7
FIELDS x y z rgb
SIZE 4 4 4 4
TYPE F F F F
COUNT 1 1 1 1
WIDTH 358
HEIGHT 1
VIEWPOINT 0 0 0 1 0 0 0
POINTS 358
DATA ascii
0.050467946 0.10994802 1.028 2.3509867e-38
0.050467946 0.11355287 1.028 2.1292795e-38
0.050467946 0.11625651 1.028 1.1980358e-38
0.057845972 0.10394198 1.031 2.3509886e-38
0.047903694 0.10755736 1.031 2.3509886e-38
0.050916508 0.1069548 1.031 2.3509886e-38
0.054230601 0.10665351 1.031 2.2773049e-38
0.057845972 0.10665351 1.031 1.9549059e-38
0.061461344 0.10755736 1.031 9.7797629e-39
0.047903694 0.11026888 1.031 1.5196757e-38
0.054230601 0.11026888 1.031 2.1483038e-38
0.057845972 0.11026888 1.031 1.7435778e-38
0.061461344 0.11026888 1.031 1.9185689e-38
0.047903694 0.11298041 1.031 2.4795584e-39
0.054230601 0.11388425 1.031 2.3509821e-38
0.057845972 0.11388425 1.031 1.9544075e-38
0.061160065 0.11358297 1.031 1.6502719e-38
0.050615229 0.11840347 1.031 6.4284847e-40
0.054230601 0.11749963 1.031 9.7694928e-39
0.056942131 0.11659579 1.031 1.5393841e-38
0.051668979 0.10243148 1.034 2.3509886e-38
0.054388396 0.10243148 1.034 2.3509886e-38
0.058014292 0.10152501 1.034 2.3509886e-38
0.061640181 0.10243148 1.034 2.3509886e-38
0.046230137 0.10696385 1.034 2.3497571e-38
0.049493447 0.10496961 1.034 2.3509886e-38
0.054388396 0.10424443 1.034 2.3509886e-38
0.061640181 0.10515091 1.034 2.1481952e-38
0.065654568 0.10631638 1.034 1.438e-38
0.070704922 0.10787033 1.034 1.7424974e-38
0.077956706 0.10515091 1.034 5.6397905e-39
0.046230137 0.10968328 1.034 8.6588236e-39
0.066172555 0.11058974 1.034 1.6225788e-38
0.070704922 0.11058974 1.034 3.7857914e-39
0.048043087 0.11512212 1.034 1.3775324e-39
0.062546656 0.11512212 1.034 0
0.064963922 0.11391348 1.0340002 3.9705624e-39
0.048043087 0.11693506 1.034 1.8367099e-40
0.058920763 0.11693506 1.034 6.7425662e-39
0.060733709 0.11693506 1.034 1.4825738e-42
0.054598797 0.065518558 1.038 2.2018171e-38
0.038522486 0.091301322 1.038 2.3509886e-38
0.041859079 0.090997994 1.038 2.3509886e-38
0.038522486 0.094334595 1.038 2.2863795e-38
0.041859075 0.094637915 1.038 2.3509886e-38
0.045498997 0.095547892 1.038 2.3509886e-38
0.042769056 0.098277837 1.038 2.3509886e-38
0.045498997 0.098277837 1.038 2.3509886e-38
0.050048899 0.098277837 1.0380001 2.3509886e-38
0.054598797 0.098277837 1.038 2.3509886e-38
0.058238715 0.098277837 1.038 2.3509886e-38
0.061878636 0.099187814 1.038 2.3509886e-38
0.074921682 0.098581165 1.038 2.1023832e-38
0.078258276 0.098277837 1.038 2.3509877e-38
0.080988213 0.099187814 1.038 2.1661304e-38
0.045498997 0.10191776 1.038 2.3509886e-38
0.049684908 0.10173576 1.038 2.3509886e-38
0.054598797 0.10100777 1.038 2.3509886e-38
0.061878636 0.10100777 1.038 2.3509886e-38
0.065518558 0.10191776 1.038 2.3509886e-38
0.070068456 0.10282774 1.038 1.182228e-38
0.074618354 0.10191776 1.038 2.0652456e-38
0.078258276 0.10191776 1.038 2.1296832e-38
0.080988213 0.10191776 1.038 1.3458666e-38
0.045195669 0.10525434 1.038 2.220868e-38
0.070068464 0.10555767 1.0380001 2.1941837e-38
0.074618354 0.10555767 1.038 2.2219147e-38
0.080988213 0.10555767 1.038 5.6239124e-39
0.045195669 0.11010757 1.038 2.4809933e-39
0.074618354 0.11010759 1.0380001 1.0177435e-39
0.078258276 0.10919759 1.038 4.5265696e-39
0.046408977 0.11374749 1.038 1.2611686e-44
0.066428542 0.11556746 1.038 0
0.069613464 0.11420248 1.038 9.8090893e-45
0.058238715 0.11920737 1.038 0
0.062181965 0.11860072 1.038 2.7622956e-40
0.065518558 0.11738741 1.038 0
0.05186886 0.12193732 1.038 1.6598759e-39
0.054598797 0.12193732 1.038 1.6598759e-39
0.058542043 0.12163399 1.038 1.2900157e-39
0.061575308 0.12163399 1.038 2.3041677e-39
0.052018769 0.065707922 1.041 2.2459659e-38
0.054756597 0.068445742 1.041 2.3507016e-38
0.057494428 0.068445742 1.041 1.87064e-38
0.03832962 0.083047509 1.041 1.1708845e-38
0.041067448 0.083047509 1.041 0
0.031941351 0.086697951 1.041 2.3509886e-38
0.034983382 0.086089551 1.0410001 2.3509886e-38
0.03832962 0.085785344 1.041 1.2354575e-38
0.041675858 0.086089551 1.0410001 7.4724941e-40
0.031941351 0.089435771 1.041 2.0373438e-38
0.034679182 0.089435771 1.041 2.2125519e-38
0.038025416 0.089131579 1.0410001 1.5673976e-38
0.041980058 0.088523164 1.041 4.5136216e-39
0.045630492 0.089435779 1.041 2.3508804e-38
0.034679182 0.093998834 1.041 1.7886314e-38
0.037417009 0.095824048 1.041 1.9631928e-38
0.045630492 0.093086213 1.041 2.3509886e-38
0.049280941 0.093998834 1.041 2.3509886e-38
0.054072138 0.094226986 1.041 2.3509886e-38
0.058224518 0.094363868 1.041 2.3509886e-38
0.06205748 0.095824048 1.041 2.3509886e-38
0.064795308 0.095824048 1.041 2.3509886e-38
0.070270963 0.095824048 1.041 2.3509886e-38
0.073921405 0.095824048 1.0410001 2.3509886e-38
0.077571847 0.095824048 1.041 2.3509886e-38
0.034983382 0.098257683 1.0410001 2.2399208e-38
0.03832962 0.098561883 1.041 2.1203581e-38
0.041067448 0.098561883 1.041 2.1849662e-38
0.06205748 0.097649269 1.041 2.3509886e-38
0.065707922 0.098561883 1.041 2.3509886e-38
0.069358349 0.098561883 1.041 2.3509886e-38
0.072704591 0.098257683 1.0410001 2.3509886e-38
0.03832962 0.10221232 1.041 2.1572666e-38
0.041980058 0.10221232 1.041 2.31393e-38
0.069662556 0.10190812 1.0410001 1.3105826e-38
0.072096184 0.10129971 1.041 1.0886663e-38
0.03924223 0.10495015 1.041 4.4841551e-44
0.041980058 0.10586276 1.041 5.6170881e-39
0.042892668 0.10951319 1.041 0
0.081222288 0.10860059 1.041 8.574897e-39
0.045630496 0.11407624 1.041 9.2305772e-40
0.070270963 0.11590146 1.041 5.5825349e-40
0.073921405 0.11468464 1.0410001 3.6910762e-39
0.077571847 0.11225102 1.041 7.4674999e-39
0.065707922 0.1195519 1.041 2.5822133e-39
0.069054149 0.11833509 1.0410001 2.9513518e-39
0.072096184 0.11772668 1.041 3.9637086e-39
0.046677239 0.063151561 1.044 1.8610964e-38
0.04850772 0.063151561 1.044 2.220729e-38
0.034879059 0.067004517 1.0470001 1.0969933e-38
0.038550541 0.067004517 1.0470001 1.1514472e-38
0.042222019 0.067004517 1.0470001 1.6744271e-38
0.046744306 0.065993279 1.0455 2.1242017e-38
0.049422964 0.065897278 1.044 2.2721473e-38
0.034288362 0.069860689 1.0458001 1.6034907e-38
0.03849531 0.069656864 1.0455 2.0351855e-38
0.042161528 0.069656864 1.0455 2.2999475e-38
0.045893505 0.069758117 1.0470001 2.3463758e-38
0.04956498 0.069758117 1.0470001 2.3503339e-38
0.053657915 0.070167743 1.0462501 2.2677618e-38
0.057825811 0.070675991 1.0470001 2.1295411e-38
0.029521748 0.074627303 1.0458001 1.1338929e-38
0.033884335 0.074181199 1.0446668 2.0352174e-38
0.038440078 0.074134439 1.0440001 2.3011396e-38
0.042101037 0.074134439 1.0440001 2.3393532e-38
0.045893501 0.073429599 1.0470001 2.3509872e-38
0.04956498 0.073429599 1.0470001 1.6503035e-38
0.054304898 0.074010178 1.0455 4.6354533e-40
0.057742968 0.073323086 1.0455 1.3094682e-38
0.029287679 0.078710645 1.044 2.8703133e-39
0.03386388 0.078710645 1.0440001 1.4752345e-38
0.038440078 0.078710638 1.044 1.8070324e-38
0.042131942 0.078766525 1.04475 1.0049343e-38
0.045871146 0.077980816 1.0465001 3.315545e-39
0.049541749 0.077980816 1.0465 2.305974e-39
0.05354242 0.078324914 1.0470001 2.3084837e-39
0.02930806 0.082431436 1.0447501 1.734578e-38
0.03386388 0.082371607 1.0440001 9.8728357e-39
0.038440078 0.081456356 1.044 1.1524465e-38
0.042406119 0.082066521 1.044 9.230325e-40
0.045761999 0.0823716 1.044 2.5839832e-39
0.049495287 0.082489952 1.0455 3.6885889e-39
0.053236458 0.082608297 1.0470001 1.2354862e-38
0.026618229 0.087197646 1.0470001 1.9725915e-38
0.02930806 0.086093701 1.04475 2.230954e-38
0.032948639 0.085117318 1.044 1.4938912e-38
0.043016277 0.085117318 1.044 0
0.045761995 0.086032555 1.044 1.0788584e-38
0.04956498 0.085361905 1.0470001 8.9448342e-39
0.054154333 0.08658573 1.0470002 2.3509886e-38
0.058743678 0.087197646 1.0470001 2.3509886e-38
0.06241516 0.087197646 1.0470001 2.3509886e-38
0.06608665 0.087197646 1.0470001 2.3509886e-38
0.026618229 0.089951262 1.0470001 2.138796e-38
0.029308062 0.08975862 1.0447501 1.9910303e-38
0.049493968 0.089821078 1.0455 2.3509886e-38
0.053999167 0.089693531 1.0440001 2.3509886e-38
0.058618098 0.089757301 1.0447501 2.3509886e-38
0.062415157 0.089951262 1.0470001 2.3509886e-38
0.06608665 0.089951262 1.0470001 2.3509886e-38
0.069658175 0.089821078 1.0455 2.3509886e-38
0.072511733 0.090869136 1.0470001 2.3509886e-38
0.029350141 0.09355633 1.04625 2.2031101e-38
0.032033399 0.093354478 1.044 1.8162552e-38
0.052168682 0.092439234 1.044 2.3509886e-38
0.059490599 0.092439234 1.044 2.3509886e-38
0.062236324 0.093354478 1.044 2.3509886e-38
0.065897278 0.093354478 1.044 2.3509886e-38
0.069558233 0.093354478 1.044 2.3509886e-38
0.074134439 0.093354486 1.0440001 2.3509886e-38
0.030289711 0.097294226 1.0470001 1.8431094e-38
0.03264356 0.097930685 1.044 2.258063e-38
0.066812523 0.096100196 1.044 2.3509886e-38
0.068642996 0.096100196 1.044 2.3509886e-38
0.033927873 0.10209222 1.046 1.0965097e-38
0.035796929 0.10555505 1.0470001 3.6734198e-40
0.038170945 0.10657549 1.0450001 1.103161e-39
0.041304149 0.10922652 1.0470001 0
0.081456356 0.11074404 1.044 9.3113831e-39
0.04313989 0.11289801 1.0470001 4.4279308e-39
0.044975631 0.11473375 1.0470001 3.0550717e-39
0.077795401 0.114405 1.044 7.6511625e-39
0.074500538 0.11769986 1.044 4.7945581e-39
0.039581496 0.054309495 1.05 2.3455811e-38
0.041422494 0.054309495 1.05 2.3093549e-38
0.039581496 0.056150492 1.05 2.345072e-38
0.041422494 0.056150492 1.05 2.3458381e-38
0.046024997 0.059832498 1.05 1.023381e-38
0.043263495 0.062593997 1.05 2.3495087e-38
0.045718163 0.062287163 1.05 1.8244376e-38
0.034978997 0.065355495 1.05 1.9144388e-38
0.038660996 0.065355495 1.05 1.9513168e-38
0.042342994 0.065355495 1.05 1.8949137e-38
0.045104496 0.066275991 1.05 2.0135681e-38
0.029762831 0.070264839 1.05 1.8246843e-38
0.032217499 0.069037497 1.05 1.6854186e-38
0.026694497 0.074560493 1.05 1.4283383e-38
0.028535498 0.072719492 1.05 1.8797804e-38
0.059832498 0.074560493 1.05 2.1565871e-38
0.026694497 0.077321991 1.05 7.5841734e-39
0.058911994 0.077321991 1.05 7.3791957e-40
0.062287163 0.077628821 1.05 2.3509886e-38
0.026694497 0.081003994 1.05 2.3509886e-38
0.057991497 0.081924498 1.0500001 1.9728444e-38
0.062133744 0.082384743 1.05 2.3509886e-38
0.049706995 0.087447487 1.05 2.3509886e-38
0.053388998 0.08652699 1.05 2.3509886e-38
0.057991497 0.085606501 1.05 2.3509886e-38
0.062593997 0.085606493 1.05 2.3509886e-38
0.066275991 0.085606493 1.05 2.3509886e-38
0.069651172 0.086833827 1.05 2.3509886e-38
0.026694497 0.093890995 1.05 1.8247424e-38
0.034978997 0.10677799 1.05 0
0.038660996 0.10953949 1.05 7.258726e-43
0.041422494 0.11138049 1.05 0
0.018480133 0.050820366 1.054 2.3369698e-38
0.018480133 0.052668381 1.054 2.345474e-38
0.039732289 0.052668381 1.054 2.3459076e-38
0.041580297 0.052668381 1.054 1.7213538e-38
0.039732289 0.058212418 1.054 2.3451114e-38
0.042504303 0.058212418 1.054 2.3457638e-38
0.045276325 0.058212418 1.054 1.8421196e-38
0.033264238 0.063756458 1.054 2.3101152e-38
0.038623478 0.062647656 1.054 2.3475021e-38
0.0420423 0.061446443 1.054 2.3484652e-38
0.029568214 0.066528477 1.054 2.2556986e-38
0.032340232 0.066528477 1.054 1.8494602e-38
0.023100166 0.071148515 1.054 2.3492666e-38
0.025872186 0.070224509 1.054 2.3503428e-38
0.028644206 0.069300503 1.054 2.1010199e-38
0.023100166 0.073920533 1.054 2.3509527e-38
0.025564184 0.073612526 1.0540001 2.0554225e-38
0.02217616 0.077616557 1.054 2.3416615e-38
0.02494818 0.077616557 1.054 1.8624249e-38
0.02217616 0.081312582 1.054 2.1294691e-38
0.02494818 0.081312582 1.054 2.3509886e-38
0.063756458 0.081312582 1.054 2.3509886e-38
0.065604471 0.081312582 1.054 2.3509886e-38
0.023100166 0.085932627 1.0540001 2.203188e-38
0.025687385 0.085563019 1.054 2.1017727e-38
0.066528477 0.084084608 1.054 2.3509886e-38
0.069300503 0.084084608 1.054 2.3509886e-38
0.023100166 0.09055265 1.054 1.8428941e-38
0.02494818 0.09055265 1.054 2.3132348e-38
0.023100166 0.093324669 1.054 2.4795584e-39
0.02494818 0.094248682 1.054 8.4737149e-39
0.026796192 0.097020701 1.054 1.3775324e-39
0.028644206 0.097944707 1.054 8.1989272e-39
0.03049222 0.10164073 1.054 3.6734198e-40
0.022272155 0.051037338 1.0585001 2.3452896e-38
0.015148215 0.054105528 1.0580001 2.3454767e-38
0.018532734 0.054671563 1.057 2.3447522e-38
0.022272155 0.053821191 1.0585001 2.3449295e-38
0.026019463 0.053897463 1.0599999 2.345144e-38
0.02973653 0.053897463 1.0599999 2.3452884e-38
0.033453599 0.053897463 1.0599999 2.3451468e-38
0.037116751 0.053821195 1.0585001 2.3454013e-38
0.01517802 0.057304777 1.0599999 2.2244323e-38
0.018585332 0.057614531 1.0599999 2.344432e-38
0.022302398 0.057614528 1.0599999 2.3450042e-38
0.026019463 0.057614528 1.0599999 2.3452874e-38
0.02973653 0.057614528 1.0599999 2.3449644e-38
0.033453599 0.057614528 1.0599999 2.3450714e-38
0.037116751 0.057533003 1.0585001 2.3449644e-38
0.015797531 0.062260862 1.0599999 6.9794977e-39
0.018895088 0.06164135 1.0599999 1.6905998e-38
0.022302398 0.061331596 1.0599999 2.3447916e-38
0.02597037 0.062141638 1.0580001 2.3461188e-38
0.029680427 0.062141638 1.0580001 2.3469123e-38
0.033406258 0.061243489 1.0585001 2.3460138e-38
0.03709111 0.061200753 1.0577501 2.3460554e-38
0.015797531 0.065977931 1.0599999 7.1775867e-39
0.018585332 0.065977931 1.0599999 4.4999393e-39
0.02228136 0.065913938 1.059 1.3964379e-38
0.025945827 0.066717841 1.057 2.3478205e-38
0.015797531 0.070624262 1.0599999 2.044621e-38
0.018545225 0.070473693 1.05775 9.8332546e-39
0.021930402 0.070115507 1.057 1.9413697e-38
0.015797531 0.074341327 1.0599999 2.3502665e-38
0.018545225 0.074184194 1.05775 2.147508e-38
0.021312643 0.074130937 1.057 2.3508421e-38
0.015797531 0.078058392 1.0599999 2.2580735e-38
0.018532734 0.077837482 1.057 2.2860213e-38
0.015797531 0.081775457 1.0599999 5.1574958e-39
0.018557718 0.081659742 1.0585001 2.2863039e-38
0.018876679 0.085102998 1.059 1.7048213e-38
0.021312643 0.085250571 1.057 2.3503323e-38
0.019514598 0.089209586 1.0599999 9.8422201e-39
0.021332806 0.089970551 1.0580001 1.5654149e-38
0.023165917 0.095443577 1.057 0
0.023165917 0.097296849 1.057 0
0.025686039 0.098719969 1.059 0
0.028725738 0.10193003 1.057 1.4012985e-44
0.026403736 0.050633043 1.063 2.3451091e-38
0.029510062 0.050633043 1.063 2.3454684e-38
0.033548277 0.05125431 1.063 2.3457211e-38
0.013046551 0.058709484 1.063 1.4418173e-38
0.013605691 0.061318804 1.063 8.0818824e-39
0.017706035 0.060573284 1.063 1.7455584e-38
0.013605691 0.065419145 1.063 1.1221259e-38
0.013046553 0.069892243 1.063 2.2192134e-38
0.013046551 0.074551724 1.063 2.3132475e-38
0.013046551 0.078279316 1.063 1.0777487e-38
0.013357184 0.081696272 1.063 9.2161438e-40
0.015220977 0.085423857 1.063 4.6097114e-40
0.017706035 0.086666383 1.063 6.5386842e-39
0.017706035 0.089462072 1.063 0
0.019569829 0.09412156 1.063 5.5175146e-40
0.021433622 0.095053457 1.063 1.2611686e-44
0.019569829 0.097849146 1.063 1.8446735e-39
0.021433622 0.097849146 1.063 3.0828566e-44
0.0096658338 0.065166436 1.0670002 1.9621512e-38
0.010289436 0.075767666 1.067 1.1434301e-38
0.010289436 0.077638477 1.067 0
0.012160243 0.083250895 1.067 4.4315181e-39
0.013095647 0.086057104 1.067 2.2144804e-39
0.015278256 0.089486919 1.0670002 0
0.017772663 0.093540333 1.067 1.0127296e-39
0.0065662335 0.066600367 1.0700001 2.3509886e-38
0.0084422994 0.066600367 1.0700001 2.2940184e-38
0.0093803331 0.069414467 1.0700001 1.981312e-38
0.0096930116 0.074104637 1.0700001 1.659333e-38
0.0093803331 0.0787948 1.0700001 0
0.010318367 0.082546934 1.0700001 4.703775e-39
0.012194433 0.087237097 1.0700001 3.4112383e-39
0.014070501 0.09098924 1.0700001 5.6051939e-45
0.0065846429 0.069609083 1.073 2.3509853e-38
0.008465969 0.073371731 1.073 2.248881e-38
0.0065846429 0.077134386 1.073 3.6859755e-39
0.008465969 0.079956375 1.073 0
0.010347296 0.085600361 1.073 3.133948e-39
0.0066091898 0.073645256 1.077 1.9628894e-38
0.0066091898 0.080254443 1.077 5.5101298e-40
0.0084975297 0.082142793 1.077 9.5432629e-41
0.0047515333 0.071272999 1.084 2.3500804e-38
0.0047515333 0.074123919 1.084 1.4738215e-38
0.0028666998 0.0716675 1.09 1.9343055e-38
