# .PCD v0.7 - Point Cloud Data file format
VERSION 0.7
FIELDS x y z rgb
SIZE 4 4 4 4
TYPE F F F F
COUNT 1 1 1 1
WIDTH 118
HEIGHT 1
VIEWPOINT 0 0 0 1 0 0 0
POINTS 118
DATA ascii
-0.044159453 0.11986136 1.028 2.4950175e-39
-0.041334834 0.11861299 1.025 1.9452622e-38
-0.037814137 0.11794233 1.027 2.3509886e-38
-0.034006428 0.11821061 1.0262001 2.3509886e-38
-0.030581638 0.1178275 1.026 2.3509886e-38
-0.026303286 0.11802387 1.0257499 2.3509886e-38
-0.021581121 0.11869913 1.0257499 2.3509886e-38
-0.018024266 0.11896016 1.028 2.3509886e-38
-0.014419412 0.11896016 1.028 2.3509886e-38
-0.0099133467 0.11986136 1.0280001 2.3509886e-38
-0.0054072798 0.11986136 1.028 2.3509886e-38
-0.0018024265 0.11986136 1.028 2.3509886e-38
-0.044159453 0.12256501 1.028 2.1233707e-39
-0.04133483 0.12220733 1.025 2.0371327e-38
-0.037740499 0.12220733 1.025 2.3509886e-38
-0.034146167 0.12220733 1.025 2.3509886e-38
-0.030551832 0.12220733 1.025 2.3509886e-38
-0.026058916 0.12220734 1.0250001 2.3509886e-38
-0.021566 0.12220733 1.025 2.3509886e-38
-0.018024266 0.12256502 1.028 2.3509886e-38
-0.014419412 0.12256502 1.028 2.3509886e-38
-0.0099045802 0.12244491 1.027 2.3509886e-38
-0.0054072798 0.12256502 1.028 2.3509886e-38
-0.0018024266 0.12256501 1.028 2.3509886e-38
0.0018024265 0.12256501 1.028 2.3509886e-38
0.0054072798 0.12256501 1.028 2.3509886e-38
0.0095460229 0.12267319 1.0274 2.3509886e-38
0.014706668 0.12274532 1.027 2.3509886e-38
0.017723862 0.12286542 1.0280001 2.3509886e-38
0.020727905 0.12346622 1.028 2.3509886e-38
0.037850957 0.12346622 1.028 2.3509886e-38
0.041455813 0.12346622 1.028 2.3509886e-38
-0.044159453 0.12616986 1.028 2.906293e-42
-0.041396637 0.12598576 1.0265 1.889363e-38
-0.037740499 0.12580165 1.025 2.2496462e-38
-0.034146167 0.12580165 1.025 2.2680851e-38
-0.030551832 0.12580165 1.025 2.3049631e-38
-0.026058916 0.12580165 1.0250001 2.3417691e-38
-0.021566 0.12580165 1.025 2.3509886e-38
-0.018024266 0.12616986 1.028 2.3509886e-38
-0.014398372 0.12598445 1.0265 2.3509886e-38
-0.0098958127 0.12592439 1.026 2.3509886e-38
-0.0053993897 0.12598445 1.0265 2.3509886e-38
-0.0017997966 0.12598445 1.0265 2.3509886e-38
0.0017971665 0.12580165 1.025 2.3509886e-38
0.0054072798 0.12616986 1.028 2.3509886e-38
0.0099019501 0.12604713 1.0270001 2.3509886e-38
0.01438851 0.12589304 1.02575 2.3509886e-38
0.017997965 0.12598445 1.0265 2.3509886e-38
0.021597559 0.12598445 1.0265 2.3509886e-38
0.026097052 0.12598445 1.0265 2.3509886e-38
0.030551832 0.12580165 1.025 2.3509886e-38
0.034196131 0.12598445 1.0265 2.3509886e-38
0.037795726 0.12598445 1.0265 2.3509886e-38
0.041395321 0.12598445 1.0265 2.3509886e-38
0.045028452 0.12607715 1.0272499 1.89923e-38
-0.041155409 0.12947431 1.0280001 8.2027934e-39
-0.037795726 0.12958667 1.0265 8.7488724e-39
-0.034146167 0.12939599 1.025 7.3731295e-39
-0.030551832 0.12939599 1.025 9.5854644e-39
-0.026058916 0.12939601 1.0250001 1.2166578e-38
-0.021566 0.12939599 1.025 1.3734282e-38
-0.018024266 0.12977472 1.028 1.5210488e-38
-0.014377332 0.12939599 1.025 1.6317913e-38
-0.0098958137 0.12952223 1.026 1.7701218e-38
-0.0053915 0.12939599 1.025 1.8807561e-38
-0.0017978239 0.12949133 1.02575 1.972987e-38
0.0017997966 0.12958667 1.0265 2.0834068e-38
0.0054072798 0.12977472 1.028 2.1572705e-38
0.009907648 0.12971203 1.0274999 2.2127674e-38
0.014377332 0.12939599 1.025 2.2588654e-38
0.017971667 0.12939599 1.025 2.2864522e-38
0.021566 0.12939599 1.025 2.3232944e-38
0.026058916 0.12939601 1.0250001 2.3509886e-38
0.030551832 0.12939599 1.025 2.3509886e-38
0.034146167 0.12939599 1.025 2.3509886e-38
0.037740499 0.12939599 1.025 2.3509886e-38
0.04133483 0.12939599 1.025 2.3509886e-38
0.045827746 0.12939601 1.0250001 8.3898864e-39
0.050431784 0.12967937 1.0272499 1.0201607e-39
0.054072797 0.13067593 1.028 3.79445e-40
0.057921074 0.12994801 1.027 4.2473328e-39
0.062092986 0.12958404 1.0265 6.7344442e-39
0.066689782 0.12977472 1.028 6.0916042e-39
0.069994234 0.13007513 1.0280001 5.8153788e-39
0.073683828 0.13029458 1.025 4.3441976e-39
0.077504337 0.13067593 1.028 6.8244538e-39
0.021581121 0.13308829 1.02575 1.0874431e-38
0.026058912 0.13388892 1.025 8.5716839e-39
0.030551834 0.13388892 1.0250001 1.0139365e-38
0.034146167 0.13388892 1.0250001 1.0878015e-38
0.037740499 0.13388892 1.0250001 1.1708135e-38
0.04133483 0.1338889 1.0250001 1.2629745e-38
0.045827746 0.13388892 1.025 3.4119838e-39
0.050200909 0.13368516 1.0262001 1.206518e-42
0.057755329 0.13368517 1.0262001 2.7819138e-40
0.062002249 0.13388892 1.025 4.1156136e-42
0.066495165 0.13388892 1.0250001 5.5701614e-42
0.070089504 0.1338889 1.0250001 6.6589703e-42
0.073683843 0.1338889 1.0250001 5.9499133e-42
0.077189974 0.13368517 1.0262001 3.8752643e-39
-0.035249889 0.11659579 1.031 2.3509886e-38
-0.02440377 0.11659579 1.031 2.3509886e-38
0.011749962 0.12201884 1.031 2.3509886e-38
0.022596082 0.12382654 1.031 2.3509886e-38
0.025307612 0.12382654 1.031 2.3509886e-38
0.029826827 0.12382655 1.031 2.3509886e-38
0.034346044 0.12382654 1.031 2.3509886e-38
0.044288322 0.12382654 1.031 2.3509886e-38
0.047903694 0.12744191 1.031 7.012141e-39
0.049711384 0.12744191 1.031 9.870162e-39
0.062365185 0.12744191 1.031 5.8182739e-39
0.064172879 0.12744191 1.031 5.8182739e-39
0.054230601 0.12924959 1.031 4.3435026e-39
0.056942131 0.12924959 1.031 6.9220949e-39
0.071403623 0.12924959 1.031 5.3558608e-39
0.07411515 0.12924959 1.031 4.6204468e-39
-0.040949099 0.11738741 1.038 2.3509886e-38
