# .PCD v0.7 - Point Cloud Data file format
VERSION 0.7
FIELDS x y z rgb
SIZE 4 4 4 4
TYPE F F F F
COUNT 1 1 1 1
WIDTH 715
HEIGHT 1
VIEWPOINT 0 0 0 1 0 0 0
POINTS 715
DATA ascii
0.0015008533 0.078044362 0.85600001 6.9233547e-39
-0.00075217994 0.071457095 0.85799998 2.3509886e-38
-0.015078666 0.074639395 0.86000001 2.2953371e-38
-0.0088886991 0.074267685 0.8592 2.3509886e-38
-0.006268166 0.075468719 0.85799998 2.3509886e-38
-0.0012536333 0.075468719 0.85799998 2.3509886e-38
0.0026326301 0.075217992 0.85799998 2.3509886e-38
0.0052652596 0.074465811 0.85799998 2.3509886e-38
-0.015078666 0.076147266 0.86000001 1.0598833e-38
-0.0090423785 0.077609986 0.85950005 1.0973029e-38
-0.0060213846 0.078272745 0.8585 7.8423669e-39
-0.0022565399 0.07837715 0.85799998 9.9603776e-39
0.0037608999 0.078226715 0.85799998 3.8826729e-39
0.0057719732 0.078538813 0.85866666 1.2107723e-39
-0.0082932664 0.081424795 0.86000001 2.7008991e-39
-0.006029421 0.082147464 0.85966671 1.7807477e-39
-0.0022582933 0.082052492 0.85866666 5.8403037e-40
0.0022618 0.082178727 0.86000007 7.6986777e-40
0.0057801558 0.081173487 0.86000001 1.3230458e-39
-0.0052775331 0.085194461 0.86000001 3.0887281e-40
-0.0037696667 0.085194461 0.86000001 1.2448155e-40
0.0015078665 0.085194461 0.86000001 1.0421387e-39
-0.02040354 0.074812971 0.86199999 2.1481893e-38
-0.018136479 0.074812971 0.86199999 7.3723097e-39
0.0068011796 0.074057281 0.86199999 2.3509886e-38
0.0090682395 0.074812971 0.86199999 2.3325856e-38
-0.02040354 0.076324344 0.86199999 2.3234379e-38
-0.018136479 0.076324344 0.86199999 2.8233642e-40
-0.013224515 0.077835716 0.86199999 8.3025729e-39
-0.010957455 0.078213565 0.86199999 7.845566e-39
0.0068011796 0.077080026 0.86199999 1.1719607e-38
0.0090682395 0.077835724 0.86199999 6.1053747e-39
-0.012846673 0.082369849 0.86199999 1.2304634e-39
-0.010255747 0.082585752 0.86200005 1.874388e-39
0.0062973886 0.083377421 0.86199999 1.1372042e-39
0.0088163447 0.081362262 0.86199999 1.596767e-39
-0.0090682395 0.085392587 0.86199999 1.7825778e-39
-0.0060454933 0.086148277 0.86199999 1.9655299e-39
-0.0019647852 0.086299412 0.86199999 1.8718951e-39
0.0026449033 0.086526118 0.86199999 2.8824429e-39
0.0052898065 0.086148277 0.86199999 2.3303327e-39
-0.0015113732 0.088415332 0.86199999 2.0573598e-39
0.0022670599 0.08841534 0.86199999 2.2406776e-39
0.015353413 0.074030817 0.86700004 6.3762121e-39
0.018241679 0.073726788 0.86700004 1.8603947e-39
0.021281963 0.073726788 0.86700004 1.1900372e-38
-0.020450881 0.078016318 0.86400002 2.2680823e-38
-0.018210119 0.078911826 0.86550003 2.3163674e-39
-0.01540128 0.079026245 0.86400002 2.1488351e-40
0.011361601 0.078016326 0.86400002 2.1886881e-41
0.014431394 0.078226425 0.86633331 1.4073297e-39
0.018241679 0.078287207 0.86700004 4.2606984e-39
0.021607706 0.078287207 0.8670001 1.281912e-38
-0.018241677 0.082087554 0.86699998 2.6869534e-39
-0.0151488 0.081803516 0.86400002 1.4145057e-39
0.01086979 0.082151555 0.86500001 1.3197975e-39
0.013681259 0.081327483 0.86699998 2.7898886e-39
-0.018241677 0.084367767 0.86699998 2.3192414e-39
-0.014412777 0.085719593 0.86528569 1.7825652e-39
-0.010243849 0.086878106 0.86550003 1.1375811e-39
-0.0068169599 0.087105595 0.86400002 1.5074524e-39
0.0068169599 0.086348161 0.86400002 2.2381609e-39
0.0089630401 0.085525498 0.86639994 2.0548501e-39
-0.0091208396 0.088928185 0.86699998 1.2450257e-40
-0.0059201303 0.090021215 0.86580002 2.0570291e-39
-0.0024939915 0.090749279 0.86571431 1.964832e-39
0.0019714481 0.0908686 0.86519998 1.781489e-39
0.0058210669 0.089332335 0.86600006 1.6874941e-39
0.016798686 0.067958318 0.87099999 2.3509886e-38
0.014195162 0.070369154 0.87060004 2.3509886e-38
0.017850861 0.070031121 0.87019998 1.4842031e-38
0.021355599 0.070167527 0.87 1.0692856e-38
0.010411586 0.073642917 0.86900008 2.1481585e-38
0.013331909 0.073515944 0.86900002 1.8166845e-38
-0.021584993 0.079483569 0.86900008 2.2956335e-38
0.023616523 0.079991452 0.86900002 1.2814489e-38
0.025140168 0.079991452 0.86900002 1.22613e-38
-0.021331053 0.082276918 0.86900002 2.2404251e-38
0.014474643 0.082530856 0.86900008 2.2349183e-39
0.017850861 0.082543947 0.87019998 4.5351441e-39
0.022100767 0.082308777 0.86933339 1.327688e-38
0.025140168 0.082276918 0.86900002 1.3641718e-38
-0.02136378 0.086219281 0.87033331 2.1300069e-38
-0.018304799 0.086948678 0.87 2.6887442e-39
-0.015998289 0.087609686 0.86900002 8.6097179e-40
0.011046438 0.086466946 0.86900002 2.2374449e-39
0.013739413 0.086251728 0.87066668 2.2334946e-39
0.016798686 0.08552058 0.87099999 2.2371043e-39
0.022143722 0.084757015 0.87099999 1.3553108e-38
0.025198029 0.084757008 0.87099999 1.4377146e-38
-0.016544161 0.089847527 0.87099999 6.7335054e-40
-0.013721148 0.089947313 0.86949998 1.5981767e-39
-0.010284615 0.090276062 0.86900002 8.6170747e-40
0.0068564098 0.090656973 0.86900002 1.7782576e-39
0.0099124694 0.089964114 0.8696667 1.7764709e-39
0.012980803 0.089338467 0.87099999 2.4175355e-39
-0.013744379 0.092392772 0.87099999 2.0566437e-39
-0.0099188993 0.093849212 0.87033325 1.4105624e-39
-0.0062525622 0.094096661 0.86980003 1.9612209e-39
-0.0025933553 0.094444528 0.87019998 9.4780465e-40
0.0026703265 0.093485102 0.87049997 3.0887421e-41
0.0061024763 0.092286699 0.87 9.5210664e-40
0.0083993431 0.092392772 0.87099999 1.6864333e-39
0.011506249 0.066736244 0.875 2.3509886e-38
0.0138075 0.066736244 0.875 2.3509886e-38
0.01800717 0.066276439 0.87400001 2.3509886e-38
0.020711249 0.065969162 0.875 1.3829332e-38
0.010183736 0.07019683 0.87442863 2.3509886e-38
0.013775939 0.068114363 0.87300003 2.3509886e-38
0.019133249 0.068114363 0.87300003 2.3509869e-38
0.021429241 0.068114363 0.87300003 9.9581692e-39
-0.023725232 0.081890307 0.87300003 1.8346196e-38
-0.023779582 0.08591333 0.875 1.5492826e-38
0.019133249 0.085716955 0.87300003 9.0412478e-39
0.02219457 0.086482286 0.87300003 1.3369074e-38
-0.022212688 0.089100599 0.8736667 2.203548e-38
-0.018637642 0.090633593 0.8736667 4.4340054e-39
0.013775939 0.090308934 0.87300003 2.1405927e-39
0.017240088 0.088497311 0.87400001 3.5224538e-39
0.021478333 0.088214576 0.875 1.4107704e-38
-0.016607866 0.093257748 0.87433338 8.5630827e-40
-0.013784268 0.094955705 0.87349999 2.0570081e-39
-0.00076532998 0.095666245 0.87300003 1.6832117e-39
0.002298912 0.095739305 0.8736667 1.039266e-39
0.0061296532 0.095010504 0.87400001 5.8152345e-40
0.0099650696 0.094024256 0.87433338 1.6839193e-39
-0.013040416 0.097419582 0.875 6.7588969e-40
-0.0099574719 0.09803763 0.87366676 3.0709456e-40
-0.0061257081 0.09801878 0.87349999 8.5702713e-40
-0.0026052778 0.097944178 0.87420005 7.6520425e-40
0.0015341666 0.097419582 0.875 1.1329078e-39
0.018515199 0.059402931 0.88 2.3509886e-38
0.021326963 0.05884362 0.87933338 1.8254002e-38
-0.022326946 0.062362168 0.87822235 2.3509886e-38
-0.019286666 0.061717331 0.88 2.3509886e-38
0.014657865 0.062488798 0.88 2.3509886e-38
0.017905477 0.062574275 0.8785001 2.3509886e-38
0.022129258 0.062539205 0.87800014 1.7054738e-38
0.025913684 0.063373059 0.87800002 1.2629352e-38
0.010332393 0.065853447 0.87960005 2.3509886e-38
0.01387062 0.064728685 0.87900001 2.3509886e-38
0.016933693 0.065425634 0.87800002 2.3509886e-38
0.023091398 0.066195346 0.87800002 1.4369872e-38
0.02540054 0.066195346 0.87800002 1.2443885e-38
0.006166473 0.07014969 0.87933344 2.3509886e-38
0.0092365593 0.068504483 0.87800002 2.3509886e-38
-0.02540054 0.081589609 0.87800002 1.8349804e-38
-0.02540054 0.086207896 0.87800002 1.724344e-38
-0.022321686 0.091082752 0.87800002 2.3140744e-38
0.014624554 0.091595888 0.87800002 1.9562042e-39
0.018495036 0.090159029 0.87900001 6.1932488e-39
0.021601066 0.090261593 0.88 1.3832918e-38
-0.020829599 0.09334746 0.88 2.3509886e-38
-0.018744303 0.094233476 0.87866676 5.4474441e-39
0.013619309 0.093791053 0.87933338 2.3257042e-39
-0.016702838 0.096874587 0.87933338 3.0672181e-40
-0.014122516 0.098855272 0.87866676 7.6809092e-40
-0.00076971331 0.099293016 0.87800002 1.0428673e-39
0.0026939968 0.098908164 0.87800002 1.6842655e-39
0.0061647198 0.098636389 0.87900007 2.2381539e-39
0.010213384 0.098086506 0.87925005 2.788462e-39
0.013114933 0.096433327 0.88 3.524253e-39
-0.013114933 0.10106213 0.88 3.5573363e-41
-0.0097082062 0.1015408 0.87880003 2.1459905e-39
-0.0061577065 0.10160217 0.87800002 3.4327594e-39
-0.0023091401 0.10160216 0.87800014 3.2494332e-39
0.0023132311 0.10175703 0.87933338 3.3405386e-39
0.0054002665 0.10106213 0.88 4.2631829e-39
-0.0084861331 0.104148 0.88 3.9715741e-40
-0.0061717331 0.104148 0.88 3.9786647e-40
-0.0023143999 0.10491948 0.88000005 6.74061e-40
0.0015429332 0.10491946 0.88 2.0523305e-39
-0.02087694 0.05953794 0.88200003 2.3509886e-38
-0.0193305 0.05953794 0.88200003 2.3509886e-38
0.010825081 0.062630817 0.88200003 2.3509886e-38
0.01314474 0.062630817 0.88200003 2.3509886e-38
0.01623762 0.061084379 0.88200003 2.3509886e-38
0.0038661002 0.067270137 0.88200003 2.3509886e-38
0.0061857598 0.067270137 0.88200003 2.3509886e-38
0.0090209004 0.064692743 0.88200009 2.3509886e-38
0.0030928801 0.070363015 0.88200009 2.3509886e-38
-0.026676089 0.085440807 0.88200003 1.3646376e-38
-0.022423379 0.093946226 0.88200003 2.3047391e-38
0.014691181 0.095106058 0.88200003 2.9725212e-39
0.016753102 0.092528656 0.88200009 1.6864445e-39
-0.02165016 0.096652493 0.88200003 2.0008544e-38
-0.017784061 0.098198943 0.88200009 2.7884788e-39
0.01314474 0.098198935 0.88200003 3.7097331e-39
-0.014691181 0.10129182 0.88200003 3.2690892e-41
-0.0115983 0.10283826 0.88200003 1.6839306e-39
0.0064435001 0.10232278 0.88200009 3.0668244e-39
0.01005186 0.10129182 0.88200009 4.170651e-39
-0.01005186 0.10438471 0.88200003 2.6987607e-41
-0.0061857598 0.10593114 0.88200003 1.3183416e-39
0.0038661002 0.10515793 0.88200003 5.919833e-39
0.0054125399 0.10438471 0.88200003 5.8283254e-39
0.013219257 0.050544217 0.88700002 2.3509886e-38
-0.020995291 0.054432232 0.88700002 2.3509886e-38
-0.019440083 0.054432232 0.88700002 2.194256e-38
0.010886447 0.055209834 0.88700002 2.212586e-38
0.013996861 0.053654633 0.88700002 2.1667408e-38
0.017573835 0.054587752 0.88700002 2.3509886e-38
-0.02094795 0.057412896 0.88499999 2.3509886e-38
-0.017872354 0.058283184 0.88642859 2.3509886e-38
-0.01399686 0.059097856 0.88700002 2.3509886e-38
-0.01166405 0.059875458 0.88700002 2.3509886e-38
0.00699843 0.059875458 0.88700002 2.3509886e-38
0.010103388 0.058290251 0.88655561 2.3140742e-38
0.013991892 0.05829775 0.88666666 2.3509886e-38
0.017633898 0.057781972 0.88557154 2.3509886e-38
-0.017097192 0.062172759 0.8865 2.3509886e-38
-0.01399686 0.062208265 0.88700002 2.3509886e-38
-0.01166405 0.062208265 0.88700002 2.3509886e-38
0.0033696142 0.062467467 0.88700002 2.3509886e-38
0.0062208269 0.062208265 0.88700002 2.3509886e-38
0.0096981246 0.061680071 0.88499999 2.3509886e-38
0.013965299 0.061292149 0.88499999 2.3509886e-38
-0.020995291 0.066096283 0.88700002 2.3509886e-38
-0.018179087 0.065104946 0.88620007 2.3509886e-38
-0.013996861 0.066096283 0.88700002 2.3509886e-38
-0.010108843 0.066096283 0.88700002 2.3509886e-38
-0.0062187812 0.066070862 0.88666672 2.3509886e-38
-0.0025261149 0.066271618 0.88674998 2.3509886e-38
0.0021355599 0.065807864 0.88575006 2.3509886e-38
0.006209868 0.065207779 0.88550001 2.3509886e-38
-0.0062146895 0.06912867 0.88600004 2.3509886e-38
-0.0023313486 0.069958284 0.88666672 2.3509886e-38
0.00077584997 0.069826499 0.88499999 2.3509886e-38
-0.0007776033 0.072317109 0.88700002 2.3509886e-38
0.00232755 0.073188514 0.88499999 2.3509886e-38
0.0062067993 0.073705748 0.88499999 2.3509886e-38
0.0085343495 0.073705748 0.88499999 2.3509886e-38
-0.029499393 0.082286999 0.88550001 1.2261652e-38
-0.027154749 0.082240097 0.88499999 1.1895752e-38
-0.029834844 0.085952289 0.88557154 1.1801771e-38
-0.029548928 0.090201981 0.88700002 1.3091061e-38
-0.026408706 0.090099409 0.88600004 1.73313e-38
-0.029268101 0.092982486 0.88633335 1.2354573e-38
-0.025811914 0.094125733 0.88550007 1.3738124e-38
0.01836909 0.094431028 0.88533342 7.6672998e-39
0.021607906 0.094359316 0.88660002 1.4383939e-38
-0.025258519 0.097534426 0.88650006 7.2945236e-39
-0.021723799 0.098532945 0.88499999 5.546436e-39
-0.019396249 0.098532945 0.88499999 4.2554141e-39
0.01474115 0.097757094 0.88499999 2.6952154e-39
0.016848072 0.09771882 0.88700002 6.3815286e-39
-0.024105703 0.10031083 0.88700002 8.5045757e-39
-0.021772895 0.10031083 0.88700002 1.685748e-39
-0.017612819 0.10179006 0.88633335 4.0076716e-40
-0.013965299 0.10318805 0.88499999 3.3003381e-41
0.010102415 0.10334351 0.88633335 4.266099e-39
0.013727724 0.10075384 0.88633341 5.1876686e-39
-0.013716619 0.10533705 0.88566673 5.0032829e-39
-0.010480549 0.10596357 0.88550001 2.4250717e-39
-0.0062067993 0.10784315 0.88499999 1.1262173e-38
-0.0023275502 0.10784315 0.88499999 8.9572665e-39
0.00077584997 0.10784315 0.88499999 8.588882e-39
0.0064706765 0.10585429 0.88566673 5.8272899e-39
0.0090720383 0.10549485 0.88700002 8.3147796e-39
-0.0093312394 0.10886446 0.88700002 1.0526401e-38
-0.0062208269 0.10964207 0.88700002 1.0709366e-38
-0.0023328098 0.10964207 0.88700002 8.8654409e-39
0.0023328098 0.10860527 0.88700002 8.2197477e-39
0.0062208269 0.10808686 0.88700002 6.9300991e-39
-0.016403308 0.047647707 0.89099997 2.3509886e-38
-0.014841088 0.047647707 0.89099997 2.3509886e-38
-0.0093733193 0.046866596 0.89099997 2.3509886e-38
-0.0023433301 0.047647707 0.89099997 2.3509886e-38
0.0031174268 0.047540754 0.889 2.3509886e-38
0.006245811 0.046839859 0.89049995 2.3509886e-38
0.0093733193 0.047647707 0.89099997 2.3509886e-38
-0.021089969 0.049209926 0.89099997 2.2217994e-38
-0.017965529 0.049991034 0.89099997 2.3325485e-38
-0.014059979 0.049991034 0.89099997 2.3509886e-38
-0.01015443 0.049991038 0.89099997 2.3509886e-38
-0.0062488797 0.049991034 0.89099997 2.3509886e-38
-0.0023430376 0.049972042 0.89066666 2.3509886e-38
0.0027312548 0.050325483 0.88999999 2.3509886e-38
0.0062458115 0.049963422 0.89050001 2.3509886e-38
0.01015443 0.049991038 0.89099997 2.3509886e-38
0.013278869 0.049209926 0.89099997 2.3509886e-38
-0.02104263 0.052216895 0.889 2.3509886e-38
-0.017479857 0.053552937 0.88900006 1.862494e-38
-0.014033387 0.053795189 0.88933337 1.8900466e-38
-0.01014391 0.05384165 0.89011109 1.7979232e-38
-0.0062468341 0.053875841 0.89066666 1.8069989e-38
-0.0023406027 0.053815156 0.88966668 1.8068539e-38
0.0023415769 0.053828988 0.88988888 1.7238425e-38
0.00624099 0.0538361 0.88999999 1.604203e-38
0.009908963 0.053330261 0.88900006 1.5770132e-38
-0.016366489 0.056893036 0.889 2.3509886e-38
-0.01402842 0.056893036 0.889 2.3509886e-38
-0.010131637 0.057672393 0.88900006 2.3049626e-38
-0.0062348531 0.057672389 0.889 2.1020604e-38
-0.0023380702 0.057672393 0.88900006 2.0927326e-38
0.00233807 0.057672393 0.88900006 2.0558184e-38
0.0062348531 0.057672389 0.889 2.1387943e-38
-0.0093522798 0.06156918 0.88900006 2.3509886e-38
-0.0062348535 0.06156918 0.88900006 2.3509886e-38
-0.00233807 0.061569173 0.88900006 2.3509886e-38
0.0018184989 0.061049603 0.88900006 2.3509886e-38
0.0054554963 0.060010463 0.889 2.3509886e-38
-0.016366489 0.067024678 0.889 2.3509886e-38
-0.010131637 0.066245317 0.88900006 2.3509886e-38
-0.00077935663 0.064686604 0.889 2.3509886e-38
-0.00233807 0.072480172 0.889 2.3509886e-38
-0.025718769 0.098978296 0.889 1.0428123e-38
0.018978957 0.098532945 0.88966668 1.2272025e-38
0.021577982 0.098013386 0.88966668 1.3279018e-38
-0.024968341 0.10220969 0.88999999 1.2089071e-38
-0.021821987 0.10287507 0.889 1.0527875e-38
-0.019483916 0.10287507 0.889 5.1845157e-39
0.01429931 0.10321259 0.88966668 1.1353986e-38
0.016403308 0.10076318 0.89099997 9.6955448e-39
-0.021089969 0.10544984 0.89099997 1.1449763e-38
-0.017638357 0.10597935 0.89020008 1.0436019e-38
-0.014807777 0.10677186 0.889 8.503854e-39
0.011179544 0.10633235 0.88966668 9.784907e-39
0.013278869 0.10544984 0.89099997 9.1402383e-39
-0.013789674 0.10901379 0.89033335 1.0988098e-38
-0.010760381 0.11056291 0.88940001 9.8810179e-39
-0.0062348531 0.111448 0.889 4.2592775e-39
-0.00233807 0.111448 0.88900006 7.2988452e-39
0.0026498127 0.11082452 0.88900006 8.4019432e-39
0.0062427428 0.11079313 0.88999999 9.4161063e-39
0.0093636755 0.10845242 0.88999999 8.5877932e-39
-0.0093733193 0.11326094 0.89099997 8.5910064e-39
-0.0062488797 0.11326094 0.89099997 7.576853e-39
-0.002342161 0.11395731 0.89033329 1.0519909e-38
0.0019523366 0.11358794 0.89049995 9.782735e-39
0.0054677697 0.11326094 0.89099997 9.9696458e-39
-0.013323579 0.047808137 0.89399999 2.3509886e-38
-0.0117561 0.047024399 0.89399999 2.3509886e-38
-0.0062699197 0.047808137 0.89399999 2.3509886e-38
0.00078373996 0.047808137 0.89399999 2.3509886e-38
0.0015674799 0.049375616 0.89399999 2.3509886e-38
-0.028998379 0.098751239 0.89399999 1.3921529e-38
-0.027430898 0.099534981 0.89399999 1.2456427e-38
-0.028998379 0.10188619 0.89399999 1.3460188e-38
-0.027430898 0.10188619 0.89399999 1.2179481e-38
0.017242279 0.10188619 0.89399999 1.153803e-38
-0.0195935 0.10737237 0.89399999 1.1727086e-38
0.013323579 0.10737237 0.89399999 9.0465727e-39
-0.016458539 0.10893986 0.89399999 1.1447625e-38
-0.014891059 0.11050734 0.89399999 1.1173208e-38
0.01018862 0.10998484 0.89399999 8.8632913e-39
-0.013323579 0.11207481 0.89399999 1.061859e-38
-0.01018862 0.11468729 0.89399999 9.7855629e-39
-0.0062699197 0.11520977 0.89399999 1.0520275e-38
0.0031349596 0.11520977 0.89399999 9.045163e-39
0.0065311659 0.11468729 0.89399999 7.847745e-39
0.0086211395 0.11285856 0.89399999 9.6923443e-39
-0.0023512198 0.11677726 0.89399999 9.3163717e-39
0.0023512198 0.11677726 0.89399999 8.2147269e-39
0.019128282 0.10245253 0.89666671 1.2269516e-38
0.02174776 0.10192887 0.89666671 1.3832198e-38
-0.025191892 0.10549105 0.898 1.1444398e-38
-0.022272592 0.10716899 0.89666671 1.1907892e-38
0.014924373 0.1068271 0.89600003 8.2179064e-39
0.017568983 0.10567574 0.89733332 1.0151497e-38
0.021255659 0.1047038 0.898 1.392619e-38
-0.021255659 0.10942728 0.898 1.3379034e-38
-0.018389311 0.11017561 0.89639997 1.1997929e-38
0.0117824 0.11075456 0.89600003 8.4963122e-39
0.014155536 0.10930543 0.89700001 7.0200737e-39
-0.017575704 0.11358415 0.89766663 9.9681913e-39
-0.01430264 0.11426228 0.89639997 9.3250023e-39
-0.0117824 0.11546752 0.89600003 9.507485e-39
0.010223687 0.11363003 0.89700001 7.5707784e-39
-0.013383193 0.11729975 0.898 6.7323367e-39
-0.010227194 0.11799993 0.89733332 6.0905826e-39
-0.0062839463 0.117824 0.89600003 4.6165596e-39
-0.0023564799 0.1186095 0.89600009 2.7704988e-39
0.0023564799 0.1186095 0.89600009 9.3308261e-40
0.0062909601 0.11795637 0.89700001 1.6688512e-39
0.008659713 0.11729975 0.898 2.9023834e-40
-0.0091845449 0.12097357 0.898 1.5726871e-39
-0.006297973 0.12123598 0.898 9.2912534e-40
-0.00236174 0.12123599 0.89799994 9.2732327e-40
0.0019681165 0.12084236 0.898 3.7236564e-40
0.0055107265 0.12044873 0.898 0
-0.027160009 0.1062634 0.90233338 9.6905198e-39
0.019746916 0.10663335 0.90100002 1.1064937e-38
0.021326669 0.10663335 0.90100002 1.438398e-38
-0.024936344 0.10964075 0.903 8.0306369e-39
-0.022396788 0.11092843 0.90166664 1.1995762e-38
0.014217779 0.1113726 0.90100002 6.3733128e-39
0.018193465 0.10969263 0.90233326 9.590795e-39
0.021326669 0.1082131 0.90100002 1.4472549e-38
-0.024540529 0.11320309 0.903 0
-0.022153802 0.11393204 0.90250003 4.984619e-39
-0.019746916 0.11453211 0.90100002 1.0148234e-38
0.01184815 0.11453211 0.90100002 7.7533788e-39
0.014241887 0.11393203 0.90250003 4.2478051e-39
-0.02137401 0.11636961 0.903 2.8626846e-39
-0.017875409 0.11753242 0.90220004 1.2957485e-39
-0.014492176 0.11883305 0.90166664 2.3102367e-39
0.010539871 0.11777928 0.90166664 6.5326853e-40
0.013457709 0.11636961 0.903 7.4657259e-40
-0.013975527 0.12155771 0.90233338 3.7057058e-40
-0.011330333 0.12199488 0.90166664 2.2169691e-39
0.0031595067 0.12243088 0.90100002 0
0.0065875659 0.12199488 0.90166664 0
0.0087079294 0.12111938 0.903 2.5111268e-42
-0.009229254 0.1247219 0.90233338 3.3226412e-39
-0.0063260267 0.12493989 0.90199995 4.3378553e-39
-0.0023722602 0.12493989 0.90199995 4.5215151e-39
0.0023745978 0.12503165 0.90266669 5.8100917e-39
0.0055414098 0.1242859 0.903 3.1389128e-39
-0.029387617 0.10643084 0.90600002 1.0695032e-38
-0.030036001 0.11076789 0.90640002 1.2444967e-38
-0.02716369 0.11071985 0.90600008 5.6300207e-39
0.01906224 0.11199066 0.90600002 1.2169041e-38
-0.029420055 0.11450055 0.90700001 1.1892161e-38
-0.02655213 0.11463398 0.90679997 3.2279246e-39
0.017950276 0.11421459 0.90600008 7.1955527e-39
-0.02467641 0.11780997 0.90799999 7.1746481e-43
-0.022398131 0.11866244 0.90600008 1.6605793e-39
-0.019326992 0.11940375 0.90600002 9.2555764e-41
0.011913899 0.11993326 0.90600002 6.4543555e-39
0.01429668 0.11834474 0.90600002 1.6627443e-39
0.017512292 0.11780997 0.90799999 7.8387445e-39
-0.02467641 0.12019801 0.90799999 5.5424157e-40
-0.022263825 0.12245192 0.90700001 2.48997e-39
-0.018282007 0.12240663 0.90666676 1.0137792e-39
-0.01509094 0.1231103 0.90600002 1.4349296e-42
0.010648344 0.12252925 0.90640002 1.06939e-38
0.014593577 0.12125935 0.90799999 5.7175682e-39
-0.016716279 0.12497409 0.90799999 7.3756504e-40
-0.014312459 0.12563246 0.90700006 3.7308591e-40
-0.010643084 0.12660505 0.90600008 8.3901512e-39
-0.0063540796 0.12787585 0.90600002 1.022977e-38
-0.00238278 0.12787585 0.90600002 1.0692897e-38
0.00238278 0.12787585 0.90600002 1.3004277e-38
0.0063540796 0.12628734 0.90600002 1.4567578e-38
0.010334147 0.12558542 0.90666676 1.2170912e-38
-0.010029768 0.13006857 0.90799999 1.2166943e-38
-0.0063681062 0.13054617 0.90799999 1.6128489e-38
-0.0023880401 0.13054618 0.90799999 1.5577824e-38
0.0019900333 0.13014817 0.90799999 1.567472e-38
0.0066334447 0.1292195 0.90799999 1.6776348e-38
0.0092868218 0.12868881 0.90799999 1.7055815e-38
-0.029517367 0.1172717 0.91000003 1.2443906e-38
-0.026858144 0.11780354 0.91000003 3.5037843e-39
-0.026645405 0.12142009 0.91000003 4.7019617e-39
0.013562033 0.12365383 0.91000003 1.3092878e-38
0.017550867 0.12046277 0.91000003 7.7523194e-39
-0.021539701 0.12524937 0.91000003 2.1219246e-39
-0.018348634 0.12578122 0.91000003 1.2003326e-39
0.013562033 0.12524937 0.91000003 1.2446057e-38
-0.014093879 0.12897229 0.91000003 6.4930706e-40
-0.0119665 0.13083375 0.91000003 6.5440652e-39
0.0031910664 0.13163151 0.91000003 1.1528435e-38
0.010370966 0.13003597 0.91000003 1.5761487e-38
-0.0095731998 0.13322704 0.91000003 6.9073925e-39
-0.0063821333 0.13322704 0.91000003 1.6029029e-38
-0.028814279 0.1192591 0.91299999 1.0970197e-38
0.017608726 0.12246068 0.91299999 7.6625662e-39
-0.025641624 0.12419736 0.91400003 9.2266395e-40
-0.022023618 0.12693256 0.91350007 1.9375376e-39
-0.018409124 0.12726305 0.91299999 1.0180952e-39
0.014815667 0.12613216 0.91350007 4.6385502e-40
0.0176473 0.12513539 0.91500002 7.1958834e-39
-0.0208559 0.12994829 0.91500002 1.9361082e-39
-0.01762889 0.12980628 0.91400003 1.8453279e-39
-0.015207537 0.13046466 0.91299999 8.3441158e-40
0.0120191 0.12980714 0.91400003 1.9379201e-39
-0.01684515 0.13235475 0.91500002 2.3984891e-39
-0.013621646 0.13354644 0.91400003 2.1226225e-39
-0.0096047595 0.13526703 0.91299999 6.6336797e-39
-0.0052047698 0.13494091 0.91350007 1.6488963e-38
-0.0016025465 0.1346148 0.91399997 1.5202781e-38
0.0016025465 0.1346148 0.91400003 1.2989836e-38
0.0059302994 0.13320161 0.91420001 1.3727089e-38
0.0088043632 0.13206545 0.91299999 1.8802128e-38
-0.01203225 0.13716765 0.91500002 6.8299287e-42
-0.0096258 0.13716765 0.91500002 6.4522101e-39
-0.00561505 0.13716766 0.91500008 5.6048351e-39
-0.0016043 0.13716765 0.91500002 8.1744354e-39
0.00080215 0.13716765 0.91500002 1.2399965e-38
-0.025503986 0.12697874 0.91866672 1.0155799e-39
0.016900379 0.12796001 0.91799998 2.5850509e-39
-0.028228667 0.12985188 0.92000002 7.9291633e-39
-0.025970373 0.13017447 0.92000002 1.7538497e-39
-0.02333862 0.13037436 0.91799998 1.7563595e-39
0.014227714 0.13020137 0.91866672 9.2554362e-41
0.018012576 0.12931418 0.92000002 8.7636099e-39
-0.033067867 0.13388452 0.92000002 1.3735341e-38
-0.029841734 0.13388452 0.92000002 1.1339325e-38
-0.021445019 0.13366537 0.91960001 2.1237127e-39
-0.017986862 0.13395934 0.91866672 2.3988464e-39
0.0099332174 0.13395934 0.91866672 1.2889693e-38
0.012626922 0.13351926 0.9193334 1.2153972e-38
-0.016900379 0.13600782 0.91799998 2.7669227e-39
-0.014217779 0.13654433 0.91799998 1.2914437e-39
-0.0088718664 0.13953027 0.92000002 5.8990714e-39
-0.0056428108 0.13942915 0.91933334 4.6061521e-40
-0.0016095599 0.13922693 0.91799998 7.8982114e-39
0.0018795732 0.13879153 0.91866672 1.3591655e-38
0.005408783 0.1372865 0.91885722 1.6093125e-38
0.0088718664 0.13630413 0.92000002 1.5627848e-38
-0.029939042 0.12380198 0.92299998 1.1705971e-38
-0.029615376 0.12639129 0.92299998 1.0600702e-38
-0.030748203 0.13027531 0.92299998 1.2536442e-38
0.015374102 0.1318936 0.92299998 9.18397e-41
0.016992429 0.1318936 0.92299998 3.0421027e-39
-0.025893226 0.13432111 0.92299998 1.9407549e-39
-0.023465736 0.13513026 0.92299998 2.4982643e-39
0.015374102 0.13351195 0.92299998 5.6939605e-39
0.016992429 0.13351195 0.92299998 3.7792459e-39
-0.021038245 0.1367486 0.92299998 6.5434052e-40
-0.017801594 0.13755776 0.92299998 2.3974395e-39
-0.013755776 0.13944581 0.92300004 9.2158495e-40
-0.010519123 0.13998525 0.92299998 6.0866898e-39
0.0064733066 0.13998525 0.92299998 2.2169789e-38
0.0097099598 0.13755776 0.92299998 2.1167512e-38
-0.0097099598 0.14160357 0.92299998 1.4557159e-38
-0.0059878086 0.14225091 0.92299998 1.5470851e-38
-0.0016183266 0.14160357 0.92299998 1.7588071e-38
0.0016183266 0.14160357 0.92299998 1.7941758e-38
0.0145965 0.13542308 0.92500001 1.3083931e-38
0.01702925 0.13542308 0.92500001 4.6140569e-39
-0.028922692 0.13758552 0.92500007 9.4035759e-39
-0.025949333 0.13785583 0.92500001 3.5080708e-39
-0.022300206 0.13826129 0.92500001 3.1403659e-39
-0.018651083 0.13866675 0.92500001 8.2941034e-40
0.010541917 0.13866675 0.92500001 2.089784e-38
0.013823718 0.13822885 0.92750001 1.4731139e-38
-0.026033491 0.14074355 0.92799997 3.4155165e-39
-0.021965757 0.14074355 0.92799997 3.0445774e-39
-0.017888822 0.14229482 0.92750001 1.8435455e-39
-0.014031552 0.14250605 0.92585719 8.2903059e-40
-0.0097310003 0.14353225 0.92500001 1.8700584e-38
-0.0040545831 0.14353225 0.92500001 2.0070565e-38
-0.0016218333 0.14353225 0.92500001 1.9432746e-38
0.0016218333 0.14353225 0.92500001 2.0073763e-38
0.0056834295 0.14287649 0.92600006 2.1461788e-38
0.009739548 0.14121456 0.92574996 2.1456036e-38
0.013423519 0.14115033 0.92799997 1.0397562e-38
-0.017084477 0.14562485 0.92799997 4.3047889e-42
-0.013423519 0.14603162 0.92799997 1.251879e-38
-0.0097467797 0.14620301 0.92649996 2.0353602e-38
-0.0056856214 0.14620301 0.92650002 1.8509694e-38
-0.0016244632 0.14620301 0.92649996 1.9336571e-38
0.0016264357 0.1463207 0.92724997 2.071845e-38
0.0048812795 0.14562485 0.92799997 2.0076734e-38
-0.0211978 0.1426775 0.93000001 1.6612912e-39
0.014675399 0.1426775 0.93000001 3.6806183e-39
-0.020926034 0.14485162 0.93000001 1.0159302e-39
-0.018208366 0.14702576 0.93000001 7.3934889e-40
-0.014675399 0.1475693 0.93000001 1.2138127e-38
0.0057071 0.14702576 0.93000001 1.7857542e-38
0.009511834 0.14485162 0.93000001 1.7684286e-38
-0.012229499 0.1491999 0.93000001 1.9424371e-38
-0.0097835995 0.1491999 0.93000001 1.9700188e-38
-0.0053809802 0.14985214 0.93000001 2.0154409e-38
-0.0016306 0.15001521 0.93000001 1.8948995e-38
0.0013588334 0.14974344 0.93000001 1.7288877e-38
-0.030263409 0.13986602 0.93300003 1.0968756e-38
-0.025410183 0.14344458 0.935 3.4176857e-39
-0.02371997 0.14313775 0.93300003 3.5098827e-39
-0.022927463 0.14574671 0.93400002 2.7715848e-39
0.010633091 0.14640947 0.93300003 6.622559e-39
0.013100906 0.14574847 0.93400002 1.1938755e-39
-0.021311767 0.14836268 0.935 1.8797578e-40
-0.017734092 0.1503346 0.93366671 4.6133688e-40
-0.014238643 0.15072758 0.93340009 8.2716729e-39
-0.0098151602 0.15131706 0.93300003 1.7001405e-38
-0.0073613701 0.15131706 0.93300003 2.0686304e-38
0.0024537898 0.15131706 0.93300003 1.6268957e-38
0.0059632119 0.15024126 0.93357152 1.1859344e-38
0.0096645486 0.14954653 0.93419999 5.6999216e-39
-0.013934616 0.15328078 0.93500006 4.1347497e-39
-0.0098256804 0.15393654 0.93400002 9.3737058e-39
-0.0057316469 0.15393654 0.93400002 1.3046037e-38
-0.0016376132 0.15393654 0.93400002 1.406878e-38
0.0016376134 0.15393654 0.93400002 9.1042852e-39
0.0049180998 0.15328078 0.935 1.1229897e-38
-0.0016393666 0.15655951 0.935 7.8236021e-39
-0.023847086 0.14719409 0.93800002 3.5163217e-39
0.015623953 0.14637178 0.93800002 8.5702685e-39
-0.022626329 0.15015239 0.93849999 9.309148e-40
0.013171916 0.14982057 0.93900001 6.1745975e-39
-0.01837844 0.15333369 0.9386667 1.6627611e-39
-0.013990431 0.15552768 0.9386667 1.1059776e-39
0.006171295 0.1550889 0.93850005 7.5618297e-39
0.0098782806 0.15393741 0.93900001 6.4551234e-39
0.012360999 0.15245232 0.94 8.0206471e-39
-0.012360999 0.15739672 0.94 3.7097275e-40
-0.0098782796 0.15805335 0.93900001 1.7527834e-39
-0.0057608685 0.15799695 0.9386667 3.4955026e-39
-0.0016446267 0.15870647 0.93800002 1.7563539e-39
0.0016459415 0.15796876 0.93849999 4.15162e-39
0.0053511732 0.15764132 0.93900001 6.9232874e-39
-0.0049443999 0.16069299 0.94 2.5983311e-39
-0.0016481332 0.16069299 0.94 4.2549461e-39
-0.026454292 0.14715201 0.94300002 3.6967921e-39
-0.026454292 0.15045878 0.94300002 5.2644737e-39
0.015707236 0.1496321 0.94300002 1.0514618e-38
0.01736063 0.1496321 0.94300002 1.125005e-38
-0.021990132 0.15360025 0.94300002 4.7283033e-40
0.014053843 0.15293887 0.94300002 7.5636374e-39
-0.018187325 0.15624566 0.94300002 1.1156578e-39
-0.014053843 0.15845022 0.94300002 4.6996047e-40
0.0066135731 0.15955245 0.94300002 5.2698729e-39
0.0090936627 0.15789907 0.94300002 5.8176181e-39
-0.0099203596 0.16120586 0.94300002 4.0702115e-39
-0.0057868767 0.16230811 0.94300002 2.968917e-39
-0.0016533933 0.16285923 0.94300002 5.8237558e-39
0.0016533933 0.16120586 0.94300002 5.5470918e-39
0.0041334834 0.16120586 0.94300002 3.521386e-39
-0.029026432 0.15010813 0.94599998 1.0425306e-38
0.015757205 0.15176678 0.94599998 1.1067444e-38
0.017415859 0.15176678 0.94599998 1.2170211e-38
-0.029087799 0.15458088 0.94800001 1.1897549e-38
-0.026040856 0.15442061 0.94600004 4.7141964e-39
0.014529873 0.15483248 0.94700003 9.3164249e-39
0.01745268 0.15458088 0.94800001 1.3368731e-38
-0.025736302 0.15773951 0.94699997 4.9904106e-39
-0.021562491 0.15757205 0.94599998 3.5206433e-39
-0.018245187 0.15840137 0.94599998 3.3329898e-39
0.010781245 0.15757205 0.94599998 4.4404528e-39
0.014109658 0.1576831 0.94666672 8.490246e-39
0.01745268 0.15707411 0.94800001 1.4657313e-38
-0.029026432 0.16088937 0.94599998 1.4473974e-38
-0.025527654 0.16168275 0.94700003 8.6688905e-39
-0.021592883 0.1619478 0.94733334 2.2356526e-39
-0.01828376 0.16122951 0.94800001 3.0632651e-39
-0.014317938 0.16205512 0.94674999 2.9703548e-39
-0.0099519193 0.16337734 0.94599998 4.6291867e-39
-0.0074639395 0.16337734 0.94599998 3.6132285e-39
0.0016586533 0.16337734 0.94599998 3.7136792e-39
0.0061401729 0.16278297 0.94639999 2.4186327e-39
0.0099659469 0.1619478 0.94733334 2.9674807e-39
0.013564955 0.16139375 0.94733334 9.4136456e-39
-0.01329728 0.16538492 0.94800001 1.9572973e-39
-0.0099624395 0.16604154 0.94700003 2.1402522e-39
-0.0058114231 0.16604154 0.94700003 2.324628e-39
-0.0016604066 0.16604154 0.94699997 2.3260644e-39
0.0016621599 0.166216 0.94800001 2.3267832e-39
0.0049864799 0.166216 0.94800001 2.3260742e-39
-0.0091418801 0.16870923 0.94800001 3.0597002e-39
-0.00581756 0.16870925 0.94800007 2.6005101e-39
-0.0016621599 0.16870923 0.94800001 2.6927169e-39
-0.030847268 0.15507005 0.95099998 1.4932821e-38
-0.029735655 0.15812699 0.95099998 1.3738594e-38
-0.027512427 0.16424087 0.95099998 1.3642417e-38
-0.018063717 0.16479668 0.95099998 2.3264245e-39
-0.014173068 0.1670199 0.95099998 2.0491328e-39
0.0075033898 0.166742 0.95099998 2.9685807e-39
0.010004519 0.166742 0.95099998 3.6081824e-39
-0.012505649 0.16924311 0.95099998 2.8753103e-39
-0.010838229 0.16924311 0.95099998 3.0597002e-39
-0.0058359699 0.17091054 0.95099998 2.6001555e-39
-0.0016674199 0.17091054 0.95099998 2.6012233e-39
0.0016674199 0.16924311 0.95099998 2.7848887e-39
0.0058359699 0.16924313 0.95099998 3.0603938e-39
0.0091708088 0.16924311 0.95099998 2.5047117e-39
-0.025090199 0.16643165 0.954 7.7454867e-39
-0.02174484 0.16643165 0.954 1.865068e-39
-0.01923582 0.16643165 0.954 2.2342331e-39
-0.024279281 0.16911864 0.95499998 3.3197391e-39
-0.021778591 0.16920674 0.95550001 1.9544246e-39
-0.018428847 0.16920674 0.95550001 2.6001359e-39
-0.014791412 0.17051372 0.95499992 2.6001457e-39
-0.010036079 0.17144969 0.954 3.5192392e-39
0.0016726799 0.17144969 0.954 2.5997758e-39
0.0058596395 0.17156951 0.95466661 3.2422823e-39
0.0092190262 0.17180912 0.95599997 3.1461379e-39
-0.012571399 0.17348531 0.95599997 3.5195685e-39
-0.01005712 0.17348531 0.95599997 3.979853e-39
-0.0055272076 0.17401062 0.95520002 2.5997996e-39
-0.0016744332 0.17414194 0.95499998 2.5090193e-39
0.0013968222 0.17404404 0.95600003 2.9664031e-39
0.0050285598 0.17348531 0.95599997 1.4905864e-39
-0.021858806 0.17234828 0.95899999 1.024209e-39
-0.018495914 0.17234828 0.95899999 3.4255764e-39
-0.014292296 0.17459022 0.95899999 2.5990611e-39
-0.010088679 0.17571117 0.95899999 3.3363081e-39
-0.0075665093 0.17571117 0.95899999 2.8749782e-39
0.0025221698 0.17571117 0.95899999 2.6891226e-39
0.0063054245 0.17529081 0.95899999 2.8645301e-39
0.0092479559 0.17487045 0.95899999 4.5219131e-39
-0.0042036166 0.17739262 0.95899999 1.6749707e-39
-0.0025221698 0.17739262 0.95899999 1.7963245e-41
-0.021083834 0.17457414 0.96200001 9.2991007e-40
-0.018553771 0.17457414 0.96200001 2.5976178e-39
-0.021083834 0.17626084 0.96200001 2.6758383e-39
-0.017710418 0.17626086 0.96200007 1.7668104e-39
-0.013784707 0.17750864 0.96266669 7.5051864e-40
-0.01012024 0.17794755 0.96200001 1.4902585e-39
-0.0059034731 0.1785098 0.96200007 1.7632104e-39
-0.0016867067 0.1787909 0.96200001 1.9875037e-40
0.0016893366 0.17813252 0.963 1.6186399e-41
0.0059034731 0.17794757 0.96200007 3.5984994e-39
-0.012676599 0.18000771 0.96399999 6.1194704e-42
-0.01014128 0.18000771 0.96399999 1.4826901e-39
-0.0067608529 0.18000771 0.96399999 1.7563847e-39
-0.00084510661 0.18000771 0.96399999 1.1120705e-41
0.00084510661 0.18000771 0.96399999 2.8629789e-40
-0.016954733 0.17887244 0.96700001 4.3075915e-42
-0.014411522 0.18056791 0.96700001 5.5317378e-40
-0.0059341565 0.18226337 0.96700001 1.7553267e-39
-0.0016954732 0.18226337 0.96700001 3.3215594e-39
0.0025432098 0.18056791 0.96700001 8.3947167e-40
0.0042386833 0.18056791 0.96700001 2.5828817e-39
-0.019558433 0.17942737 0.97000003 2.1280581e-39
-0.016156966 0.1811281 0.97000003 0
-0.012755499 0.18282883 0.97000003 2.7723583e-39
-0.010204399 0.18282883 0.97000003 2.3099522e-39
0.0017007333 0.18282883 0.97000003 4.0598349e-39
0.0053856554 0.18226193 0.97000003 5.6239096e-39
-0.01791293 0.18168828 0.97299999 5.5569051e-40
-0.014500943 0.18339427 0.97299999 4.0591315e-39
0.0076848599 0.18272975 0.97399998 5.9920055e-39
