# .PCD v0.7 - Point Cloud Data file format
VERSION 0.7
FIELDS x y z rgb
SIZE 4 4 4 4
TYPE F F F F
COUNT 1 1 1 1
WIDTH 317
HEIGHT 1
VIEWPOINT 0 0 0 1 0 0 0
POINTS 317
DATA ascii
-0.041904662 0.098895006 0.95599997 2.0984995e-38
-0.032685637 0.099733099 0.95599997 1.8299136e-38
-0.030171357 0.099733099 0.95599997 1.7564434e-38
-0.026818983 0.098056912 0.95599997 2.0440123e-38
-0.041904662 0.10224738 0.95599997 1.6472097e-38
-0.033244368 0.10252675 0.95600003 1.4071391e-38
-0.030139798 0.10213955 0.95499998 1.4807159e-38
-0.041904662 0.10476166 0.95599997 1.5000522e-38
-0.033244368 0.10532039 0.95600003 1.3066246e-38
-0.030139798 0.10549018 0.95499992 1.4540649e-38
-0.042036165 0.091638841 0.95899999 2.3509886e-38
-0.036991823 0.091638841 0.95899999 2.3509886e-38
-0.034469657 0.091638841 0.95899999 2.3509886e-38
-0.030266037 0.090798117 0.95899999 2.3509886e-38
-0.026062422 0.091638848 0.95899999 2.3509886e-38
-0.021018082 0.090798117 0.95899999 2.3509886e-38
-0.019336635 0.090798117 0.95899999 2.2305167e-38
-0.044558335 0.095001727 0.95899999 2.3509886e-38
-0.042036165 0.094161004 0.95899999 2.3509886e-38
-0.037496258 0.094329149 0.95900005 2.3509886e-38
-0.033628933 0.094161004 0.95899999 2.3509886e-38
-0.030266037 0.094161004 0.95899999 2.3509886e-38
-0.026062425 0.094161004 0.95900005 2.3509886e-38
-0.021858806 0.094161004 0.95899999 1.9171302e-38
-0.019336635 0.094161004 0.95899999 1.5376475e-38
-0.044558335 0.097523898 0.95899999 2.2738118e-38
-0.042036165 0.096683174 0.95899999 2.3504463e-38
-0.037832547 0.097523898 0.95900005 2.3502704e-38
-0.033628933 0.097523898 0.95899999 2.3502342e-38
-0.030266037 0.097523898 0.95899999 2.3496954e-38
-0.024380974 0.097523898 0.95899999 1.7307643e-38
-0.021858806 0.097523898 0.95899999 1.5734518e-38
-0.019336635 0.097523898 0.95899999 1.2890109e-38
-0.044558339 0.10172753 0.95899999 1.5738468e-38
-0.037832547 0.10172753 0.95900005 1.6467415e-38
-0.034469657 0.1008868 0.95899999 1.7569089e-38
-0.026062422 0.10116705 0.95899999 1.4994804e-38
-0.021858806 0.10004608 0.95899999 1.2973667e-38
-0.044558335 0.10509041 0.95899999 1.1127975e-38
-0.042036165 0.10677186 0.95899999 1.1866223e-38
-0.037832547 0.10593113 0.95900005 1.3988577e-38
-0.034469657 0.10677186 0.95899999 1.5555175e-38
-0.053241715 0.086200878 0.96399999 1.2898416e-38
-0.050706398 0.086200878 0.96399999 2.3509886e-38
-0.037184693 0.087045982 0.96399999 2.3509886e-38
-0.033522565 0.086482584 0.96399999 2.3509886e-38
-0.030392278 0.086110577 0.963 2.3509886e-38
-0.026198305 0.086200878 0.96399993 2.3509886e-38
-0.021972772 0.086200871 0.96399999 2.3509886e-38
-0.019437451 0.086200878 0.96399999 2.3509886e-38
-0.053241715 0.089581303 0.96399999 1.3709049e-38
-0.050033771 0.090566017 0.96324992 2.331721e-38
-0.045588419 0.091175959 0.963 2.3509886e-38
-0.041973632 0.089863002 0.96399999 2.3509886e-38
-0.038215406 0.089809991 0.96257144 2.3509886e-38
-0.033565465 0.089901462 0.96200001 2.3509886e-38
-0.030360721 0.088552095 0.96200001 2.3509886e-38
-0.026143953 0.089395449 0.96200001 2.3509886e-38
-0.022348862 0.089817129 0.96200001 2.3509886e-38
-0.017238522 0.090050444 0.96257144 1.2346991e-38
-0.053241715 0.093806833 0.96399999 1.2518442e-38
-0.049792916 0.094521612 0.96266669 1.869443e-38
-0.045822196 0.09417446 0.96200007 2.3506293e-38
-0.039637607 0.093612216 0.96200001 2.3509886e-38
-0.016867066 0.09445557 0.96200001 1.0774994e-38
-0.053241715 0.097187266 0.96399999 1.2620001e-38
-0.049503263 0.097823024 0.96359998 1.6660402e-38
-0.046384431 0.097828984 0.96200001 2.1261547e-38
-0.017747238 0.09803237 0.96399999 1.3167054e-38
-0.048966214 0.10215183 0.963 1.4268716e-38
-0.046384435 0.10204576 0.96200007 1.5553718e-38
-0.025763042 0.10347252 0.96350002 1.3617244e-38
-0.022224084 0.10267987 0.96266669 1.1595778e-38
-0.018860605 0.10106155 0.96333331 1.1974257e-38
-0.048071139 0.10541916 0.96200001 9.7543966e-39
-0.045854341 0.10661786 0.96266669 9.1933237e-39
-0.042167664 0.10879257 0.96200001 8.1776752e-39
-0.03799035 0.10975077 0.963 1.324775e-38
-0.033786297 0.10980731 0.96349996 1.3987498e-38
-0.031268943 0.10986386 0.96399999 1.2972989e-38
-0.050016463 0.083925925 0.96700001 2.3509886e-38
-0.045777779 0.083925925 0.96700001 2.3509886e-38
-0.033061728 0.083925925 0.96700001 2.3509886e-38
-0.030518519 0.083925925 0.96700001 2.3509886e-38
-0.026279835 0.083925925 0.96700001 2.3509886e-38
-0.022041153 0.083078191 0.96700001 2.3509886e-38
-0.019497944 0.083078191 0.96700001 2.3509886e-38
-0.048320986 0.086469136 0.96700001 2.3509886e-38
-0.045777783 0.086469144 0.96700001 2.3509886e-38
-0.042386834 0.086469136 0.96700001 2.3509886e-38
-0.038572017 0.086045265 0.96700001 2.3509886e-38
-0.034757201 0.085621402 0.96700001 2.3509886e-38
-0.017237313 0.086751722 0.96700001 1.4744839e-38
-0.048320986 0.089012347 0.96700001 2.3509886e-38
-0.045777779 0.089012347 0.96700001 2.3509886e-38
-0.043234568 0.089012347 0.96700001 2.3509886e-38
-0.055102881 0.095794246 0.96700001 1.1246402e-38
-0.054537725 0.098620027 0.96700001 1.1520475e-38
-0.051711936 0.099185184 0.96700001 1.2437407e-38
-0.053972565 0.10144582 0.96700001 1.1793113e-38
-0.051711936 0.10172839 0.96700001 1.2896593e-38
-0.017802469 0.10257614 0.96700001 1.2343759e-38
-0.053407408 0.10511935 0.96700001 1.2250154e-38
-0.05044033 0.10596707 0.96700001 1.2063243e-38
-0.026618928 0.10664528 0.96700001 1.4728268e-38
-0.021758575 0.10540193 0.96700001 1.326035e-38
-0.019497944 0.10427161 0.96700001 1.188279e-38
-0.044930041 0.10935803 0.96700001 8.4571711e-39
-0.04238683 0.1110535 0.96700001 6.9867298e-39
-0.029670782 0.11020576 0.96700001 1.241835e-38
-0.027975308 0.10935803 0.96700001 1.3529007e-38
-0.037724283 0.11317284 0.96700001 1.3435382e-38
-0.034757201 0.11359671 0.96700001 1.3438267e-38
-0.049321264 0.075682633 0.97000003 1.6220317e-38
-0.04903781 0.077950284 0.97000003 2.2309557e-38
-0.046770167 0.078233734 0.97000003 2.3509886e-38
-0.049321264 0.082485564 0.97000003 2.3509886e-38
-0.045919798 0.082485564 0.97000003 2.3509886e-38
-0.043368701 0.082485564 0.97000003 2.3509886e-38
-0.0331643 0.082485564 0.97000003 2.3509886e-38
-0.029337648 0.082060382 0.97000003 2.3509886e-38
-0.025511 0.081635192 0.97000003 2.3509886e-38
-0.021259166 0.080784827 0.97000003 2.3509886e-38
-0.018708067 0.081635192 0.97000003 1.9084495e-38
-0.042518333 0.084186301 0.97000003 2.3509886e-38
-0.038266502 0.084186301 0.97000003 2.3509886e-38
-0.034865033 0.084186301 0.97000003 2.3509886e-38
-0.017857701 0.084186301 0.97000003 1.7793757e-38
-0.050171632 0.10799656 0.97000003 1.3445094e-38
-0.024660634 0.10799656 0.97000003 1.4914465e-38
-0.022109533 0.10799656 0.97000003 1.3997923e-38
-0.018537994 0.10663598 0.97000009 1.1607289e-38
-0.028062101 0.11139803 0.97000003 1.4073922e-38
-0.025794458 0.1102642 0.97000003 1.4637871e-38
-0.022959899 0.1096973 0.97000003 1.436598e-38
-0.041667968 0.11394913 0.97000003 8.2803763e-39
-0.039116867 0.11479949 0.97000003 1.3342531e-38
-0.0331643 0.11394913 0.97000003 1.2420181e-38
-0.031463563 0.11394913 0.97000003 1.1867007e-38
-0.038266502 0.11650023 0.97000003 1.4176575e-38
-0.034014665 0.11650023 0.97000003 1.4821214e-38
-0.031463563 0.11650023 0.97000003 1.3990743e-38
-0.040173247 0.07094425 0.97500002 2.1379307e-38
-0.038463749 0.07094425 0.97500002 2.257785e-38
-0.045871586 0.073793426 0.97500008 1.9171901e-38
-0.04188275 0.073679455 0.97500002 2.3227176e-38
-0.037609 0.073508501 0.97500002 2.3509886e-38
-0.035044752 0.074363254 0.97500002 2.3509886e-38
-0.050326798 0.079328686 0.97299999 2.3509886e-38
-0.045682661 0.077274218 0.97400004 2.3509886e-38
-0.041862883 0.077746399 0.97455555 2.3509886e-38
-0.037608996 0.077782251 0.97500002 2.3509886e-38
-0.034617379 0.078209624 0.97500002 2.3509886e-38
-0.029916249 0.078636996 0.97500002 2.3509886e-38
-0.025642499 0.078636996 0.97500002 2.3509886e-38
-0.022223499 0.078636996 0.97500002 2.3509886e-38
-0.0494738 0.081034675 0.97299999 2.3509886e-38
-0.046061821 0.081034675 0.97299999 2.3509886e-38
-0.041489299 0.081783704 0.9738 2.3509886e-38
-0.037570424 0.08197096 0.97399998 2.3509886e-38
-0.034428161 0.081658863 0.97366667 2.3509886e-38
-0.030707879 0.081034675 0.97299999 2.3509886e-38
-0.023030909 0.081034675 0.97299999 2.3509886e-38
-0.052032795 0.10833057 0.97299999 1.3266114e-38
-0.049499664 0.11094698 0.97350001 1.2154344e-38
-0.046346154 0.11117389 0.97299999 8.4604418e-39
-0.024736902 0.11174256 0.97299999 1.510028e-38
-0.021893581 0.11117389 0.97299999 1.372095e-38
-0.018765926 0.11088956 0.97299999 1.225122e-38
-0.04530175 0.11368175 0.97500002 1.0124608e-38
-0.043547541 0.11441989 0.97399998 1.0400517e-38
-0.029001886 0.11430155 0.97299999 1.4080037e-38
-0.025628909 0.1144782 0.97450006 1.5100673e-38
-0.022201583 0.11356515 0.97399998 1.3812075e-38
-0.019618923 0.11344855 0.97299999 1.1973169e-38
-0.042190988 0.11802965 0.97419995 1.3902498e-38
-0.037531853 0.11856653 0.97299999 1.4360601e-38
-0.034119867 0.11856653 0.97299999 1.3436492e-38
-0.02988469 0.11783451 0.97400004 1.4356286e-38
-0.041028 0.12051975 0.97500002 1.491449e-38
-0.037571304 0.12039614 0.97399998 1.29755e-38
-0.034119867 0.12027252 0.97299999 1.2788579e-38
-0.031625748 0.12051975 0.97500002 1.2513433e-38
-0.042011619 0.071162537 0.97799999 2.1556829e-38
-0.042011619 0.072877295 0.97799999 2.3491872e-38
-0.035152577 0.072877295 0.97799999 2.3509886e-38
-0.030008299 0.074592054 0.97800004 2.3509886e-38
-0.025721397 0.074592054 0.97799999 2.3509886e-38
-0.033437818 0.077164203 0.97799999 2.3509886e-38
-0.030008299 0.07630682 0.97800004 2.3509886e-38
-0.025721397 0.07630682 0.97799999 2.3509886e-38
-0.023149259 0.07630682 0.97799999 2.3509886e-38
-0.052300178 0.11060201 0.97799999 1.3173544e-38
-0.049728036 0.11488892 0.97799999 1.2244756e-38
-0.046584316 0.11517471 0.97800004 1.2705733e-38
-0.02229188 0.1157463 0.97799999 1.2522058e-38
-0.019719739 0.1157463 0.97799999 9.9459779e-39
-0.045441139 0.11831843 0.97799999 1.5004161e-38
-0.028293537 0.11917581 0.97799999 1.4355936e-38
-0.02600719 0.11803263 0.97800004 1.5006317e-38
-0.04244031 0.12217665 0.97799999 1.4266956e-38
-0.037724718 0.12260534 0.97799999 1.2237552e-38
-0.034295198 0.12260534 0.97799999 1.0943936e-38
-0.030865679 0.12174796 0.97799999 1.2696033e-38
-0.033540387 0.074820869 0.98100001 2.3509886e-38
-0.052460607 0.11352132 0.98100001 1.1976068e-38
-0.018060209 0.11438133 0.98100001 1.2434146e-38
-0.052514087 0.11794322 0.98200005 1.1238505e-38
-0.049956851 0.11886416 0.98250002 1.0583824e-38
-0.047300551 0.11868137 0.98100001 1.2238292e-38
-0.024940288 0.11954138 0.98100001 1.4356266e-38
-0.022376698 0.11877277 0.98175001 1.2335885e-38
-0.018949149 0.11800283 0.98250002 1.0960854e-38
-0.05262104 0.12249488 0.98400003 1.2068983e-38
-0.050320666 0.12220734 0.98400009 1.1507558e-38
-0.046512865 0.12230815 0.98250002 1.2974767e-38
-0.0289826 0.12253346 0.98200005 1.3159182e-38
-0.02583975 0.12230946 0.98250002 1.4267662e-38
-0.02329128 0.12163224 0.98400003 1.3533345e-38
-0.045719918 0.12508281 0.98400003 1.3438276e-38
-0.042248756 0.12588188 0.98350012 1.4543177e-38
-0.037898302 0.12575476 0.98250002 1.3438266e-38
-0.034452997 0.12575476 0.98250002 1.1777307e-38
-0.031055041 0.12508281 0.98400003 1.2142136e-38
-0.043132 0.12853335 0.98400003 1.39936e-38
-0.049320389 0.1237336 0.98699999 1.1969244e-38
-0.022208594 0.12315675 0.98699999 1.3811708e-38
-0.019324362 0.12200306 0.98699999 1.1883542e-38
-0.05278147 0.12546416 0.98699999 1.2345933e-38
-0.050185658 0.12546416 0.98699999 1.3997548e-38
-0.047013 0.12661785 0.98699999 1.3994326e-38
-0.032014988 0.12719469 0.98699999 1.3808488e-38
-0.029130755 0.12661785 0.98699999 1.5096342e-38
-0.025958098 0.12632942 0.98699999 1.546657e-38
-0.022497017 0.12546416 0.98699999 1.3906071e-38
-0.045859307 0.1297905 0.98699999 1.3443306e-38
-0.041244533 0.13007893 0.98699999 9.2862129e-39
-0.038071878 0.1297905 0.98699999 1.444988e-38
-0.034091633 0.12961745 0.98699999 1.4823716e-38
-0.029419178 0.12892523 0.98699999 1.6204125e-38
-0.01820749 0.12311731 0.98900002 1.1331079e-38
-0.052888423 0.12745243 0.98900002 1.2160097e-38
-0.050287351 0.12745243 0.98900002 1.3906772e-38
-0.022542607 0.12745243 0.98900002 1.3998267e-38
-0.019102126 0.12677738 0.99049997 1.2991305e-38
-0.050326142 0.13015278 0.98975003 1.2892641e-38
-0.047686283 0.13092051 0.98900002 1.2613169e-38
-0.032079864 0.13092051 0.98900002 1.5929706e-38
-0.029478792 0.13092051 0.98900002 1.5743147e-38
-0.026010698 0.13005349 0.98900002 1.5652036e-38
-0.022074992 0.13019569 0.99140006 1.4275232e-38
-0.05043989 0.13305695 0.99199998 1.2522428e-38
-0.045660134 0.13351123 0.99020004 9.8433496e-39
-0.041649338 0.1336235 0.98975003 6.7058171e-39
-0.038149025 0.13352159 0.98900002 1.0020904e-38
-0.033813909 0.13352159 0.98900002 1.2144289e-38
-0.029478794 0.13352159 0.98900002 1.3713044e-38
-0.026069216 0.133826 0.99124998 1.4916989e-38
-0.040873706 0.13653557 0.99199998 7.9076267e-39
-0.038264744 0.13653557 0.99199998 7.4470031e-39
-0.033568617 0.13723129 0.99200004 8.6437372e-39
-0.029858097 0.13711534 0.99199998 1.3160585e-38
-0.026959252 0.13653557 0.99199998 1.4458889e-38
-0.020062516 0.13171478 0.995 1.437283e-38
-0.018317949 0.12997022 0.995 1.3912205e-38
-0.049720149 0.13520391 0.995 1.1509705e-38
-0.047975581 0.13520391 0.995 1.1689783e-38
-0.022243224 0.13389549 0.995 1.4739793e-38
-0.044486448 0.13694848 0.995 7.0767772e-39
-0.042160362 0.13811153 0.99500006 7.9087071e-39
-0.038380466 0.13869305 0.995 8.8328242e-39
-0.035763618 0.13869305 0.995 7.0818191e-39
-0.028785348 0.13869305 0.995 1.630066e-38
-0.027040781 0.13869305 0.995 1.7414505e-38
-0.029657632 0.14043762 0.995 1.5472328e-38
-0.016623352 0.12948719 0.99800003 1.1798153e-38
-0.051619884 0.13561156 0.99800003 1.307739e-38
-0.020997919 0.13561156 0.99800003 1.5204715e-38
-0.048120234 0.13736139 0.99800003 1.1509373e-38
-0.045787133 0.13852796 0.99800003 7.451682e-39
-0.025372487 0.13823631 0.99800003 1.6766638e-38
-0.02362266 0.13736139 0.99800003 1.5017124e-38
-0.041995838 0.14086105 0.99800003 8.0008958e-39
-0.038496189 0.14086105 0.99800003 8.6487833e-39
-0.034121618 0.14086106 0.99800003 8.3664245e-39
-0.027122313 0.14086105 0.99800003 1.6958621e-38
-0.017563358 0.13348718 1.00175 1.2072947e-38
-0.050432004 0.13899462 1.0022 1.3078142e-38
-0.021611763 0.13899358 1.0022 1.4651901e-38
-0.018483639 0.13642685 1.0039999 1.0689651e-38
-0.048996311 0.14229469 1.0039999 1.3540552e-38
-0.045632251 0.14216202 1.001 8.0052174e-39
-0.042122081 0.14303957 1.001 9.2033794e-39
-0.038611908 0.14303957 1.001 8.7431271e-39
-0.03422419 0.14303957 1.0010002 6.8009078e-39
-0.029836472 0.14303957 1.001 1.5840384e-38
-0.026086383 0.14274034 1.003 1.8154632e-38
-0.022849001 0.14149618 1.0025001 1.4745207e-38
-0.04576901 0.14522858 1.0039999 1.0584516e-38
-0.042185199 0.14589179 1.0025001 1.1509365e-38
-0.037847452 0.14522859 1.0039999 8.7463669e-39
-0.033446584 0.14522858 1.0039999 7.5395547e-39
-0.02992589 0.14522858 1.0039999 1.482804e-38
-0.052085392 0.14213133 1.007 1.372528e-38
-0.050319787 0.14389692 1.007 1.4742239e-38
-0.022070084 0.1433084 1.007 1.050626e-38
-0.048554178 0.14566255 1.007 1.4090817e-38
-0.045905769 0.14742814 1.007 1.2432369e-38
-0.037960544 0.14742814 1.007 1.234129e-38
-0.033546522 0.14742814 1.007 1.2064702e-38
-0.030015312 0.14742814 1.007 1.3908617e-38
-0.026484098 0.14566255 1.007 1.6869296e-38
-0.054011431 0.1381276 1.01 1.1976424e-38
-0.018594099 0.13901302 1.01 9.1215842e-39
-0.054011431 0.14166933 1.01 1.0871149e-38
-0.052240565 0.14432563 1.01 1.2252957e-38
-0.022578551 0.1460965 1.01 5.9948305e-39
