# .PCD v0.7 - Point Cloud Data file format
VERSION 0.7
FIELDS x y z rgb
SIZE 4 4 4 4
TYPE F F F F
COUNT 1 1 1 1
WIDTH 312
HEIGHT 1
VIEWPOINT 0 0 0 1 0 0 0
POINTS 312
DATA ascii
0.038029801 0.08704599 0.96399999 2.3509886e-38
0.042255331 0.087045982 0.96399999 2.3509886e-38
0.04563576 0.087045982 0.96399999 2.3509886e-38
0.038029797 0.089581303 0.96399993 2.1934659e-38
0.042255331 0.089581303 0.96399999 2.0920856e-38
0.04563576 0.089581303 0.96399999 2.0825445e-38
0.049016185 0.089581303 0.96399999 1.8052382e-38
0.039297458 0.093384281 0.96399999 1.8040478e-38
0.042255335 0.093806826 0.96399993 1.8319229e-38
0.04563576 0.093806833 0.96399993 1.7767145e-38
0.049016185 0.092961721 0.96399999 1.4815448e-38
0.042255331 0.097187266 0.96399999 1.7310457e-38
0.044790652 0.097187266 0.96399999 1.777e-38
0.050864197 0.077991769 0.96700001 2.3509886e-38
0.053407408 0.077991769 0.96700001 2.3509886e-38
0.034757201 0.083925925 0.96700001 2.3509886e-38
0.03814815 0.083078191 0.96700001 2.3509886e-38
0.04238683 0.083078191 0.96700001 2.3509886e-38
0.045777783 0.083078191 0.96700001 2.3509886e-38
0.050016463 0.083078198 0.96700001 2.3509886e-38
0.053407408 0.083925925 0.96700001 2.1665973e-38
0.031366255 0.087316871 0.96700001 2.3509886e-38
0.033909462 0.086469144 0.96700001 2.3509886e-38
0.03814815 0.085621402 0.96700001 2.3509886e-38
0.04238683 0.085621402 0.96700001 2.3509886e-38
0.045777779 0.085621402 0.96700001 2.3509886e-38
0.050016459 0.086469136 0.96700001 2.2122642e-38
0.054255143 0.086469136 0.96700001 2.1006588e-38
0.031366255 0.089012347 0.96700001 2.2113981e-38
0.033909462 0.089860082 0.96700001 1.944105e-38
0.051711936 0.089860082 0.96700001 1.7211429e-38
0.053407408 0.089860082 0.96700001 2.182157e-38
0.037300412 0.094946504 0.96700001 1.657038e-38
0.05044033 0.09452264 0.96700001 1.3618298e-38
0.053407408 0.093251027 0.96700001 2.0620791e-38
0.038995884 0.097489715 0.96700001 1.7494515e-38
0.04238683 0.099185184 0.96700001 1.7032814e-38
0.045777779 0.098337449 0.96700001 1.786256e-38
0.049168725 0.097489715 0.96700001 1.6204482e-38
0.046770167 0.075682633 0.97000003 2.3509886e-38
0.050596815 0.07525745 0.97000003 2.3509886e-38
0.053573098 0.074832261 0.97000003 2.3509886e-38
0.039116867 0.079084098 0.97000003 2.3509886e-38
0.04280179 0.078517191 0.97000003 2.3509886e-38
0.045919798 0.078233734 0.97000003 2.3509886e-38
0.048470899 0.078233734 0.97000003 2.3509886e-38
0.029762832 0.081635192 0.97000015 2.3509886e-38
0.034014665 0.081635192 0.97000003 2.3509886e-38
0.038266502 0.080784827 0.97000003 2.3509886e-38
0.042518333 0.080784827 0.97000003 2.3509886e-38
0.045919798 0.080784827 0.97000003 2.3509886e-38
0.050171636 0.080784827 0.97000003 2.3509886e-38
0.054423466 0.081635192 0.97000003 2.3509886e-38
0.057541482 0.081918657 0.97000003 1.7972388e-38
0.060376033 0.082485564 0.97000003 1.0769609e-38
0.022959899 0.085036665 0.97000003 9.7590293e-39
0.025511 0.085887037 0.97000015 1.8972457e-38
0.029550243 0.085674442 0.97000015 2.332293e-38
0.0331643 0.084186301 0.97000003 2.3509886e-38
0.055273835 0.084186301 0.97000003 2.2483858e-38
0.057824932 0.085887037 0.97000015 1.8240706e-38
0.061226409 0.085887037 0.97000015 8.9361378e-39
0.025511 0.090138867 0.97000003 1.1877365e-38
0.029422686 0.090308942 0.97000009 1.4822934e-38
0.055273835 0.090138867 0.97000003 2.1469745e-38
0.057824932 0.090138867 0.97000003 1.7602161e-38
0.061226401 0.089288503 0.97000003 8.2958018e-39
0.030613199 0.093540333 0.97000003 1.1222295e-38
0.034014665 0.093540333 0.97000003 1.5458962e-38
0.036565769 0.092689969 0.97000003 1.7574382e-38
0.055273835 0.093540333 0.97000003 1.695505e-38
0.057824932 0.093540333 0.97000003 1.225699e-38
0.060376033 0.094390698 0.97000003 1.1518298e-38
0.034298122 0.096658342 0.97000003 1.6298075e-38
0.03784132 0.099067718 0.97000003 1.6573241e-38
0.046770167 0.0994929 0.97000003 1.7861846e-38
0.050596818 0.098217346 0.97000003 1.3157374e-38
0.053573098 0.096091427 0.97000003 1.4439817e-38
0.042518333 0.10119363 0.97000003 1.7309769e-38
0.045919798 0.10119363 0.97000003 1.6665453e-38
0.047011249 0.07094425 0.97500002 2.3509886e-38
0.049860418 0.070374414 0.97500008 2.3509886e-38
0.052139752 0.070089497 0.97500002 2.3509886e-38
0.038463749 0.074363254 0.97500002 2.3509886e-38
0.042224653 0.073679447 0.97500002 2.3509886e-38
0.0461565 0.073508501 0.97500002 2.3509886e-38
0.049549635 0.073470362 0.97450006 2.3509886e-38
0.05384925 0.073223583 0.97500008 2.3509886e-38
0.026497249 0.078636996 0.97500002 2.3509886e-38
0.029875338 0.077674709 0.97366661 2.3509886e-38
0.034143247 0.077674709 0.97366667 2.3509886e-38
0.03739211 0.077343911 0.9738 2.3509886e-38
0.041507185 0.076692723 0.97419995 2.3509886e-38
0.04530175 0.076072745 0.97500002 2.3509886e-38
0.055520765 0.077727899 0.97433329 2.3509886e-38
0.058003772 0.079328686 0.97299999 2.0826508e-38
0.023030909 0.082740672 0.97299999 1.8322766e-38
0.025589898 0.08188767 0.97299999 2.3136423e-38
0.058856767 0.081034675 0.97299999 1.823532e-38
0.06056276 0.081034675 0.97299999 1.1505039e-38
0.023030909 0.090417638 0.97299999 8.8475379e-39
0.061415754 0.09127064 0.97299999 8.4797811e-39
0.025589898 0.093829632 0.97299999 9.5786135e-39
0.02814889 0.093829632 0.97299999 1.0396505e-38
0.061415754 0.09297663 0.97299999 8.3912204e-39
0.026442895 0.096388616 0.97299999 8.7488584e-39
0.030208355 0.097111337 0.97340006 9.1097376e-39
0.033835538 0.099231943 0.97299999 1.2612069e-38
0.054222271 0.098194554 0.97399998 1.0304715e-38
0.057268251 0.096586749 0.97500002 1.1877061e-38
0.031625748 0.10000575 0.97500002 9.0164602e-39
0.034189999 0.10257 0.97500002 8.5540387e-39
0.037570424 0.10246567 0.97399998 1.3898503e-38
0.041390937 0.10283913 0.97350001 1.7309408e-38
0.046061821 0.10321259 0.97299999 1.6113374e-38
0.04952465 0.10246567 0.97399998 1.2612467e-38
0.052709587 0.10171525 0.97500008 1.0024889e-38
0.035044752 0.10513425 0.97500002 1.4918081e-38
0.037893914 0.10570408 0.97500008 1.5838218e-38
0.04188275 0.105989 0.97500002 1.7588863e-38
0.0461565 0.10513425 0.97500002 1.6205219e-38
0.048720747 0.10513425 0.97500002 1.5469451e-38
0.042868998 0.06773302 0.97799999 2.3509886e-38
0.046298519 0.06773302 0.97799999 2.3509886e-38
0.049728036 0.06773302 0.97799999 2.3509886e-38
0.028293537 0.071162537 0.97799999 2.3509886e-38
0.037724718 0.071162537 0.97799999 2.3509886e-38
0.042011619 0.070305161 0.97800004 2.3509886e-38
0.046012726 0.070019364 0.97800004 2.3509886e-38
0.048870657 0.069447778 0.97799999 2.3509886e-38
0.054014936 0.071162537 0.97799999 2.3509886e-38
0.030008297 0.073734671 0.97800004 2.3509886e-38
0.034295198 0.073734671 0.97799999 2.3509886e-38
0.037438925 0.073448882 0.97800004 2.3509886e-38
0.040296856 0.072877295 0.97799999 2.3509886e-38
0.055729698 0.072877295 0.97799999 2.3509886e-38
0.026578778 0.07630682 0.97799999 2.3509886e-38
0.026578778 0.098598696 0.97799999 9.304165e-39
0.028293537 0.098598696 0.97799999 9.0197406e-39
0.058301836 0.097741321 0.97799999 1.0681388e-38
0.026578778 0.10117084 0.97799999 9.5808009e-39
0.030008299 0.10174243 0.97800004 8.4651263e-39
0.055043794 0.10237116 0.97799999 1.1965654e-38
0.058130361 0.10237116 0.97799999 1.2617843e-38
0.03172306 0.10545773 0.97799999 1.2152544e-38
0.034009404 0.10660091 0.97800004 1.51003e-38
0.036867339 0.1071725 0.97799999 1.6572205e-38
0.046298519 0.1071725 0.97799999 1.6297404e-38
0.050013833 0.10660091 0.97800004 1.6480723e-38
0.052300178 0.10631511 0.97799999 1.6301725e-38
0.058301836 0.10631511 0.97799999 1.2895875e-38
0.060873974 0.1071725 0.97799999 1.1977166e-38
0.038582098 0.10888726 0.97799999 1.6573961e-38
0.042011619 0.10888726 0.97800004 1.7681762e-38
0.046298519 0.10888726 0.97799999 1.694384e-38
0.049728036 0.10888726 0.97799999 1.7035328e-38
0.035314325 0.067182034 0.98250002 2.3509886e-38
0.037868712 0.067131408 0.98175001 2.3509886e-38
0.041894771 0.065729342 0.98100007 2.3509886e-38
0.046153873 0.065647423 0.98100007 2.3509886e-38
0.049020566 0.066220768 0.98100001 2.1567686e-38
0.030960359 0.070520818 0.98100001 2.3509886e-38
0.034248911 0.070046365 0.98159999 2.3509886e-38
0.037840441 0.069660805 0.98100001 2.3509886e-38
0.059340689 0.098901145 0.98100001 1.0043213e-38
0.061060708 0.098041132 0.98100001 1.0596018e-38
0.059340689 0.10062116 0.98100001 1.0778976e-38
0.061920717 0.10148117 0.98100001 1.0137198e-38
0.029843487 0.10588994 0.98200005 1.0772147e-38
0.055040639 0.10664123 0.98100001 1.5472678e-38
0.061920717 0.10492121 0.98100001 1.0874768e-38
0.03191768 0.10955527 0.98400003 1.4640036e-38
0.034757204 0.11001903 0.98300004 1.5006316e-38
0.037591465 0.11048105 0.98200005 1.5188549e-38
0.042140491 0.11094129 0.98100007 1.6667251e-38
0.046440542 0.11094129 0.98100001 1.6850936e-38
0.049880579 0.11094129 0.98100001 1.6851292e-38
0.053320616 0.11008129 0.98100001 1.4547843e-38
0.057380289 0.11011179 0.98280001 1.279541e-38
0.035368241 0.11300584 0.98400003 1.232943e-38
0.038204256 0.1134661 0.98300004 1.1679014e-38
0.042204916 0.11369622 0.98250008 1.3616888e-38
0.04651155 0.11369622 0.98250002 1.4731887e-38
0.049956851 0.11369622 0.98250002 1.306806e-38
0.053142659 0.1134661 0.98300004 1.2142169e-38
0.029130755 0.10931244 0.98699999 1.335217e-38
0.032880258 0.11161982 0.98699999 1.4547848e-38
0.033745527 0.11392721 0.98699999 1.2333364e-38
0.037206605 0.1150809 0.98699999 1.1037975e-38
0.054512009 0.1150809 0.98699999 1.2507707e-38
0.038937148 0.11681144 0.98699999 1.1683318e-38
0.041532956 0.11681144 0.98699999 1.3067334e-38
0.045859307 0.11681144 0.98699999 1.399288e-38
0.050185658 0.11681144 0.98699999 1.2052846e-38
0.05278147 0.11681144 0.98699999 1.2141098e-38
0.026877722 0.10664387 0.98900002 1.1606222e-38
0.026877722 0.11011197 0.98900002 1.1790965e-38
0.029478792 0.11184601 0.98900002 1.3812428e-38
0.059824612 0.11184601 0.98900002 1.1696617e-38
0.026877722 0.11444708 0.98900002 1.188387e-38
0.029478792 0.11444708 0.98900002 1.325926e-38
0.032946885 0.1153141 0.98900002 1.2797926e-38
0.057743754 0.11427368 0.98900002 1.1871658e-38
0.060006075 0.11566389 0.99199998 1.1237436e-38
0.026959252 0.11740319 0.99199998 1.21608e-38
0.029523503 0.11809532 0.99050003 1.3812428e-38
0.03384722 0.11803527 0.99000001 1.408759e-38
0.037860017 0.11820418 0.98900002 1.1044436e-38
0.041617118 0.11878219 0.98900002 1.3438986e-38
0.045952238 0.11878219 0.98900002 1.4084001e-38
0.050287351 0.11878219 0.98900002 1.2877912e-38
0.054099686 0.11832428 0.99000001 1.3431101e-38
0.057397112 0.11827284 0.99199998 1.2888703e-38
0.060006075 0.11827284 0.99199998 1.1146326e-38
0.034786131 0.12088181 0.99199998 1.5286111e-38
0.038264744 0.12088181 0.99199998 1.5010265e-38
0.042033248 0.12146157 0.99199998 1.5377977e-38
0.046067521 0.12169054 0.99150008 1.5006685e-38
0.050363619 0.12156868 0.99049997 1.4913036e-38
0.053918503 0.12175146 0.99199998 1.5280746e-38
0.057397112 0.12088181 0.99199998 1.3351081e-38
0.060006075 0.12088181 0.99199998 1.1238166e-38
0.046961274 0.12523007 0.99199998 1.6116974e-38
0.050150007 0.1249402 0.99199998 1.5101725e-38
0.053048849 0.12436043 0.99199998 1.3437222e-38
0.029657632 0.12124739 0.995 1.3075212e-38
0.034019049 0.12241043 0.99500006 1.4731854e-38
0.038380466 0.12299194 0.995 1.5192846e-38
0.040997315 0.12299194 0.995 1.5746747e-38
0.057570696 0.12299194 0.995 1.3350746e-38
0.060187545 0.12299194 0.995 1.1054488e-38
0.042741884 0.1256088 0.995 1.583679e-38
0.044486448 0.1256088 0.995 1.6943138e-38
0.051464718 0.12648107 0.995 1.2427698e-38
0.054372326 0.12589955 0.99500006 1.2976587e-38
0.057570696 0.12473652 0.995 1.2888342e-38
0.060187545 0.12473652 0.995 1.1699487e-38
0.042741884 0.12822564 0.995 1.5282526e-38
0.046579927 0.12892346 0.995 1.5929325e-38
0.050592434 0.12822564 0.995 1.3350364e-38
0.053209282 0.12822564 0.995 1.2702511e-38
0.032371793 0.12336278 0.99800003 1.2610998e-38
0.034996532 0.12511261 0.99800003 1.1041868e-38
0.038787827 0.12569588 0.99800003 1.2885082e-38
0.041120928 0.12598753 0.99800003 1.5467282e-38
0.05774428 0.12686244 0.99800003 1.1875269e-38
0.041704204 0.12977883 0.99800003 1.3806345e-38
0.044620581 0.13036209 0.99800003 1.5743877e-38
0.050744973 0.13036209 0.99800003 1.3902122e-38
0.055119537 0.12861226 0.99800003 1.3255326e-38
0.046370406 0.13211191 0.99800003 1.4360602e-38
0.048120234 0.13211191 0.99800003 1.3807787e-38
0.030714015 0.12373361 1.001 1.0959035e-38
0.034258381 0.12678587 1.0020001 1.0212481e-38
0.037734363 0.12724379 1.001 9.3820183e-39
0.060550489 0.12724379 1.001 1.1882086e-38
0.034326758 0.12938547 1.0039999 9.9409528e-39
0.037789151 0.13007148 1.0025001 9.2930779e-39
0.054490529 0.13094988 1.0025001 1.3072014e-38
0.058005963 0.12919217 1.0025001 1.1968543e-38
0.039021015 0.13349295 1.0039999 1.2336241e-38
0.042152982 0.13348718 1.00175 1.4087242e-38
0.045339741 0.13367909 1.0010002 1.3441146e-38
0.050432004 0.13372307 1.0022 1.2611739e-38
0.053690568 0.13290615 1.0039999 1.3072364e-38
0.04576901 0.13642685 1.0039999 8.8310362e-39
0.030898115 0.12624086 1.007 1.0220742e-38
0.033546522 0.12977208 1.007 1.0307566e-38
0.057382215 0.13153769 1.007 1.1969632e-38
0.060913429 0.12977208 1.007 1.1236731e-38
0.034429327 0.13330328 1.007 1.3166352e-38
0.036783472 0.13448037 1.007 1.3351444e-38
0.053851001 0.13506891 1.007 1.2980535e-38
0.039726146 0.1368345 1.007 1.362661e-38
0.042374559 0.1368345 1.007 1.3535505e-38
0.049436983 0.1368345 1.007 7.8125514e-39
0.03276103 0.13104412 1.01 1.1508272e-38
0.034531899 0.1354713 1.01 1.353514e-38
0.055782299 0.13458586 1.01 1.2335161e-38
0.057553165 0.13458586 1.01 1.1044445e-38
0.038073633 0.13783246 1.01 1.4086134e-38
0.042500798 0.13901302 1.01 1.3168166e-38
0.046042532 0.13901302 1.01 8.2810868e-39
0.049584262 0.13901302 1.01 8.7370132e-39
0.053126 0.13724217 1.01 1.3347148e-38
0.02930609 0.126105 1.013 1.160404e-38
0.030490175 0.12936121 1.013 1.1051951e-38
0.063052498 0.12965724 1.013 1.1882093e-38
0.031082217 0.13232143 1.013 1.0682093e-38
0.032858342 0.13409756 1.013 1.1599385e-38
0.059500244 0.1332095 1.013 1.1231353e-38
0.061276369 0.13232143 1.013 1.0683557e-38
0.038186725 0.13942593 1.013 1.3993948e-38
0.054615892 0.13898191 1.013 1.3626624e-38
0.057724115 0.1376498 1.013 1.2062882e-38
0.042627037 0.14120206 1.013 1.4825525e-38
0.046179295 0.14120206 1.013 1.344548e-38
0.049731545 0.14120206 1.013 1.3537673e-38
0.052395735 0.14120206 1.013 1.4551103e-38
0.027693022 0.12774524 1.0190001 1.0871506e-38
0.027693022 0.13042521 1.0190001 9.6736916e-39
0.029392879 0.13093191 1.016 1.0589194e-38
0.030015608 0.13403329 1.0170001 9.9456108e-39
0.06276992 0.1341639 1.0180001 1.0499531e-38
0.030372994 0.13667847 1.0190001 9.762625e-39
0.033846349 0.13805747 1.016 1.29816e-38
0.036518428 0.13983886 1.016 1.3809557e-38
0.059231102 0.13850282 1.016 1.0218973e-38
0.0624419 0.13736928 1.0175 1.040842e-38
0.053738497 0.14280783 1.016 1.2065054e-38
0.027774552 0.13439299 1.022 8.5702209e-39
0.026058914 0.13029458 1.025 1.0318702e-38
