# .PCD v0.7 - Point Cloud Data file format
VERSION 0.7
FIELDS x y z rgb
SIZE 4 4 4 4
TYPE F F F F
COUNT 1 1 1 1
WIDTH 324
HEIGHT 1
VIEWPOINT 0 0 0 1 0 0 0
POINTS 324
DATA ascii
0.013932279 0.058288105 0.97299999 1.0140079e-38
0.016206935 0.058003772 0.97299999 7.3745742e-39
0.013647947 0.06056276 0.97299999 1.0230832e-38
0.016206935 0.06056276 0.97299999 8.202537e-39
0.01371808 0.062588736 0.97799999 1.0230472e-38
0.016290218 0.062588736 0.97799999 8.2940138e-39
0.01811544 0.059522159 0.98400003 1.1130829e-38
0.018060209 0.061920717 0.98100001 1.1227695e-38
0.034757204 0.062333625 0.98300004 2.3509886e-38
0.037630916 0.062333625 0.98300004 2.3509886e-38
0.054346319 0.062972717 0.98400003 1.4935692e-38
0.056071602 0.062972717 0.98400003 1.1416323e-38
0.013760159 0.065360755 0.98100001 9.7712878e-39
0.017200198 0.065360755 0.98100001 8.9368594e-39
0.03191768 0.065560639 0.98400003 2.3509886e-38
0.034400396 0.066220775 0.98100007 2.3509886e-38
0.037840441 0.06622076 0.98100007 2.3509886e-38
0.041705035 0.066306815 0.9822858 2.3509886e-38
0.054346319 0.065560639 0.98400003 8.6573368e-39
0.056071602 0.065560639 0.98400003 8.1971098e-39
0.031188646 0.070132636 0.98280001 2.3212079e-38
0.034400396 0.070520818 0.98100001 2.2847975e-38
0.037840441 0.070520818 0.98100001 2.25793e-38
0.042443689 0.070243545 0.9822858 2.2854456e-38
0.046582561 0.06987384 0.98400009 2.1098444e-38
0.054346319 0.068148561 0.98400003 1.1874896e-38
0.057694685 0.069750607 0.9822858 1.0504891e-38
0.03191768 0.073324397 0.98400003 2.230089e-38
0.034478642 0.074131146 0.98325002 2.1012318e-38
0.037898302 0.074075267 0.98250002 2.0092171e-38
0.042227279 0.07411252 0.98300004 2.2122281e-38
0.045719918 0.073324397 0.98400003 2.2768733e-38
0.035368241 0.077637598 0.98400003 1.8621375e-38
0.03795616 0.077637598 0.98400003 1.9450764e-38
0.041924305 0.07746508 0.98400003 2.1661667e-38
0.019901209 0.059703626 0.98699999 2.3495487e-38
0.019901209 0.062299438 0.98699999 1.9801529e-38
0.032880258 0.062299438 0.98699999 2.3509886e-38
0.038937148 0.061434165 0.98699999 2.3509886e-38
0.041244533 0.062587865 0.98699999 2.3509886e-38
0.045859307 0.063164711 0.98699999 2.3509886e-38
0.049320389 0.063164711 0.98699999 2.3509886e-38
0.019901209 0.065760523 0.98699999 1.5110005e-38
0.030284448 0.065760523 0.98699999 2.3509886e-38
0.046205413 0.065587461 0.98699999 2.3509886e-38
0.050185658 0.065760516 0.98699999 2.2955637e-38
0.05278147 0.065760523 0.98699999 1.9536421e-38
0.019035939 0.070086867 0.98699999 1.3271493e-38
0.029130755 0.070086867 0.98699999 2.2747156e-38
0.050185662 0.070086867 0.98699999 1.5189648e-38
0.05364674 0.070086867 0.98699999 1.316418e-38
0.056242548 0.071817406 0.98699999 1.1056976e-38
0.030284448 0.07441321 0.98699999 1.7417422e-38
0.032014988 0.075278483 0.98699999 1.741667e-38
0.047013 0.074701637 0.98699999 1.9817393e-38
0.049897235 0.074124791 0.98699999 1.1510778e-38
0.057107817 0.07441321 0.98699999 1.0597796e-38
0.030284448 0.077874303 0.98699999 1.5579605e-38
0.032880258 0.077874295 0.98699999 1.7975277e-38
0.045859307 0.077585876 0.98699999 1.981488e-38
0.057107817 0.07700903 0.98699999 1.0231885e-38
0.034091633 0.081162326 0.98699999 1.8050949e-38
0.038071878 0.081335381 0.98699999 1.8147461e-38
0.041532956 0.081335381 0.98699999 1.787122e-38
0.044128768 0.080470107 0.98699999 1.7137254e-38
0.054788157 0.054788157 0.99199998 1.8439126e-38
0.019941535 0.05809056 0.98900002 2.3496947e-38
0.021715034 0.057847377 0.99080002 2.350701e-38
0.034274377 0.059435152 0.98975003 2.3509886e-38
0.037937164 0.058786049 0.99100006 2.3509886e-38
0.04174336 0.058266766 0.99199998 2.3509886e-38
0.04643948 0.05757105 0.99200004 2.3509886e-38
0.05043989 0.057397112 0.99199998 2.3509886e-38
0.053809803 0.058147546 0.99000001 2.3509886e-38
0.056356516 0.058090564 0.98900002 1.9267836e-38
0.022730213 0.061941754 0.9896 2.3044569e-38
0.026062422 0.061682265 0.99100006 2.3509886e-38
0.029508598 0.061619144 0.99000001 2.3509886e-38
0.032079864 0.061558656 0.98900002 2.3509886e-38
0.039134398 0.060006075 0.99199998 2.3509886e-38
0.041990291 0.060523599 0.99100006 2.3509886e-38
0.046021931 0.060782369 0.99050009 2.3509886e-38
0.050521769 0.061284434 0.99020004 2.3509886e-38
0.05352167 0.062198918 0.99000001 2.2680125e-38
0.056527462 0.061745383 0.99199998 1.8337069e-38
0.022542607 0.065893769 0.98900002 2.1555401e-38
0.0260107 0.065893769 0.98900002 2.3506288e-38
0.02861177 0.065893769 0.98900002 2.3509886e-38
0.022542607 0.07022889 0.98900002 2.0086439e-38
0.026010698 0.070228897 0.98900002 2.1828406e-38
0.02861177 0.068494841 0.98900002 2.2383795e-38
0.052888423 0.071962938 0.98900002 9.664684e-39
0.019074513 0.07456401 0.98900002 1.2713275e-38
0.022542605 0.07456401 0.98900002 1.9354869e-38
0.0260107 0.07456401 0.98900002 1.8894733e-38
0.02861177 0.07456401 0.98900002 1.7417422e-38
0.051154375 0.075431027 0.98900002 3.9503753e-39
0.053755447 0.074564002 0.98900002 9.5742821e-39
0.019941535 0.077165075 0.98900002 9.6747804e-39
0.022061843 0.078349106 0.99080002 1.1511825e-38
0.0260107 0.078032099 0.98900002 1.6676595e-38
0.02861177 0.078032099 0.98900002 1.530302e-38
0.046819258 0.078899123 0.98900002 1.5937239e-38
0.050287351 0.078032099 0.98900002 1.0312905e-38
0.053755447 0.078032099 0.98900002 9.668319e-39
0.056356516 0.078899123 0.98900002 1.0600304e-38
0.021741334 0.081747405 0.99200004 1.1695549e-38
0.026069216 0.081686258 0.99125004 8.2717317e-39
0.029478792 0.081500188 0.98900002 1.1867311e-38
0.032079864 0.082367212 0.98900002 8.1734488e-39
0.046299048 0.081673592 0.98900002 1.4087591e-38
0.050287351 0.081500188 0.98900002 1.0304312e-38
0.053755447 0.081500188 0.98900002 9.6690603e-39
0.056356516 0.081500188 0.98900002 1.0323373e-38
0.022610985 0.084356368 0.99199998 1.206184e-38
0.026089597 0.084356368 0.99199998 7.7214264e-39
0.029706378 0.085645773 0.99080002 1.2696732e-38
0.033858914 0.085952781 0.99033338 1.583211e-38
0.038187601 0.085923851 0.99000001 1.832285e-38
0.041659202 0.085923851 0.99000001 1.8229576e-38
0.046046034 0.085140996 0.99100006 1.5282187e-38
0.05043989 0.085226029 0.99199998 1.3070572e-38
0.053918503 0.085226029 0.99199998 1.0869371e-38
0.034786131 0.089574285 0.99199998 1.8415045e-38
0.038264744 0.089574285 0.99199998 1.9243729e-38
0.022679366 0.054953847 0.995 2.3509886e-38
0.046579931 0.054256022 0.995 2.3509886e-38
0.050592434 0.054081567 0.995 2.3509886e-38
0.053209282 0.054081567 0.995 2.3509886e-38
0.023551648 0.056698415 0.995 2.3509886e-38
0.026168499 0.057570696 0.995 2.3509886e-38
0.029657632 0.057570696 0.995 2.3509886e-38
0.033670139 0.057396241 0.995 2.3509886e-38
0.038380466 0.056698415 0.995 2.3509886e-38
0.041869599 0.056698415 0.995 2.3509886e-38
0.044486448 0.056698415 0.995 2.3509886e-38
0.021807082 0.08548376 0.995 1.2985206e-38
0.026168499 0.086356044 0.995 1.1871265e-38
0.027040781 0.088100612 0.995 1.3708356e-38
0.029657632 0.088972896 0.995 1.6845202e-38
0.032274481 0.089845181 0.995 1.7769322e-38
0.041869599 0.089845181 0.995 1.8689129e-38
0.046231017 0.088100612 0.99500006 1.749309e-38
0.050592434 0.088972896 0.995 1.4917343e-38
0.053209282 0.088972896 0.995 1.1881364e-38
0.029747054 0.050744973 0.99800003 2.3509886e-38
0.033246703 0.051619884 0.99800003 2.3509886e-38
0.046370406 0.051619884 0.99800003 2.3509886e-38
0.049870059 0.051619884 0.99800003 2.3509886e-38
0.026247401 0.055119537 0.99800003 2.3509886e-38
0.029747054 0.054244623 0.99800003 2.3509886e-38
0.034121618 0.05424463 0.99800009 2.3509886e-38
0.038496189 0.054244626 0.99800003 2.3509886e-38
0.041995838 0.054244626 0.99800003 2.3509886e-38
0.044620581 0.053369712 0.99800003 2.3509886e-38
0.021872833 0.086616419 0.99800003 1.4826978e-38
0.025372487 0.088366248 0.99800003 1.2878956e-38
0.029747054 0.09099099 0.99800003 1.7124307e-38
0.034121618 0.091865897 0.99800003 1.7952989e-38
0.038496189 0.091865897 0.99800003 1.8689467e-38
0.041995838 0.091865897 0.99800003 1.8505444e-38
0.045495495 0.090116076 0.99800003 1.8045915e-38
0.049870059 0.091282628 0.99800003 1.4916271e-38
0.035871446 0.093615726 0.99800003 1.6470302e-38
0.038496189 0.093615726 0.99800003 1.8224888e-38
0.041120928 0.093615726 0.99800003 1.8412148e-38
0.026618816 0.05119003 1.0010002 2.3509886e-38
0.030714015 0.048264883 1.001 2.3509886e-38
0.03422419 0.049727462 1.001 2.3509886e-38
0.038284283 0.049831238 1.0022857 2.3509886e-38
0.042185634 0.05009317 1.0024999 2.3509886e-38
0.045483571 0.049697883 1.0016 2.3509886e-38
0.04884991 0.049434941 1.0010002 2.1572714e-38
0.02369367 0.053530145 1.001 2.3509886e-38
0.026326301 0.053530145 1.001 2.3509886e-38
0.018428411 0.083366618 1.001 1.1788818e-38
0.018456025 0.086129427 1.0025001 1.1328182e-38
0.020183496 0.086876795 1.001 1.4369914e-38
0.021980662 0.088808954 1.003 1.3536218e-38
0.026364435 0.090522408 1.0025001 1.5928267e-38
0.027285371 0.092418194 1.0039999 1.7033182e-38
0.029881181 0.09403915 1.0025001 1.5739935e-38
0.033913147 0.095064856 1.0022 1.5178135e-38
0.038611908 0.09565223 1.001 1.6561396e-38
0.042414598 0.095067203 1.0010002 1.8044452e-38
0.045632254 0.093897134 1.001 1.5832485e-38
0.049769249 0.094398588 1.001 1.3157725e-38
0.053530149 0.093897134 1.0010002 1.0960127e-38
0.033446584 0.097699232 1.0039999 1.2402233e-38
0.037847448 0.098579407 1.0039999 1.3700125e-38
0.042248316 0.098579407 1.0039999 1.7212895e-38
0.04576901 0.098579407 1.0039999 1.3894935e-38
0.050119035 0.098482102 1.003 1.2330844e-38
0.053690568 0.097699232 1.0039999 1.1605844e-38
0.039021015 0.1018067 1.0039999 1.5275021e-38
0.041954927 0.1018067 1.0039999 1.6475341e-38
0.044888835 0.10121992 1.0039999 1.4448086e-38
0.018538868 0.089163132 1.007 1.1235252e-38
0.022952884 0.090928733 1.007 1.5650993e-38
0.026484098 0.093577147 1.007 1.7217935e-38
0.027366901 0.09622556 1.007 1.6572574e-38
0.029721044 0.097402632 1.007 1.4632146e-38
0.033546522 0.09975677 1.007 1.249332e-38
0.034429327 0.10152237 1.007 1.407324e-38
0.036783472 0.10269945 1.007 1.5182464e-38
0.043257359 0.10328799 1.007 1.6200185e-38
0.045905769 0.10240518 1.007 1.4908741e-38
0.049731251 0.10211091 1.007 1.2333021e-38
0.052085392 0.10240518 1.007 1.2613198e-38
0.017413523 0.090609342 1.01 9.5822204e-39
0.020364966 0.091199629 1.01 1.1788426e-38
0.017708667 0.09297049 1.01 1.0132883e-38
0.022578549 0.093413204 1.01 1.5372938e-38
0.025677565 0.094741359 1.01 1.7678196e-38
0.023906698 0.096512228 1.01 1.7121412e-38
0.026563 0.097397663 1.01 1.6664044e-38
0.030399874 0.10064425 1.01 1.4447398e-38
0.033351321 0.10300541 1.01 1.5090257e-38
0.046927962 0.1035957 1.01 1.4725793e-38
0.048698831 0.1035957 1.01 1.3896032e-38
0.033646464 0.10536657 1.01 1.6567535e-38
0.038959064 0.10536657 1.01 1.8322856e-38
0.042500798 0.10536657 1.01 1.7493456e-38
0.045157097 0.10536657 1.01 1.7124672e-38
0.050469697 0.10536657 1.01 1.1969597e-38
0.052240565 0.10536657 1.01 1.2153628e-38
0.017761268 0.095022775 1.013 1.0317283e-38
0.021313518 0.095022775 1.013 1.1503961e-38
0.01864933 0.096798897 1.013 1.1327114e-38
0.022201583 0.097686961 1.013 1.3253866e-38
0.025753837 0.098575026 1.013 1.6294177e-38
0.023089645 0.10035115 1.013 1.5189973e-38
0.027085932 0.10168325 1.013 1.6755874e-38
0.029898133 0.10331136 1.013 1.6296695e-38
0.054882314 0.10177206 1.013 1.0687495e-38
0.027529962 0.10567953 1.013 1.4082884e-38
0.030490175 0.10627158 1.013 1.4909796e-38
0.033746406 0.10745566 1.013 1.5827417e-38
0.037742693 0.10701163 1.013 1.7584932e-38
0.042627037 0.10745566 1.013 1.7402335e-38
0.046475314 0.10686362 1.013 1.5282558e-38
0.049435526 0.10686362 1.013 1.2888336e-38
0.053579818 0.10686362 1.013 1.0779329e-38
0.033746406 0.10923178 1.013 1.470781e-38
0.038630754 0.10967581 1.013 1.7492723e-38
0.041738976 0.11011985 1.013 1.7217202e-38
0.01870456 0.098866954 1.016 1.1696617e-38
0.020485945 0.098866954 1.016 1.2710768e-38
0.018759791 0.10094553 1.0190001 1.1697326e-38
0.021079741 0.10183594 1.016 1.4367041e-38
0.024939414 0.10242973 1.016 1.6480356e-38
0.021693703 0.1049075 1.0170001 1.4271264e-38
0.02553321 0.10599251 1.016 1.3620855e-38
0.029392879 0.10777389 1.016 1.3708749e-38
0.056113679 0.10510181 1.016 9.6769482e-39
0.022333084 0.10809212 1.0190001 1.3623768e-38
0.025890071 0.10981407 1.0184001 9.8430371e-39
0.030283574 0.11044597 1.016 8.6373053e-39
0.033846349 0.11133667 1.016 1.3604617e-38
0.037409119 0.11133667 1.016 1.7582027e-38
0.04364397 0.11044598 1.016 1.5836817e-38
0.046316054 0.11044598 1.016 1.1500382e-38
0.049916305 0.11052816 1.0167501 1.0580564e-38
0.052628491 0.11061035 1.0175 1.2890112e-38
0.027693022 0.11434539 1.0190001 1.0674967e-38
0.030305272 0.11409356 1.0167501 7.9973308e-39
0.033871986 0.11409356 1.0167501 1.0290332e-38
0.03746435 0.11417837 1.0175 1.5645523e-38
0.041884065 0.11406529 1.0165 1.6389245e-38
0.046419285 0.11426188 1.01825 1.31642e-38
0.050026108 0.11434539 1.0190001 1.2429863e-38
0.052706078 0.11434539 1.0190001 1.1971764e-38
0.030372994 0.11702536 1.0190001 1.2333039e-38
0.033946287 0.11702536 1.0190001 1.3899294e-38
0.037817355 0.11762091 1.0190001 1.6572912e-38
0.041986197 0.11791869 1.0190001 1.3164164e-38
0.046452813 0.11791869 1.0190001 1.4176525e-38
0.049132783 0.11702536 1.0190001 1.1780534e-38
0.046452813 0.12059864 1.0190001 1.3439332e-38
0.022398831 0.1110982 1.022 1.4640779e-38
0.02508669 0.11199415 1.022 1.1508307e-38
0.025385341 0.11438337 1.0220001 1.4270571e-38
0.027774552 0.11736987 1.022 1.5100671e-38
0.03046241 0.11916178 1.022 1.5557706e-38
0.034046225 0.11916178 1.022 1.5098173e-38
0.036734082 0.11916178 1.022 1.6387094e-38
0.050472032 0.11856448 1.0220001 1.0956192e-38
0.05286124 0.11736987 1.022 1.0865085e-38
0.031358361 0.12095369 1.022 1.6665826e-38
0.034046225 0.12095369 1.022 1.6479302e-38
0.037630036 0.12095369 1.022 1.3623408e-38
0.042109802 0.1209537 1.0220001 1.1689028e-38
0.049277429 0.12095369 1.022 1.233406e-38
0.020667415 0.10962716 1.025 1.3352917e-38
0.021581121 0.11420358 1.02575 1.2890117e-38
0.024261748 0.11591724 1.025 1.57435e-38
0.022530332 0.11805894 1.028 1.1500745e-38
0.025713686 0.11886267 1.0256001 1.56499e-38
0.026479363 0.12231376 1.0274 1.5468029e-38
0.030252306 0.12250686 1.025 1.6571844e-38
0.034146167 0.12310591 1.025 1.6479661e-38
0.037740499 0.12310591 1.025 1.2703977e-38
0.04133483 0.12310591 1.025 1.0672037e-38
0.045827746 0.12310591 1.025 1.3070205e-38
0.050467946 0.12256501 1.028 1.0218273e-38
0.027937612 0.12526865 1.028 1.6667624e-38
0.030941656 0.12586945 1.0280001 1.6481087e-38
0.034246102 0.12616986 1.028 1.6573287e-38
0.037822686 0.12607847 1.0272499 1.6483988e-38
0.041395325 0.12598707 1.0265 1.6024083e-38
0.046322368 0.12598962 1.028 1.3261076e-38
0.049566731 0.12526865 1.028 6.623715e-39
0.037850957 0.1288735 1.028 1.3073427e-38
0.040554598 0.1288735 1.028 1.2428813e-38
0.022596082 0.121115 1.031 1.196243e-38
0.02440377 0.12382654 1.031 1.5282484e-38
0.026211455 0.12563422 1.031 1.528469e-38
0.044288322 0.12744191 1.031 1.6116271e-38
0.049711384 0.12744191 1.031 5.6160245e-39
0.020848887 0.12146743 1.034 1.0593114e-38
0.053481925 0.1223739 1.034 9.2988527e-39
0.022661833 0.12418684 1.034 1.3438571e-38
0.053481925 0.12418684 1.034 9.8508648e-39
0.02092954 0.11829739 1.038 9.5779212e-39
