# .PCD v0.7 - Point Cloud Data file format
VERSION 0.7
FIELDS x y z rgb
SIZE 4 4 4 4
TYPE F F F F
COUNT 1 1 1 1
WIDTH 341
HEIGHT 1
VIEWPOINT 0 0 0 1 0 0 0
POINTS 341
DATA ascii
-0.042342994 0.069958001 1.05 2.3501247e-38
-0.038660996 0.069958001 1.05 2.3509886e-38
-0.042342994 0.072719492 1.05 2.1163592e-38
-0.038660996 0.073639989 1.05 2.1538518e-38
-0.052668381 0.066528477 1.054 2.3509886e-38
-0.049896359 0.066528477 1.054 2.3509886e-38
-0.046200335 0.066528477 1.054 2.3509886e-38
-0.042504303 0.066528477 1.054 2.3509886e-38
-0.038253877 0.066713281 1.054 2.3509886e-38
-0.034188244 0.067452483 1.054 2.1850364e-38
-0.052668381 0.069300503 1.054 2.3484706e-38
-0.049896359 0.070224509 1.054 2.2464444e-38
-0.046200335 0.070224509 1.054 2.2926494e-38
-0.036036257 0.070224509 1.054 2.3509886e-38
-0.034188244 0.070224509 1.054 2.3509886e-38
-0.049588352 0.073612534 1.0540001 1.9232566e-38
-0.046200335 0.073920533 1.054 1.9967609e-38
-0.042504303 0.074844539 1.054 1.9601674e-38
-0.036036257 0.073920533 1.054 2.3476446e-38
-0.033264238 0.073920533 1.054 2.3495871e-38
-0.03049222 0.073920533 1.054 2.3499841e-38
-0.045276325 0.076692551 1.054 2.052583e-38
-0.042196304 0.077308558 1.0540001 2.3113729e-38
-0.037884276 0.077616557 1.054 2.0066977e-38
-0.034188244 0.076692551 1.054 2.3005023e-38
-0.03809993 0.058543798 1.0599999 2.313643e-38
-0.033453599 0.058543798 1.0599999 2.3509886e-38
-0.030665798 0.058543798 1.0599999 2.2030809e-38
-0.052918226 0.062200375 1.059 2.3501994e-38
-0.050309446 0.062559985 1.0588001 2.3508809e-38
-0.046397582 0.063099399 1.0585001 2.3509886e-38
-0.042686217 0.062171008 1.0585001 2.2766224e-38
-0.038028046 0.062141638 1.0580001 2.3410499e-38
-0.033390481 0.062141638 1.0580001 2.3226474e-38
-0.029680427 0.062141638 1.0580001 2.3314728e-38
-0.02694873 0.062260862 1.0599999 2.0631731e-38
-0.056524839 0.067644477 1.057 2.3494094e-38
-0.054723285 0.065851696 1.0580001 2.2396724e-38
-0.036138833 0.065791205 1.057 2.3509886e-38
-0.033050042 0.066408962 1.057 2.2193279e-38
-0.029652374 0.066717841 1.057 2.0978559e-38
-0.026205316 0.06634964 1.0599999 2.2835062e-38
-0.056605048 0.070525639 1.0585001 2.3395426e-38
-0.054053806 0.070733264 1.057 2.2927939e-38
-0.032432284 0.070424385 1.057 2.349159e-38
-0.029652374 0.070424385 1.057 2.080497e-38
-0.026019463 0.070624262 1.0599999 2.2926175e-38
-0.056685261 0.074341327 1.0599999 1.8139177e-38
-0.053859986 0.074289389 1.05925 1.9510235e-38
-0.050965015 0.075057574 1.057 1.8590804e-38
-0.028725738 0.074130937 1.057 2.349409e-38
-0.025981331 0.074236132 1.0585001 2.2105758e-38
-0.023231665 0.074341327 1.0599999 8.8303033e-39
-0.053897463 0.077129126 1.0599999 1.8130549e-38
-0.050145548 0.078003824 1.05925 1.8314943e-38
-0.046685424 0.078220874 1.0580001 1.9603852e-38
-0.043551922 0.078764111 1.057 2.3482888e-38
-0.033050042 0.078146361 1.057 2.1445245e-38
-0.029652374 0.077837482 1.057 2.348544e-38
-0.025945827 0.077837482 1.057 1.7588129e-38
-0.023231665 0.078058392 1.0599999 3.5815844e-39
-0.049251128 0.08084619 1.0599999 1.6844087e-38
-0.046110623 0.081389442 1.059 1.7950423e-38
-0.042685773 0.08166106 1.0585001 1.9338364e-38
-0.037992105 0.081544027 1.0570002 1.8136977e-38
-0.03335892 0.081544027 1.057 1.887059e-38
-0.029652374 0.081544027 1.057 2.0811018e-38
-0.026000397 0.081718259 1.05925 1.2150355e-38
-0.041816995 0.084563255 1.0599999 1.5833191e-38
-0.038064867 0.085412756 1.059 1.657111e-38
-0.033453599 0.085492522 1.0599999 1.7585239e-38
-0.02973653 0.085492522 1.0599999 1.8142725e-38
-0.02694873 0.085492522 1.0599999 8.0051739e-39
-0.033453599 0.088280328 1.0599999 1.6667987e-38
-0.02973653 0.088280328 1.0599999 1.2061784e-38
-0.033548277 0.054981899 1.063 2.341338e-38
-0.030752588 0.054981899 1.063 2.082795e-38
-0.050322413 0.058709484 1.063 2.3505931e-38
-0.046594828 0.058709484 1.063 2.3509886e-38
-0.041935347 0.058088221 1.063 2.23996e-38
-0.037275866 0.056845691 1.063 2.3509886e-38
-0.033548277 0.056845691 1.063 2.3506298e-38
-0.029510062 0.057466954 1.063 2.2751836e-38
-0.027025001 0.057777587 1.063 2.3490126e-38
-0.049390517 0.060573284 1.063 2.3509886e-38
-0.046594828 0.060573284 1.063 2.3509886e-38
-0.025782472 0.06119455 1.063 2.2372963e-38
-0.025161207 0.064300865 1.063 2.0249269e-38
-0.023297414 0.065232761 1.063 1.4720405e-38
-0.058709484 0.071756035 1.063 2.1824491e-38
-0.023297414 0.069892243 1.063 1.4355215e-38
-0.060573284 0.074551731 1.063 1.7779332e-38
-0.058709484 0.074551731 1.063 1.9430276e-38
-0.057466954 0.077968687 1.063 1.7588489e-38
-0.054050002 0.079211213 1.063 1.7857185e-38
-0.053739369 0.081696272 1.063 1.7492707e-38
-0.050633043 0.082317531 1.063 1.6939169e-38
-0.047526725 0.082938798 1.063 1.6201238e-38
-0.023297414 0.082006902 1.063 6.0668825e-39
-0.046284199 0.085423857 1.063 1.6110857e-38
-0.043177873 0.086045116 1.063 1.5834277e-38
-0.025161207 0.085734487 1.063 5.0581269e-39
-0.037275866 0.088530175 1.063 1.6298842e-38
-0.033548277 0.090393975 1.063 1.5196816e-38
-0.029820692 0.090393975 1.063 7.4620685e-39
-0.026093103 0.088530175 1.063 3.4962299e-39
-0.041157745 0.055188797 1.067 2.3509886e-38
-0.037416134 0.054253392 1.067 2.3509886e-38
-0.028997501 0.055188797 1.067 2.3214256e-38
-0.027126696 0.055188797 1.067 2.3498765e-38
-0.043028556 0.057059605 1.067 2.3509886e-38
-0.025255889 0.057995006 1.067 2.349048e-38
-0.022761483 0.05830681 1.0670002 1.8130552e-38
-0.02244968 0.061736617 1.067 1.4622408e-38
-0.019643471 0.062672019 1.067 1.1309148e-38
-0.021514276 0.065478235 1.067 1.1873814e-38
-0.019643471 0.065478235 1.067 5.8818172e-39
-0.021514276 0.069219843 1.067 9.5725389e-39
-0.019643471 0.069219843 1.067 5.1471486e-39
-0.021514276 0.072026059 1.067 9.0175168e-39
-0.019643471 0.072026059 1.067 6.8044615e-39
-0.021514276 0.083250895 1.067 5.6225237e-39
-0.053317986 0.085121699 1.067 1.5928592e-38
-0.050511777 0.086057104 1.067 1.5929696e-38
-0.047705568 0.08699251 1.067 1.6296321e-38
-0.02244968 0.086057104 1.067 6.90818e-39
-0.040222343 0.088863321 1.067 1.6022975e-38
-0.022761483 0.089486919 1.0670002 7.0047169e-39
-0.032831166 0.051591832 1.0700001 2.3509886e-38
-0.030017067 0.051591832 1.0700001 2.3509886e-38
-0.049715769 0.055343967 1.0700001 2.3488701e-38
-0.045494616 0.054874949 1.0700001 2.3508092e-38
-0.041273467 0.0534679 1.0700001 2.3509886e-38
-0.033769198 0.0534679 1.0700001 2.3509886e-38
-0.030017067 0.0534679 1.0700001 2.3509886e-38
-0.026264932 0.054405935 1.0700001 2.3505209e-38
-0.022512801 0.055343967 1.0700001 2.2748217e-38
-0.049715769 0.057220034 1.0700001 2.3508809e-38
-0.046901666 0.057220034 1.0700001 2.3509886e-38
-0.021574765 0.057220034 1.0700001 2.2274663e-38
-0.0196987 0.05815807 1.0700001 2.1073267e-38
-0.0196987 0.060972165 1.0700001 1.784314e-38
-0.057220034 0.081608899 1.0700001 1.7408353e-38
-0.055343967 0.083484963 1.0700001 1.7124634e-38
-0.054405935 0.086299062 1.0700001 1.3811692e-38
-0.032923214 0.047973827 1.073 2.3509886e-38
-0.030101225 0.047033161 1.073 2.3505221e-38
-0.02633857 0.047973827 1.073 2.1731589e-38
-0.02351658 0.047973827 1.073 2.3466057e-38
-0.046092503 0.051736485 1.073 2.2119758e-38
-0.041389182 0.050795816 1.073 2.3509886e-38
-0.037626531 0.050795816 1.073 2.3509886e-38
-0.03417743 0.050482266 1.073 2.3509886e-38
-0.030101225 0.04985515 1.073 2.3509886e-38
-0.026338572 0.050795816 1.073 2.3040652e-38
-0.022889473 0.051109374 1.073 2.3211392e-38
-0.04985515 0.053617805 1.073 1.7229099e-38
-0.047033161 0.053617805 1.073 2.092014e-38
-0.025397908 0.053617805 1.073 2.3509527e-38
-0.022575919 0.053617805 1.073 2.3034551e-38
-0.019753929 0.054558471 1.073 2.301727e-38
-0.017872602 0.062083773 1.073 9.7568797e-39
-0.017872602 0.065846428 1.073 5.1521148e-39
-0.017872602 0.068668418 1.073 3.3168398e-39
-0.021635255 0.074312396 1.073 5.2346471e-39
-0.019753929 0.074312396 1.073 8.0905606e-39
-0.059261788 0.079956375 1.073 1.6760526e-38
-0.030213438 0.042487647 1.077 2.3508451e-38
-0.026436761 0.04154348 1.077 2.3133196e-38
-0.044375986 0.046264332 1.077 2.3509886e-38
-0.042487647 0.046264332 1.077 2.3509886e-38
-0.037452079 0.045634888 1.077 2.3509886e-38
-0.033990115 0.045320161 1.077 2.3509886e-38
-0.030213438 0.044375986 1.077 2.2949178e-38
-0.026436761 0.045320161 1.077 2.2469133e-38
-0.02266008 0.045320161 1.077 2.3482923e-38
-0.04815267 0.050041009 1.077 2.1645129e-38
-0.045005437 0.049411565 1.077 2.3508809e-38
-0.041543476 0.04815267 1.077 2.3509886e-38
-0.037766799 0.04815267 1.077 2.3509886e-38
-0.034934286 0.04815267 1.077 2.3509886e-38
-0.021715909 0.049096838 1.077 2.3471435e-38
-0.019827571 0.050041012 1.077 2.3478988e-38
-0.016995061 0.058538534 1.077 9.8501557e-39
-0.01605089 0.062315222 1.077 6.5300326e-39
-0.01605089 0.065147728 1.077 8.2795538e-39
-0.01793923 0.070812747 1.077 4.7941784e-39
-0.03706196 0.038962573 1.084 2.3509886e-38
-0.034211036 0.038962573 1.084 2.3509886e-38
-0.030409813 0.038962573 1.084 2.3509886e-38
-0.026608584 0.038962573 1.084 2.3509886e-38
-0.044664409 0.042763796 1.084 2.3497668e-38
-0.041813493 0.042763796 1.084 2.3509886e-38
-0.037649911 0.042077661 1.0826668 2.3509886e-38
-0.034084801 0.041659199 1.08 2.3509886e-38
-0.0302976 0.040712401 1.08 2.3509168e-38
-0.022743363 0.041696895 1.081 2.3501985e-38
-0.01995644 0.041813493 1.084 2.3504146e-38
-0.045762002 0.0451308 1.0800002 2.3506657e-38
-0.0413436 0.0451308 1.0800002 2.3509886e-38
-0.038818799 0.044499598 1.08 2.3509886e-38
-0.019919619 0.045528807 1.082 2.3494809e-38
-0.048286799 0.048286799 1.08 2.1277448e-38
-0.046393201 0.048286799 1.08 2.3501635e-38
-0.017422289 0.049732715 1.084 2.2008135e-38
-0.017062273 0.054033056 1.0813334 1.5278192e-38
-0.0142546 0.053217169 1.084 8.1838058e-39
-0.014219533 0.057823762 1.0813334 4.1354812e-39
-0.016095599 0.067222796 1.08 6.634065e-39
-0.016125407 0.070194699 1.082 7.2819876e-39
-0.0179892 0.072903603 1.08 5.8065226e-39
-0.034305722 0.035258658 1.087 2.3509886e-38
-0.030493973 0.034305722 1.087 2.3509886e-38
-0.026682226 0.034305722 1.087 2.3509886e-38
-0.023823416 0.035258658 1.087 2.3509886e-38
-0.041929211 0.039070401 1.087 2.3500193e-38
-0.038117465 0.038117465 1.087 2.3509886e-38
-0.034305722 0.037164528 1.087 2.3509886e-38
-0.030493973 0.037164528 1.087 2.3509886e-38
-0.026682226 0.037164528 1.087 2.3509886e-38
-0.022394011 0.038593933 1.087 2.3325494e-38
-0.041929211 0.040976275 1.087 2.3507016e-38
-0.039070401 0.040976275 1.087 2.3509886e-38
-0.018105796 0.042882148 1.087 2.3495172e-38
-0.017470505 0.046058606 1.0870001 2.2847995e-38
-0.016199922 0.048599768 1.087 2.0809945e-38
-0.013658758 0.049870353 1.0870001 1.2430158e-38
-0.012388176 0.053364452 1.087 5.9721869e-39
-0.012388176 0.057176195 1.087 8.3725061e-39
-0.0344004 0.031533699 1.09 2.3509886e-38
-0.030578133 0.030578133 1.09 2.3509886e-38
-0.026755866 0.030578133 1.09 2.3509886e-38
-0.022455817 0.031055916 1.09 1.9898099e-38
-0.042044934 0.035355967 1.09 2.3497685e-38
-0.037904143 0.034718923 1.09 2.3509886e-38
-0.0344004 0.033444833 1.09 2.3509886e-38
-0.021595806 0.034209289 1.09 2.2402103e-38
-0.044911634 0.039178234 1.09 2.0818965e-38
-0.042044934 0.0372671 1.09 2.3495172e-38
-0.039178234 0.0372671 1.09 2.3509886e-38
-0.021022467 0.0372671 1.09 2.2864516e-38
-0.0172002 0.039178234 1.09 1.9519967e-38
-0.044911634 0.041089367 1.09 2.2479561e-38
-0.016881678 0.04172641 1.09 1.9063302e-38
-0.013377933 0.042044934 1.09 1.6287034e-38
-0.016244633 0.044911634 1.09 2.182916e-38
-0.013377933 0.045867201 1.09 1.5927195e-38
-0.012422366 0.048733898 1.09 5.3307636e-39
-0.010511233 0.049689464 1.09 3.1274473e-39
-0.0098741893 0.053193212 1.09 5.1611672e-39
-0.010511233 0.056378435 1.09 6.5437415e-39
-0.037403859 0.027813125 1.094 2.2947361e-38
-0.034526639 0.027813125 1.094 2.3509886e-38
-0.030690344 0.027813125 1.094 2.3509886e-38
-0.026854053 0.026854051 1.094 2.3509886e-38
-0.02333745 0.027173743 1.0940001 2.3508451e-38
-0.041240152 0.031649418 1.094 2.0737941e-38
-0.038043242 0.031010037 1.0940001 2.3509886e-38
-0.034526639 0.02973127 1.094 2.3509886e-38
-0.021099612 0.02973127 1.094 1.9334147e-38
-0.045076445 0.035485711 1.094 1.7306905e-38
-0.042199224 0.033567566 1.094 2.340513e-38
-0.039322004 0.033567566 1.094 2.3509886e-38
-0.017263319 0.035485711 1.094 1.9517094e-38
-0.014386099 0.035485711 1.094 1.6477476e-38
-0.045076445 0.037403859 1.094 1.7951628e-38
-0.017263319 0.037403859 1.094 1.9149733e-38
-0.013746716 0.038682625 1.0940001 1.4350532e-38
-0.010549806 0.039322004 1.094 1.1602999e-38
-0.0095907329 0.042199224 1.094 1.003529e-38
-0.0067135128 0.042199224 1.094 7.3745588e-39
-0.0095907329 0.046035517 1.094 6.7158756e-39
-0.0067135128 0.046035517 1.094 5.9001854e-39
-0.0086316597 0.04987181 1.094 7.0000169e-39
-0.026350668 0.013656187 1.097 2.3509886e-38
-0.025004286 0.016348956 1.097 2.3509886e-38
-0.037506428 0.025965989 1.097 1.8427327e-38
-0.034300752 0.025324855 1.097 2.3509886e-38
-0.030774506 0.025004286 1.097 2.3509886e-38
-0.025965989 0.024042582 1.097 2.3509886e-38
-0.020836905 0.026607124 1.097 2.018797e-38
-0.042314947 0.030774506 1.097 1.9438564e-38
-0.039429836 0.029812802 1.097 2.3509886e-38
-0.017631229 0.031095073 1.097 1.8034421e-38
-0.045200057 0.033659615 1.097 1.4360605e-38
-0.01731066 0.033659615 1.097 1.9425581e-38
-0.012502142 0.035583023 1.097 1.7122844e-38
-0.010578737 0.035583023 1.097 1.6120236e-38
-0.012502142 0.037506428 1.097 1.5180659e-38
-0.0096170334 0.03846813 1.097 1.1602645e-38
-0.0067319227 0.039429836 1.097 9.3996004e-39
-0.033782348 0.014478149 1.101 2.3509886e-38
-0.030886717 0.013512939 1.101 2.3413729e-38
-0.021234617 0.014478149 1.101 2.3509886e-38
-0.034747556 0.017373778 1.101 2.3509168e-38
-0.030886717 0.017373778 1.101 2.3509886e-38
-0.026543273 0.017856382 1.101 2.3509886e-38
-0.021234617 0.017373778 1.101 2.3509886e-38
-0.037643187 0.022199828 1.101 1.9441464e-38
-0.034747556 0.021234618 1.101 2.3509886e-38
-0.030564979 0.021556355 1.1010001 2.3509886e-38
-0.026060669 0.021234617 1.101 2.3509886e-38
-0.021234617 0.021234617 1.101 2.3509886e-38
-0.038608395 0.026060669 1.101 2.0451276e-38
-0.035712767 0.024130249 1.101 2.3509886e-38
-0.021234617 0.024130249 1.101 2.2311342e-38
-0.017695514 0.027347615 1.1010001 2.2839722e-38
-0.014478149 0.027991088 1.101 2.3509886e-38
-0.016408568 0.029921506 1.101 1.7017036e-38
-0.013512939 0.030886717 1.101 2.1924032e-38
-0.010617308 0.030886717 1.101 2.3509886e-38
-0.013512939 0.033782348 1.101 1.748444e-38
-0.0096520986 0.034747556 1.101 1.7501374e-38
-0.008686889 0.037643187 1.101 1.2893391e-38
-0.0067564696 0.037643187 1.101 1.170337e-38
-0.0290615 0.010655884 1.105 2.1563265e-38
-0.017436899 0.017436899 1.105 2.3509886e-38
-0.013562033 0.018405616 1.105 2.3509886e-38
-0.010655884 0.018405616 1.105 1.9915746e-38
-0.039717384 0.022280483 1.105 1.6859881e-38
-0.031967647 0.020343048 1.105 2.3509886e-38
-0.017436899 0.021311766 1.105 2.3509886e-38
-0.013562033 0.021311766 1.105 2.3509886e-38
-0.0096871667 0.021311766 1.105 2.194256e-38
-0.0061352057 0.021634672 1.105 9.409041e-39
-0.039717384 0.025186632 1.105 1.7593532e-38
-0.017113995 0.024863726 1.105 2.313786e-38
-0.013562033 0.025186632 1.105 2.3509886e-38
-0.0096871667 0.025186632 1.105 2.3509886e-38
-0.0058122999 0.025186632 1.105 1.4842801e-38
-0.012593316 0.028092783 1.105 2.3509886e-38
-0.0092028081 0.029545857 1.105 2.2864157e-38
-0.0058122999 0.030030219 1.105 1.3738524e-38
-0.0087184496 0.033905081 1.105 1.8975424e-38
-0.0058122999 0.034873798 1.105 1.0876842e-38
-0.0048435833 0.03777995 1.105 9.1218925e-39
-0.0029140399 0.029140398 1.108 7.096174e-39
-0.0029245599 0.03314501 1.112 7.1908864e-39
-0.0048567331 0.039825212 1.108 9.3996004e-39
-0.0029245599 0.036069572 1.112 7.7444175e-39
-0.0048742662 0.041918691 1.112 8.8486099e-39
