# .PCD v0.7 - Point Cloud Data file format
VERSION 0.7
FIELDS x y z rgb
SIZE 4 4 4 4
TYPE F F F F
COUNT 1 1 1 1
WIDTH 492
HEIGHT 1
VIEWPOINT 0 0 0 1 0 0 0
POINTS 492
DATA ascii
0.0016761866 0.099733099 0.95599997 1.3655795e-38
0.010895212 0.099733099 0.95599997 1.3103693e-38
0.013409492 0.099733099 0.95599997 1.3563595e-38
-0.0016761866 0.10224738 0.95599997 1.2826396e-38
0.0016761866 0.10224737 0.95599997 1.282604e-38
0.0067047463 0.10224737 0.95599997 1.2918594e-38
0.01005712 0.10224738 0.95599997 1.2641645e-38
0.014247584 0.10224738 0.95599997 1.2640201e-38
-0.0041904664 0.10559975 0.95599997 1.1993757e-38
-0.0016761867 0.10559975 0.95599997 1.1994121e-38
0.0016761867 0.10559975 0.95599997 1.2362907e-38
0.0058666538 0.10559976 0.95599997 1.1904095e-38
0.01005712 0.10559975 0.95599997 1.1996288e-38
0.014247584 0.10559975 0.95599997 1.1902642e-38
0.018158689 0.10587912 0.95600003 1.1626049e-38
0.020952333 0.10643785 0.95599997 1.1164714e-38
-0.0046095131 0.11020926 0.95599997 1.0887051e-38
-0.0016761867 0.10979022 0.95599997 1.1256551e-38
0.0016761867 0.10979022 0.95599997 1.1441305e-38
0.0058666533 0.10979021 0.95599991 1.1350192e-38
0.01005712 0.10979022 0.95599997 1.0980691e-38
0.014247585 0.10979022 0.95599991 1.1071441e-38
0.018438052 0.10979021 0.95599997 1.1439506e-38
0.021790426 0.10979022 0.95599997 1.1625319e-38
0.025142798 0.11062831 0.95599997 1.1440205e-38
-0.0050285598 0.1139807 0.95599997 9.7821395e-39
-0.0016761867 0.1139807 0.95599997 1.0056929e-38
0.0016726798 0.11374223 0.954 9.8729044e-39
0.0058666533 0.1139807 0.95599997 1.0610454e-38
0.01005712 0.11398069 0.95599997 1.0149839e-38
0.014247587 0.1139807 0.95599997 1.0425712e-38
0.018438052 0.1139807 0.95599997 1.0333158e-38
0.021790426 0.11398069 0.95599997 1.0424272e-38
0.025142798 0.1139807 0.95599997 1.0884523e-38
-0.0050285598 0.11649497 0.95599997 1.0057996e-38
-0.0016761867 0.11817115 0.95599997 9.5044498e-39
0.0016761867 0.11817116 0.95599997 9.2285859e-39
0.0055314158 0.11716544 0.95599997 9.3208012e-39
0.01005712 0.11733306 0.95599997 9.8728946e-39
0.014247585 0.11649498 0.95600003 9.7803458e-39
0.018438052 0.11733306 0.95599997 9.596665e-39
0.021511063 0.1170537 0.95600003 9.9647245e-39
-0.00083809328 0.12236162 0.95599997 9.406499e-39
0.0013968222 0.12208226 0.95600003 8.7668833e-39
0.021858806 0.079868712 0.95899999 1.7154186e-38
0.021858806 0.081550159 0.95899999 1.7525844e-38
0.010368921 0.09444125 0.95899999 1.4669601e-38
0.013956008 0.094329149 0.95900005 1.4669245e-38
0.01765519 0.095001727 0.95899999 1.4946905e-38
-0.0014012055 0.097804144 0.95899999 1.3840188e-38
0.0016814466 0.097523898 0.95899999 1.4117138e-38
0.0058850627 0.097523898 0.95900005 1.3933111e-38
0.010088679 0.097523898 0.95899999 1.39324e-38
0.014292298 0.097523898 0.95900005 1.4300809e-38
0.018495914 0.097523898 0.95899999 1.3839828e-38
0.021858806 0.098364621 0.95899999 1.3471049e-38
-0.0047640987 0.10284849 0.95899999 1.2917152e-38
-0.0016814466 0.10004608 0.95899999 1.3563245e-38
0.0052124849 0.10105494 0.95900005 1.2826404e-38
0.0092479559 0.10004608 0.95899999 1.3011147e-38
0.015973743 0.10004608 0.95899999 1.3378488e-38
0.018495914 0.10172753 0.95900005 1.3284848e-38
0.021858808 0.10172753 0.95900005 1.2456895e-38
0.025501942 0.10228801 0.95900005 1.2363263e-38
-0.0064455452 0.10621138 0.95899999 1.1532775e-38
0.019336635 0.10509041 0.95899999 1.1902999e-38
0.022139048 0.10565089 0.95899999 1.1441664e-38
0.026062425 0.10593113 0.95900005 1.1623888e-38
-0.0098084388 0.11125572 0.95899999 9.5033974e-39
-0.0068939305 0.10979845 0.95900005 1.0425355e-38
0.026735002 0.10946216 0.95900005 1.125439e-38
0.029425314 0.11097547 0.95899999 1.1253314e-38
-0.010088679 0.11433836 0.95899999 9.7810479e-39
-0.0075665093 0.11433837 0.95899999 1.0058718e-38
0.027743869 0.11433837 0.95899999 1.0885591e-38
-0.0092479559 0.11686053 0.95899999 8.7669015e-39
-0.0063054245 0.11812162 0.95899999 9.5048183e-39
0.0075665093 0.11854198 0.95899999 9.3215103e-39
0.014292296 0.11854198 0.95899999 9.7803346e-39
0.022699529 0.11854198 0.95899999 9.9668797e-39
0.025221698 0.11770125 0.95899999 1.0147664e-38
-0.0050443397 0.12022343 0.95899999 8.4877755e-39
-0.0025221698 0.1227456 0.95899999 8.8533252e-39
0.0025221698 0.12358632 0.95899999 7.9364094e-39
0.0058850632 0.12190486 0.95900005 9.0438346e-39
0.010088679 0.12190487 0.95900005 9.4122625e-39
0.014292298 0.12190486 0.95900005 9.2275154e-39
0.018327769 0.12156858 0.95900005 9.2271538e-39
0.021018082 0.12022343 0.95899999 1.0056546e-38
-0.00084072328 0.1261085 0.95899999 7.9313773e-39
0.0014012055 0.12582825 0.95899999 8.0246506e-39
0.010130759 0.091175959 0.963 1.5406816e-38
0.01350768 0.091175959 0.96299994 1.5591564e-38
0.017747238 0.090426408 0.96399999 1.5499719e-38
0.021127665 0.090426408 0.96399999 1.5314962e-38
-0.004788938 0.094933644 0.96399999 1.4209709e-38
-0.0015208413 0.094105251 0.96359998 1.4394092e-38
0.0016878755 0.093675926 0.96266663 1.457812e-38
0.005907564 0.093675919 0.96266663 1.4854349e-38
0.0092768865 0.093612216 0.96200001 1.4762507e-38
0.017967157 0.09321221 0.96285713 1.4854717e-38
0.021965466 0.093773812 0.96366662 1.4762152e-38
0.025353199 0.095497049 0.96399999 1.4209337e-38
-0.0092961732 0.098877475 0.96399999 1.3563248e-38
-0.0059122397 0.097964004 0.96333331 1.3656166e-38
-0.00253006 0.096985631 0.96200001 1.4301164e-38
0.021927185 0.096985631 0.96200001 1.4024949e-38
0.025839223 0.098119341 0.96320003 1.3378858e-38
-0.0099645434 0.10251039 0.96320003 1.2640204e-38
-0.0064683384 0.1015183 0.96233332 1.2917507e-38
0.027268425 0.10092129 0.96200007 1.2824241e-38
0.029985942 0.10262654 0.96349996 1.2545859e-38
0.032959159 0.10394812 0.96399999 1.3006111e-38
-0.012676599 0.10732854 0.96399999 1.0793045e-38
-0.01012024 0.10626252 0.96200001 1.1623527e-38
-0.0075901798 0.10541916 0.96200001 1.2178144e-38
0.030393155 0.10637297 0.96299994 1.2267816e-38
0.032959159 0.10648343 0.96399999 1.2912821e-38
-0.016057026 0.11070897 0.96399999 1.1341898e-38
-0.013240005 0.11014556 0.96399999 1.01466e-38
-0.010401359 0.10935482 0.96200007 9.9632909e-39
0.030685086 0.10950677 0.96333331 1.1713211e-38
-0.016705057 0.11423668 0.96240008 9.5904909e-39
-0.013521707 0.11408939 0.96399993 9.9621811e-39
0.029517367 0.11469605 0.96200001 1.0701198e-38
-0.013240005 0.11803323 0.96399999 9.0384354e-39
-0.010401359 0.11835059 0.96200007 8.4867119e-39
0.027859589 0.11819308 0.963 1.0148726e-38
0.02957873 0.11831493 0.96399999 1.0425313e-38
-0.012676599 0.12169535 0.96399999 8.6692857e-39
-0.010130759 0.12156999 0.963 8.5778131e-39
-0.0061444314 0.12276815 0.96200001 7.9324409e-39
0.019397125 0.12397294 0.96200001 9.1335163e-39
0.021927185 0.12228623 0.96200001 9.964709e-39
0.025839223 0.12142605 0.96320003 5.8191455e-39
-0.0098595778 0.12479408 0.96399999 8.3923415e-39
-0.0059122397 0.12667891 0.96333331 7.8395362e-39
-0.00253006 0.12650299 0.96200001 7.7466259e-39
0.00253006 0.12734635 0.96200001 7.011942e-39
0.0059096096 0.12663537 0.963 7.8438536e-39
0.010130759 0.12663537 0.963 6.0017137e-39
0.01350768 0.12663537 0.963 8.120781e-39
0.017735548 0.12667891 0.96333331 8.7643806e-39
0.021972772 0.12507579 0.96399999 9.4111751e-39
0.025353199 0.12423067 0.96399999 8.3055324e-39
-0.004225533 0.12930132 0.96399999 7.5625976e-39
-0.0016897749 0.13007936 0.96349996 7.5633039e-39
0.0016897749 0.13007936 0.96350002 7.8391817e-39
0.0059157461 0.12930134 0.96399999 7.1992045e-39
0.01014128 0.12930132 0.96399999 3.9795321e-39
0.013521707 0.12930132 0.96399999 7.7563159e-39
0.016902132 0.12930132 0.96399999 8.2119271e-39
0.019497944 0.082230456 0.96700001 1.697341e-38
0.022041153 0.083925925 0.96700001 1.6788635e-38
0.024584362 0.083078191 0.96700001 1.780134e-38
0.0016954732 0.087316871 0.96700001 1.5775218e-38
0.01017284 0.087316871 0.96700001 1.6328036e-38
0.013563786 0.087316871 0.96700001 1.6328763e-38
0.018226339 0.086893007 0.96700001 1.59607e-38
0.022041153 0.086469144 0.96700001 1.614472e-38
0.025432099 0.086469136 0.96700001 1.4943657e-38
-0.0016954732 0.090707824 0.96700001 1.494583e-38
0.0016954732 0.089860089 0.96700001 1.5222772e-38
0.006273251 0.090029635 0.96700001 1.5497929e-38
0.01017284 0.089012347 0.96700001 1.5958543e-38
0.013563786 0.089012347 0.96700001 1.5958906e-38
0.017802469 0.089012347 0.96700001 1.5868145e-38
0.022323733 0.089577511 0.96700001 1.5407879e-38
-0.0093251029 0.095794246 0.96700001 1.4117868e-38
-0.006273251 0.093759671 0.96700001 1.457777e-38
-0.0025432098 0.092403293 0.96700001 1.4762157e-38
0.026279837 0.094098769 0.96700001 1.457739e-38
0.030518519 0.095794246 0.96700001 1.5037286e-38
-0.01017284 0.098337449 0.96700001 1.3286673e-38
0.027975308 0.097489715 0.96700001 1.3563245e-38
0.030518521 0.098337442 0.96700001 1.4759982e-38
0.033909462 0.099185184 0.96700001 1.4942212e-38
-0.012716049 0.10257614 0.96700001 1.2640938e-38
-0.011020577 0.10088066 0.96700001 1.245692e-38
0.031366255 0.10172839 0.96700001 1.3650755e-38
0.033909462 0.10172839 0.96700001 1.4018813e-38
-0.016672155 0.1070974 0.96700001 1.171353e-38
-0.013733334 0.10562799 0.96700001 1.180755e-38
0.034757204 0.10596709 0.96700001 1.3005375e-38
-0.017237313 0.10992318 0.96700001 1.1341852e-38
-0.014411522 0.10935803 0.96700001 1.0881628e-38
0.033061728 0.11020576 0.96700001 1.1897243e-38
-0.017802469 0.11274898 0.96700001 1.0418791e-38
0.031366255 0.11359671 0.96700001 1.1069627e-38
0.033061728 0.11359671 0.96700001 1.1161823e-38
-0.014411522 0.11953086 0.96700001 9.2213623e-39
0.031366255 0.1178354 0.96700001 1.0332421e-38
-0.014411522 0.12122634 0.96700001 9.1277205e-39
0.027975308 0.12292181 0.96700001 3.6085621e-39
0.030518519 0.12122634 0.96700001 1.0426421e-38
-0.012716049 0.12546502 0.96700001 9.0358976e-39
-0.011020577 0.12631276 0.96700001 9.127017e-39
0.02288889 0.12631276 0.96700001 9.5026561e-39
0.026279835 0.12574761 0.96700001 8.6736073e-39
-0.012716049 0.12800823 0.96700001 9.0348214e-39
-0.0098902611 0.1285734 0.96700001 8.5756509e-39
-0.0059341565 0.13055143 0.96700001 7.7473434e-39
0.0059341565 0.13139918 0.96700001 7.5676255e-39
0.01017284 0.13139917 0.96700001 6.279409e-39
0.013563786 0.13139917 0.96700001 8.3066282e-39
0.018226339 0.13097529 0.96700001 8.5817872e-39
0.022041153 0.12885597 0.96700001 9.0431185e-39
0.024584362 0.12800823 0.96700001 9.227514e-39
-0.0042386833 0.13309465 0.96700001 7.196692e-39
-0.0016954732 0.1339424 0.96700001 7.3799972e-39
0.0016954733 0.1339424 0.96700001 7.1970437e-39
0.0059341565 0.13309465 0.96700001 7.4750683e-39
0.01017284 0.13309465 0.96700001 7.1991919e-39
0.013563786 0.13309465 0.96700001 8.3059066e-39
0.016954733 0.13309465 0.96700001 8.3059164e-39
0.018708067 0.079084098 0.97000003 1.1445269e-38
0.010204399 0.082485564 0.97000003 1.6328406e-38
0.017007332 0.081635192 0.97000003 1.71578e-38
-0.0042518335 0.087587766 0.97000003 1.494548e-38
-0.0017007333 0.086737394 0.97000003 1.5590125e-38
0.0017007333 0.085036665 0.97000003 1.5959614e-38
0.0059525669 0.085887037 0.97000015 1.6051459e-38
0.010204399 0.085036665 0.97000003 1.6420956e-38
0.013605866 0.085036665 0.97000003 1.6237281e-38
0.017007332 0.085036665 0.97000003 1.5869219e-38
0.028062101 0.087587766 0.97000003 9.1388888e-39
-0.0055273836 0.09056405 0.97000003 1.5129513e-38
-0.0017007333 0.089288503 0.97000003 1.5222416e-38
0.0042518335 0.089288503 0.97000003 1.5221697e-38
0.025511 0.090138867 0.97000003 1.172078e-38
0.028062101 0.090138867 0.97000003 8.5835809e-39
-0.0093540326 0.093540333 0.97000003 1.420934e-38
-0.0076533002 0.092689969 0.97000003 1.457777e-38
0.026361367 0.092689969 0.97000003 1.3747996e-38
0.030102981 0.093370259 0.97000009 1.4483026e-38
-0.012755499 0.0994929 0.97000003 1.3378147e-38
-0.011054766 0.096941799 0.97000003 1.3747646e-38
0.034014665 0.096941791 0.97000003 1.5217717e-38
0.03784132 0.099067718 0.97000003 1.0328822e-38
-0.016156966 0.10289437 0.97000003 1.273204e-38
-0.013889322 0.10176055 0.97000003 1.2640211e-38
0.038266502 0.102044 0.97000015 1.1895803e-38
0.042234879 0.10232746 0.97000003 1.0508144e-38
-0.018197848 0.10595568 0.97000009 1.1713912e-38
0.038023539 0.10580992 0.97000015 1.3188693e-38
0.042518333 0.10544547 0.97000003 9.8663939e-39
-0.019558433 0.11054766 0.97000003 1.0419519e-38
0.034865033 0.11054766 0.97000003 1.2083066e-38
0.0331643 0.11820097 0.97000003 1.0885595e-38
0.030613199 0.12330317 0.97000003 1.0335274e-38
0.0331643 0.12160243 0.97000003 1.1068187e-38
0.029762834 0.12557082 0.97000003 1.0330973e-38
0.022109533 0.13180684 0.97000003 9.1353113e-39
0.025511 0.13010609 0.97000003 9.4119024e-39
0.0059525669 0.13520831 0.97000003 7.2902959e-39
0.010204399 0.13520831 0.97000003 7.5672471e-39
0.013605866 0.13520831 0.97000003 7.5672653e-39
0.018282883 0.13478312 0.97000003 8.3966715e-39
0.022109533 0.13350756 0.97000003 8.6746933e-39
0.0017007333 0.13690902 0.97000003 7.0123007e-39
0.0068029333 0.13690902 0.97000003 6.9197197e-39
0.010204399 0.13690902 0.97000003 7.5665283e-39
0.013661973 0.08197096 0.97400004 1.7341831e-38
-0.0063177864 0.086905897 0.9738 1.5313535e-38
-0.01282125 0.090603501 0.97500002 1.5772341e-38
-0.010253785 0.089717478 0.97466671 1.5312808e-38
-0.0068239728 0.089564644 0.97299999 1.4945116e-38
0.030445172 0.090764515 0.97366667 1.4297559e-38
-0.016240248 0.09487725 0.97500002 1.5126232e-38
-0.013676 0.094022498 0.97500002 1.3930947e-38
-0.011088956 0.093829632 0.97299999 1.4485214e-38
0.034189999 0.094022498 0.97500002 1.3004302e-38
-0.016917385 0.097913317 0.97460002 1.4480155e-38
-0.013818546 0.097753406 0.97299999 1.383767e-38
-0.021938583 0.10285492 0.97500008 1.180283e-38
-0.01841714 0.10159502 0.97385716 1.263659e-38
-0.022212539 0.1059342 0.97450006 1.0878724e-38
-0.019618923 0.10491858 0.97299999 1.2358225e-38
-0.021324914 0.10833057 0.97299999 1.124535e-38
0.037702452 0.11037777 0.97299999 1.3926603e-38
0.040132046 0.11015141 0.97399998 1.4202457e-38
0.034972861 0.11430155 0.97299999 1.1621721e-38
0.037551574 0.11436072 0.97350001 1.2912094e-38
0.040173247 0.11453649 0.97500002 1.4294661e-38
0.034972861 0.11771353 0.97299999 1.1345844e-38
0.036754247 0.1179555 0.97500002 1.1714268e-38
0.034564335 0.12246857 0.97350001 1.0516092e-38
0.036754247 0.12051975 0.97500002 1.1252215e-38
0.030707879 0.1270965 0.97299999 1.1250773e-38
0.03388229 0.12613218 0.97433341 8.9469642e-39
-0.011111749 0.13077675 0.97500002 9.1273547e-39
0.029865695 0.1297002 0.97333336 1.0055115e-38
0.03333525 0.129922 0.97500002 8.4867035e-39
-0.0094022499 0.13334098 0.97500002 8.4848958e-39
-0.0065504536 0.1347203 0.97466671 7.7491385e-39
0.022177912 0.13562647 0.97299999 8.7661631e-39
0.02578154 0.13437319 0.9738 9.0420381e-39
0.029488875 0.13291362 0.97500002 9.6866746e-39
-0.0042737499 0.1384695 0.97500002 6.8297045e-39
-0.0017077466 0.13832834 0.97399998 7.564743e-39
0.0017095 0.13932425 0.97500002 7.1041404e-39
0.0055497382 0.13875484 0.97399998 5.4456841e-39
0.01023596 0.13903844 0.97299999 6.000304e-39
0.013655398 0.13825689 0.97350001 8.025717e-39
0.01793134 0.13832834 0.9740001 8.4852588e-39
0.022223499 0.1384695 0.97500002 8.9490998e-39
0.02478775 0.13761476 0.97500002 8.6746905e-39
-0.0017095 0.14103374 0.97500002 7.748023e-39
0.00085474999 0.14103374 0.97500002 7.8395432e-39
-0.0094311787 0.086595379 0.97799999 1.7340752e-38
-0.017147599 0.091739655 0.97799999 1.226636e-38
-0.014575459 0.091739655 0.97799999 1.4296141e-38
0.033437818 0.091739655 0.97799999 8.7622352e-39
-0.024864018 0.095169172 0.97799999 1.050849e-38
-0.02229188 0.094311789 0.97799999 9.4961429e-39
-0.018347932 0.094140321 0.97799999 1.1252954e-38
-0.024864018 0.097741321 0.97799999 1.0876551e-38
-0.02229188 0.097741313 0.97799999 1.0510652e-38
-0.019719739 0.097741321 0.97799999 1.1619217e-38
-0.024864018 0.10202821 0.97800004 1.0140069e-38
-0.022577673 0.10088505 0.97800004 1.1338971e-38
-0.024864018 0.10545773 0.97799999 9.4936261e-39
0.041440032 0.11003044 0.97800004 1.2448592e-38
0.042697527 0.1143745 0.97799999 1.1990496e-38
0.038582098 0.11831843 0.97799999 1.2083055e-38
0.040868443 0.11860423 0.97800004 1.3097561e-38
0.038010515 0.12203376 0.97800004 1.1345127e-38
0.041154236 0.12089057 0.97799999 1.2360358e-38
0.035152577 0.12774962 0.97799999 7.9327926e-39
0.036867339 0.12517747 0.97799999 9.7785269e-39
0.035152577 0.13032176 0.97799999 8.0257127e-39
-0.011145939 0.13375127 0.97799999 8.9440537e-39
0.030865679 0.13460866 0.97799999 9.1320701e-39
0.034009404 0.13346548 0.97800004 8.3941407e-39
-0.0094311787 0.13632341 0.97799999 9.5937699e-39
-0.0065732463 0.13860977 0.97800004 6.6453132e-39
0.02600719 0.13918136 0.97800004 8.3048164e-39
0.029763333 0.13754824 0.97800004 8.3955869e-39
-0.0051442795 0.14146769 0.97799999 4.529148e-39
0.00257214 0.14146769 0.97799999 7.3785665e-39
0.0060016597 0.14146769 0.97800004 5.26129e-39
0.010288559 0.14146769 0.97799999 6.6409874e-39
0.01371808 0.14146769 0.97799999 7.4707397e-39
0.01800498 0.14232507 0.97800004 7.4721844e-39
0.02229188 0.14232507 0.97799999 7.379993e-39
0.025721397 0.14146769 0.97799999 8.3008661e-39
0.043287169 0.1183947 0.98100007 1.4571244e-38
0.042604025 0.12264545 0.98175001 1.2821339e-38
0.046295013 0.12278243 0.98400009 1.3930196e-38
0.03870045 0.12556145 0.98100001 1.1069246e-38
0.041838039 0.12551412 0.98400003 1.1807904e-38
0.037899613 0.13006008 0.98250002 1.0055101e-38
0.035260409 0.13502157 0.98100001 8.1190014e-39
0.037899613 0.13436669 0.98250002 9.962914e-39
0.034400396 0.1376016 0.98100001 8.8544028e-39
0.03709352 0.13802241 0.98400003 9.4994121e-39
-0.00172002 0.14362165 0.98100001 3.6993495e-39
0.00172002 0.14362165 0.98100001 7.2892407e-39
0.0060200701 0.14362165 0.98100007 7.0137286e-39
0.01032012 0.14362165 0.98100001 7.2874415e-39
0.013760159 0.14362165 0.98100001 6.3647509e-39
0.025800299 0.14362165 0.98100001 7.7476979e-39
0.030100351 0.14190164 0.98100007 8.2079572e-39
0.034218054 0.1411854 0.98400009 9.0384339e-39
0.00172528 0.14578615 0.98400003 7.3789098e-39
0.0060279602 0.14548984 0.98200005 7.0137272e-39
0.01062783 0.1462131 0.98300004 7.0108588e-39
0.0137812 0.14642656 0.98250002 6.8253843e-39
0.018087825 0.14642656 0.98250002 6.7335474e-39
0.022360258 0.1462017 0.98100001 6.9175799e-39
0.025820682 0.14631413 0.98175001 7.2863554e-39
0.029829988 0.14604232 0.98340005 5.7172529e-39
0.033642959 0.14406088 0.98400003 4.7963616e-39
0.01897808 0.14923672 0.98400003 7.0101273e-39
0.022428639 0.14923672 0.98400003 6.7328215e-39
0.025879201 0.14923672 0.98400003 4.3378819e-39
0.028467119 0.14923672 0.98400003 6.1432925e-42
0.042398226 0.12719469 0.98699999 1.180612e-38
0.045859307 0.12546416 0.98699999 1.097884e-38
0.041532956 0.1297905 0.98699999 1.134657e-38
0.040667687 0.13238631 0.98699999 1.0609002e-38
0.038937148 0.1384432 0.98699999 8.6718164e-39
0.035476066 0.14276955 0.98699999 7.8409473e-39
0.0017305398 0.14796115 0.98699999 1.2147702e-39
0.0060568894 0.14796117 0.98699999 5.999934e-39
0.0095179696 0.14796115 0.98699999 6.5498582e-39
0.032880258 0.14623062 0.98699999 4.5186775e-39
0.010671663 0.15026855 0.98699999 6.9172058e-39
0.01384432 0.15055697 0.98699999 6.826822e-39
0.017738035 0.15098959 0.98699999 2.0358877e-39
0.022497017 0.15142223 0.98699999 3.671402e-43
0.025092829 0.15142223 0.98699999 0
0.030284448 0.1496917 0.98699999 1.821688e-44
0.046385746 0.12701891 0.98900002 1.1900464e-38
0.046023682 0.1302512 0.99050009 1.0978874e-38
0.04190613 0.13381061 0.98900002 9.6874075e-39
0.04493209 0.13363671 0.99199998 9.3200725e-39
0.041412275 0.1369777 0.99100006 8.4892216e-39
0.037937164 0.14219037 0.99100006 8.209018e-39
0.040873706 0.14001417 0.99199998 8.5799795e-39
-0.0043482664 0.1452321 0.99199998 9.3498697e-40
-0.00086702331 0.14652695 0.98900002 3.7008306e-39
0.035601869 0.14588216 0.99049997 1.821688e-44
0.03739509 0.1452321 0.99199998 2.5223372e-44
-0.00086833828 0.1493555 0.99049997 2.0395241e-39
0.0017340466 0.14999503 0.98900002 1.5213897e-41
0.0060691638 0.14999503 0.98900002 4.337526e-39
0.0095372573 0.15172908 0.98900002 6.0035536e-39
0.026877722 0.15172908 0.98900002 0
0.02861177 0.15172908 0.98900002 5.6051939e-45
0.033528641 0.14922655 0.99080002 2.1594009e-42
0.0078268796 0.15218931 0.99199998 3.6064672e-39
0.010435839 0.15392864 0.99199998 6.7400396e-39
0.014204337 0.15450841 0.99199998 7.1956256e-39
0.017881719 0.15434505 0.99020004 9.8090893e-45
0.022542607 0.15346313 0.98900002 0
0.025143676 0.15346313 0.98900002 0
0.030437866 0.15218931 0.99199998 1.1056385e-39
0.047103301 0.13433163 0.995 1.1809004e-38
0.042741884 0.13869305 0.995 8.7668861e-39
0.045358732 0.13694848 0.995 1.0518974e-38
0.039252751 0.14392674 0.995 7.1001551e-39
0.042741884 0.14043762 0.995 9.6866746e-39
0.037508182 0.14741588 0.995 0
0.037508182 0.14916044 0.995 9.8679438e-41
0.0061059832 0.15323111 0.99500006 1.3977378e-39
0.027040781 0.15439415 0.995 1.102026e-39
0.029657632 0.15439415 0.995 2.0228962e-39
0.032274481 0.15352187 0.995 1.8424791e-39
0.010467399 0.1561387 0.995 1.3279794e-38
0.01308425 0.1561387 0.995 1.1341527e-38
0.017445665 0.15788327 0.995 1.8656888e-40
0.020934798 0.1561387 0.995 1.3865344e-39
0.048120234 0.13561156 0.99800003 1.3560001e-38
0.045495495 0.13911122 0.99800003 1.1992304e-38
0.041120928 0.14261088 0.99800003 1.1066725e-38
0.045495495 0.14086105 0.99800003 1.199301e-38
-0.0026247399 0.14786035 0.99800003 1.0271574e-39
-0.0026247399 0.14961018 0.99800003 5.6355194e-39
0.035871446 0.15136001 0.99800003 1.7510079e-39
0.037621275 0.15136001 0.99800003 1.8435623e-39
0.0017498266 0.15398476 0.99800003 8.0318967e-39
0.0052494798 0.15485966 0.99800003 3.6136601e-39
0.034121618 0.15310983 0.99800003 1.5669768e-39
-0.0008749133 0.1583593 0.99800003 1.0146577e-38
0.0017498266 0.15748438 0.99800003 1.0426409e-38
0.0078742197 0.15660948 0.99800003 1.0884509e-38
0.013998613 0.1583593 0.99800003 7.1941766e-39
0.021872833 0.15748438 0.99800003 2.3985255e-39
0.050019972 0.13075395 1.001 1.4572342e-38
0.050019972 0.13338658 1.001 1.3744752e-38
0.049407877 0.13837306 1.0027999 1.2638039e-38
-0.0096819056 0.14346825 1.0039999 8.7672393e-39
-0.0079215588 0.14346825 1.0039999 5.9091747e-39
0.042999625 0.14303957 1.001 1.1250035e-38
0.045632251 0.14303957 1.001 1.1159275e-38
0.0492897 0.14258808 1.0039999 1.1069983e-38
-0.0096819056 0.14522858 1.0039999 9.0442143e-39
-0.0073128617 0.14596471 1.0010002 6.0950514e-39
0.039489452 0.14654973 1.001 0
0.042154297 0.14578199 1.00175 4.7952574e-39
0.04576901 0.14522858 1.0039999 9.499038e-39
-0.0061506927 0.14933139 1.0020001 8.5825355e-39
-0.0026326301 0.151815 1.001 8.5854068e-39
0.039489452 0.14918236 1.001 5.5497305e-40
0.041368142 0.14962944 1.0039999 1.3847323e-39
-0.01055156 0.15387516 1.003 1.0888491e-38
-0.0061550764 0.15387516 1.0029999 1.0795937e-38
-0.0017550867 0.15444763 1.001 1.0979599e-38
0.037847452 0.15344355 1.0039999 1.9350418e-39
0.052085392 0.13418609 1.007 1.2638046e-38
0.052085392 0.13771731 1.007 1.2362891e-38
-0.010887908 0.14271986 1.007 9.5955874e-39
0.052085392 0.14213133 1.007 1.1161467e-38
-0.01059364 0.14654535 1.007 9.597042e-39
0.045905769 0.14742814 1.007 0
0.049436983 0.14654535 1.007 4.4261217e-39
0.043257359 0.15007655 1.007 1.6602248e-39
0.045022968 0.14919375 1.007 0
0.054011431 0.14255476 1.01 1.2726645e-38
-0.013989845 0.14645067 1.0100001 1.0611185e-38
0.052830856 0.1460965 1.01 4.3353932e-39
0.05417186 0.13853787 1.013 1.2731684e-38
-0.014209013 0.14297819 1.013 1.0517908e-38
0.055059925 0.14209013 1.013 1.2635892e-38
0.055355947 0.14593841 1.013 2.2170504e-39
0.053521812 0.13380256 1.0175 1.4941471e-38
0.054332294 0.13627607 1.016 1.1996257e-38
0.05668461 0.13836189 1.01825 1.4114249e-38
0.056445051 0.13528894 1.022 1.5956687e-38
0.058236964 0.13708085 1.022 1.5312428e-38
0.054813579 0.1338889 1.025 1.6140744e-38
