# .PCD v0.7 - Point Cloud Data file format
VERSION 0.7
FIELDS x y z rgb
SIZE 4 4 4 4
TYPE F F F F
COUNT 1 1 1 1
WIDTH 493
HEIGHT 1
VIEWPOINT 0 0 0 1 0 0 0
POINTS 493
DATA ascii
0.058266766 0.0669633 0.99199998 1.1902649e-38
0.060006075 0.0669633 0.99199998 1.3008273e-38
0.058266766 0.069572262 0.99199998 1.1533863e-38
0.060006075 0.069572262 0.99199998 1.1717534e-38
0.058266766 0.072181225 0.99199998 1.1257616e-38
0.060006075 0.072181225 0.99199998 1.1901553e-38
0.061932117 0.063676685 0.99500006 1.3011521e-38
0.065421246 0.063676685 0.995 1.3380656e-38
0.054953847 0.067165814 0.995 1.1441301e-38
0.057279937 0.066002771 0.99500006 1.1166883e-38
0.062281031 0.066119075 0.995 1.2364706e-38
0.06629353 0.06629353 0.995 1.1996639e-38
0.068910383 0.06629353 0.995 1.2273588e-38
0.054953847 0.069782667 0.995 1.070518e-38
0.056698415 0.069782667 0.995 1.1072527e-38
0.062804401 0.069782667 0.995 1.0979978e-38
0.06629353 0.069782667 0.995 1.0520079e-38
0.068910383 0.069782667 0.995 1.1349111e-38
0.054953847 0.072399512 0.995 1.1440227e-38
0.057570696 0.07414408 0.995 1.1072154e-38
0.062150188 0.074362144 0.99499995 1.1439857e-38
0.066293538 0.07414408 0.995 1.1439496e-38
0.068910383 0.073271796 0.995 1.226998e-38
0.051619884 0.063868672 0.99800003 1.3378854e-38
0.054244623 0.063868672 0.99800003 1.3195185e-38
0.05774428 0.062993757 0.99800003 1.2826051e-38
0.062556297 0.06168139 0.99800003 1.3471428e-38
0.066493407 0.062118843 0.99800003 1.38402e-38
0.06911815 0.062993757 0.99800003 1.3932033e-38
0.051619884 0.066493407 0.99800003 1.1534937e-38
0.053952988 0.066201769 0.99800003 1.1535659e-38
0.070867978 0.066493407 0.99800003 1.2915712e-38
0.072617806 0.067368321 0.99800003 1.27306e-38
0.051619884 0.069993064 0.99800003 1.0703736e-38
0.053369712 0.069993064 0.99800003 9.8754197e-39
0.070867978 0.069993064 0.99800003 1.153241e-38
0.072617806 0.06911815 0.99800003 1.1256184e-38
0.051619884 0.073492721 0.99800003 1.0886672e-38
0.053952988 0.073784366 0.99800003 1.0886688e-38
0.070867978 0.073492721 0.99800003 1.1624236e-38
0.072617806 0.073492721 0.99800003 1.0610084e-38
0.054244623 0.076117463 0.99800003 1.0609367e-38
0.05774428 0.077867284 0.99800003 1.0424618e-38
0.062118843 0.078742199 0.99800009 1.0423898e-38
0.066493407 0.078742199 0.99800003 9.7788927e-39
0.069818079 0.077517323 0.99800009 9.4115451e-39
0.055450913 0.051930223 1.0039999 1.5223489e-38
0.058091432 0.051930223 1.0039999 1.5776313e-38
0.065132827 0.051930223 1.0039999 1.6879764e-38
0.046649184 0.055450913 1.0039999 1.2459435e-38
0.050609961 0.055010825 1.0039999 1.4669964e-38
0.05452932 0.05452932 1.00325 1.4762522e-38
0.058048699 0.05452932 1.00325 1.5314973e-38
0.061612125 0.054570742 1.0039999 1.5776302e-38
0.066013001 0.054570742 1.0039999 1.5775588e-38
0.070413858 0.055450913 1.0039999 1.5407166e-38
0.073934555 0.055450913 1.0039999 1.5130217e-38
0.077455245 0.055450913 1.0039999 1.5313165e-38
0.080095768 0.055450913 1.0039999 1.641807e-38
0.04576901 0.058091432 1.0039999 1.2828575e-38
0.050144013 0.058062069 1.0034999 1.3932756e-38
0.05440769 0.057917859 1.001 1.439409e-38
0.057917859 0.057917859 1.001 1.5130934e-38
0.061428033 0.057917859 1.001 1.467104e-38
0.065815747 0.057917859 1.001 1.4670697e-38
0.07036192 0.058047384 1.00325 1.4762161e-38
0.073878668 0.058047384 1.00325 1.4854348e-38
0.077398047 0.058047384 1.00325 1.4299364e-38
0.080975935 0.058091432 1.0039999 1.5586852e-38
0.04312849 0.061612125 1.0039999 1.3655808e-38
0.045699317 0.061520077 1.0025001 1.3747645e-38
0.050019972 0.061428033 1.001 1.3655809e-38
0.054407686 0.061428033 1.001 1.4025305e-38
0.057917859 0.060550489 1.001 1.4207185e-38
0.061428033 0.060550489 1.001 1.4206466e-38
0.067570835 0.060550489 1.001 1.4300827e-38
0.070495985 0.061135523 1.0010002 1.4024234e-38
0.073713645 0.061428037 1.001 1.3747283e-38
0.077340841 0.061520077 1.0025001 1.3746196e-38
0.081504039 0.06178816 1.0039999 1.3189407e-38
0.04312849 0.066013001 1.0039999 1.2639841e-38
0.045632254 0.065815754 1.001 1.2363619e-38
0.049142431 0.065815747 1.001 1.1903721e-38
0.071081005 0.064060666 1.001 1.3195185e-38
0.073889159 0.065464728 1.001 1.3100458e-38
0.077340841 0.065914378 1.0025001 1.3651829e-38
0.081856109 0.066012993 1.0039998 1.1897586e-38
0.04312849 0.070413858 1.0039999 1.106999e-38
0.045699313 0.070308663 1.0025001 1.1163263e-38
0.049142428 0.070203468 1.001 1.1256542e-38
0.074006163 0.070495978 1.0010002 1.1439141e-38
0.077340849 0.070308663 1.0024999 1.1715361e-38
0.081856117 0.070413858 1.0039999 1.0975628e-38
0.04312849 0.073934555 1.0039999 1.0240228e-38
0.045699317 0.0738241 1.0025001 1.0609364e-38
0.049142428 0.073713645 1.001 1.0978505e-38
0.07459119 0.073713645 1.001 9.9632755e-39
0.077455245 0.073934555 1.0039999 1.0330975e-38
0.04312849 0.077455245 1.0039999 8.3041241e-39
0.04573416 0.077398047 1.00325 9.4108262e-39
0.050239362 0.077881977 1.001 9.8721505e-39
0.054407686 0.078978904 1.001 1.0240937e-38
0.057040315 0.07985644 1.001 1.0608281e-38
0.071081005 0.07985644 1.001 9.0427654e-39
0.073538139 0.077750348 1.001 9.5026533e-39
0.076575071 0.077455245 1.0039999 9.7777898e-39
0.046209097 0.081416026 1.0039999 8.210118e-39
0.049896233 0.082324132 1.0035714 8.7622128e-39
0.054407686 0.082489073 1.001 9.1317142e-39
0.057917859 0.082489073 1.001 9.7774437e-39
0.061428037 0.082489073 1.001 9.3182592e-39
0.065815754 0.082489073 1.001 9.0420479e-39
0.070203468 0.082489073 1.001 9.1335219e-39
0.07411059 0.082208179 1.0039999 9.4097444e-39
0.051930223 0.085376807 1.0039999 9.0377333e-39
0.054570742 0.086256981 1.0039999 8.4870763e-39
0.058091432 0.086256981 1.0039999 8.3041129e-39
0.061612125 0.086256981 1.0039999 8.7658113e-39
0.066013001 0.086256981 1.0039999 8.8565692e-39
0.070413858 0.086256981 1.0039999 9.0413206e-39
0.073054381 0.085376807 1.0039999 9.2257119e-39
0.054733805 0.050319787 1.007 1.5499719e-38
0.058265015 0.050319787 1.007 1.6235489e-38
0.061796229 0.050319787 1.007 1.6145098e-38
0.06621024 0.050319787 1.007 1.6603547e-38
0.045905769 0.054733805 1.007 1.1078294e-38
0.049731251 0.053262465 1.007 1.4394459e-38
0.052968197 0.052085392 1.007 1.5500085e-38
0.061796229 0.052085392 1.007 1.669719e-38
0.067975856 0.052085392 1.007 1.5959262e-38
0.070624262 0.052968197 1.007 1.5682316e-38
0.07415548 0.053851001 1.007 1.503802e-38
0.077686682 0.053851001 1.007 1.6511343e-38
0.043257359 0.059147816 1.007 1.0432935e-38
0.041491754 0.061796229 1.007 1.1908763e-38
0.041491754 0.06621024 1.007 1.2546915e-38
0.041491754 0.070624262 1.007 1.1437334e-38
0.041491754 0.07415548 1.007 1.0332777e-38
0.0812179 0.073272668 1.007 1.1343329e-38
0.041491754 0.077686682 1.007 8.2122718e-39
0.078569494 0.076803878 1.007 1.0789429e-38
0.042668827 0.080923632 1.007 8.3959596e-39
0.045022968 0.082983509 1.007 7.3825238e-39
0.046788573 0.085631922 1.007 8.3030367e-39
0.049731251 0.086220458 1.007 8.3019605e-39
0.052085392 0.087397523 1.007 8.0264498e-39
0.073272668 0.087397523 1.007 9.0423996e-39
0.053851001 0.089163139 1.007 8.3955953e-39
0.058265015 0.089163132 1.007 7.9356961e-39
0.062090497 0.089751661 1.007 7.9364178e-39
0.065768845 0.089604527 1.007 8.6728968e-39
0.06552206 0.046042532 1.01 1.7342548e-38
0.046927962 0.050469697 1.01 1.4854704e-38
0.049879409 0.049879409 1.01 1.5131294e-38
0.053568717 0.049141545 1.01 1.5684826e-38
0.061980329 0.048698831 1.01 1.5868508e-38
0.06552206 0.048698831 1.01 1.6973763e-38
0.070303403 0.049407177 1.0100001 1.7063433e-38
0.074376397 0.050469697 1.01 1.7246743e-38
0.077918127 0.050469697 1.01 1.7892838e-38
0.043386228 0.055782299 1.01 9.7893618e-39
0.045747384 0.052830856 1.01 1.2551615e-38
0.048698831 0.052240565 1.01 1.3658327e-38
0.074376397 0.052240565 1.01 1.5497921e-38
0.077918127 0.052240565 1.01 1.7064155e-38
0.039844498 0.05932403 1.01 8.2227199e-39
0.042205654 0.058143459 1.01 9.0499694e-39
0.039254211 0.062275477 1.01 8.771949e-39
0.039254211 0.065226912 1.01 1.2086299e-38
0.08588703 0.06552206 1.01 8.8507777e-39
0.039844498 0.069063798 1.01 1.1162543e-38
0.081459865 0.075261831 1.01 1.1618114e-38
0.078803562 0.078803562 1.01 9.4108136e-39
0.080574423 0.0770327 1.01 1.1342602e-38
0.041615367 0.082345299 1.01 7.2006576e-39
0.0770327 0.081459865 1.01 9.5937727e-39
0.043386228 0.084116161 1.01 7.659112e-39
0.046042532 0.086772457 1.01 9.3179061e-39
0.048698831 0.087657891 1.01 9.4097402e-39
0.075261831 0.08588703 1.01 9.3179103e-39
0.050469697 0.089428768 1.01 8.950204e-39
0.054896865 0.091199629 1.01 8.3956051e-39
0.058438599 0.091199629 1.01 8.2130117e-39
0.061094899 0.091199629 1.01 8.3051975e-39
0.066407494 0.091199629 1.01 8.4881468e-39
0.070303403 0.090491287 1.0100001 8.8572951e-39
0.073490962 0.089428768 1.01 8.6743402e-39
0.058438599 0.09297049 1.01 8.6743556e-39
0.061980329 0.09297049 1.01 8.3977491e-39
0.06552206 0.09297049 1.01 8.5799767e-39
0.068178363 0.09297049 1.01 8.7636645e-39
0.065716684 0.039962847 1.013 1.9461949e-38
0.039962847 0.042627037 1.013 1.7985e-38
0.042627037 0.04262704 1.013 1.8722578e-38
0.04529123 0.042627037 1.013 1.8261254e-38
0.063052498 0.042627037 1.013 1.8261255e-38
0.065716684 0.042627037 1.013 1.8170138e-38
0.070156999 0.042627037 1.013 1.8722958e-38
0.074597321 0.043515101 1.013 1.7617703e-38
0.039962847 0.046179295 1.013 1.7432223e-38
0.042627037 0.046179295 1.013 1.641987e-38
0.045883276 0.046475317 1.013 1.5867774e-38
0.049731545 0.047067355 1.013 1.605216e-38
0.05417186 0.047067355 1.013 1.6144724e-38
0.058612179 0.047067355 1.013 1.6146174e-38
0.062164433 0.046179295 1.013 1.7250713e-38
0.070156999 0.046179295 1.013 1.7617326e-38
0.074597321 0.046179295 1.013 1.8997379e-38
0.078149572 0.047067355 1.013 1.6599588e-38
0.039962847 0.048843481 1.013 1.4944735e-38
0.042923059 0.049435526 1.013 1.5129859e-38
0.045883276 0.049435526 1.013 1.5407527e-38
0.048843481 0.048843481 1.013 1.5592269e-38
0.058612179 0.048843481 1.013 1.5776313e-38
0.074597321 0.048843481 1.013 1.816761e-38
0.078149572 0.048843481 1.013 1.8720062e-38
0.039962847 0.055947989 1.013 1.2457976e-38
0.042627037 0.05417186 1.013 1.301187e-38
0.080813758 0.053283796 1.013 1.5955645e-38
0.038778767 0.058316156 1.013 1.1903361e-38
0.034634467 0.063052498 1.013 1.162389e-38
0.037298661 0.062164433 1.013 1.0058729e-38
0.034634467 0.064828619 1.013 1.1717145e-38
0.037002638 0.06601271 1.013 1.190154e-38
0.038630757 0.070601031 1.013 1.1345495e-38
0.039962847 0.074597321 1.013 1.0240583e-38
0.039962847 0.078149572 1.013 8.0275204e-39
0.081997842 0.078445598 1.013 1.1066732e-38
0.079037629 0.081701823 1.013 9.8699981e-39
0.081405804 0.081405804 1.013 1.0882705e-38
0.043515101 0.086142138 1.013 8.4892258e-39
0.04529123 0.087918267 1.013 1.0516451e-38
0.075485386 0.087918267 1.013 9.3179103e-39
0.078149572 0.084366016 1.013 1.0146585e-38
0.049731545 0.09058246 1.013 9.1342365e-39
0.052395735 0.091470525 1.013 8.7650911e-39
0.074597321 0.09058246 1.013 9.0413248e-39
0.05061961 0.093246646 1.013 9.1353127e-39
0.054527085 0.093957096 1.013 9.5037323e-39
0.058612179 0.095022775 1.013 9.1342547e-39
0.062164433 0.095022775 1.013 8.9494823e-39
0.065716684 0.095022775 1.013 9.1338722e-39
0.070156999 0.094134711 1.013 9.0416878e-39
0.073709257 0.093246646 1.013 9.224993e-39
0.066604748 0.096798897 1.013 8.5824977e-39
0.06838087 0.096798897 1.013 8.6750618e-39
0.057950299 0.03833751 1.0170001 2.0287392e-38
0.062348533 0.03829981 1.016 2.0380304e-38
0.047206748 0.042753279 1.016 1.8169781e-38
0.049680114 0.043134339 1.0180001 1.7708801e-38
0.053599402 0.043772843 1.0190001 1.8077948e-38
0.057950292 0.04190379 1.017 1.8630758e-38
0.061903186 0.041417241 1.016 1.8906623e-38
0.037706017 0.046612956 1.016 1.6604262e-38
0.047206748 0.045425359 1.016 1.7157054e-38
0.049878828 0.045425359 1.016 1.7341445e-38
0.053441599 0.045425359 1.016 1.7341821e-38
0.057895064 0.045425363 1.016 1.7157805e-38
0.077490322 0.045425359 1.016 1.5309571e-38
0.037436076 0.049916305 1.0167501 1.5403905e-38
0.040971894 0.050769519 1.016 1.4208983e-38
0.081053093 0.050769519 1.016 1.0701587e-38
0.034244061 0.05389718 1.0190001 1.4757814e-38
0.037436076 0.05348039 1.0167501 1.4483742e-38
0.040674996 0.053144705 1.016 1.4761439e-38
0.033895001 0.057980545 1.0175002 1.300717e-38
0.036963776 0.057449717 1.016 1.3377409e-38
0.033614323 0.062174372 1.0180001 1.1716803e-38
0.036518428 0.061457843 1.016 1.1534225e-38
0.034737039 0.066802002 1.016 1.1991934e-38
0.031266317 0.070572548 1.0190001 1.2169864e-38
0.033846349 0.069474079 1.016 1.1068906e-38
0.036518428 0.069474079 1.016 1.16228e-38
0.031266317 0.073252514 1.0190001 1.2537188e-38
0.033879664 0.074002072 1.0170001 1.0884154e-38
0.03723098 0.074283823 1.016 1.0055837e-38
0.033946287 0.07771913 1.0190001 1.0606127e-38
0.037741959 0.07816039 1.0170001 8.2122872e-39
0.084615864 0.079271704 1.016 8.5760083e-39
0.038412903 0.081292421 1.0190001 8.4895958e-39
0.040081199 0.081943788 1.016 7.7520322e-39
0.082834482 0.082834482 1.016 1.1433353e-38
0.084615864 0.081943788 1.016 8.2065027e-39
0.041349448 0.085377984 1.0180001 8.1211748e-39
0.078498051 0.086524807 1.0175 9.87144e-39
0.082064763 0.085634112 1.0175 1.0698313e-38
0.084615864 0.084615864 1.016 9.4968912e-39
0.043134339 0.088947773 1.0180001 1.0240581e-38
0.046316054 0.089960024 1.016 9.7803248e-39
0.048988134 0.091741413 1.016 9.1356658e-39
0.075708933 0.091741413 1.016 9.1331659e-39
0.077490322 0.089960024 1.016 9.6866956e-39
0.046631481 0.093441628 1.0190001 9.2271454e-39
0.049630146 0.094804198 1.0170001 8.7668889e-39
0.052550904 0.095304191 1.016 9.0431157e-39
0.074372888 0.09485884 1.016 9.1335191e-39
0.077490322 0.094413489 1.016 9.502303e-39
0.050919432 0.098265573 1.0190001 8.4895902e-39
0.053480394 0.098049246 1.0167501 8.3966729e-39
0.057895072 0.097976267 1.016 8.7643764e-39
0.06234853 0.09797626 1.016 8.8572811e-39
0.065614417 0.098273158 1.016 8.6739716e-39
0.069840237 0.098370478 1.0170001 8.582862e-39
0.073571265 0.097798124 1.016 8.8587258e-39
0.077490322 0.097085573 1.016 9.226065e-39
0.063425958 0.10094553 1.0190001 8.764368e-39
0.066105925 0.10094553 1.0190001 8.7650911e-39
0.068785898 0.10094553 1.0190001 8.7647351e-39
0.051069334 0.042109802 1.022 1.853784e-38
0.053757194 0.041213848 1.022 1.8815865e-38
0.034942176 0.051069334 1.022 1.5588658e-38
0.033150271 0.05286124 1.022 1.1532074e-38
0.033150271 0.065404586 1.022 1.1348364e-38
0.031358361 0.077051982 1.022 1.1436615e-38
0.034046225 0.079739839 1.022 1.0514305e-38
0.036734082 0.079739839 1.022 9.2246399e-39
0.034046225 0.081531748 1.022 1.1158946e-38
0.037630036 0.082427703 1.022 9.043487e-39
0.038525991 0.085115559 1.022 9.7806877e-39
0.040317897 0.086907469 1.022 9.6884851e-39
0.041213848 0.089595318 1.022 9.9639916e-39
0.079739839 0.089595318 1.022 1.0513577e-38
0.082427703 0.089595318 1.022 1.0328095e-38
0.043901712 0.093179137 1.022 9.5019344e-39
0.045693617 0.095867001 1.022 9.1335163e-39
0.079739839 0.092283189 1.022 1.0328817e-38
0.046589568 0.097658902 1.022 8.6746961e-39
0.049277429 0.097658902 1.022 8.6743374e-39
0.076156028 0.099450812 1.022 8.8572867e-39
0.051069334 0.10124271 1.022 8.4899461e-39
0.053757194 0.10124271 1.022 8.5810613e-39
0.057341009 0.10124271 1.022 8.7643694e-39
0.060924821 0.10124271 1.022 8.6721724e-39
0.070780307 0.10124271 1.022 8.9494851e-39
0.072572216 0.10124271 1.022 8.6743374e-39
0.054813579 0.038639084 1.025 2.0563616e-38
0.050320663 0.040436249 1.025 1.9552707e-38
0.031450417 0.062002249 1.025 1.3189765e-38
0.031450417 0.066495165 1.025 1.1533122e-38
0.033247583 0.06739375 1.025 1.1623512e-38
0.031450417 0.069190912 1.025 1.0794136e-38
0.030252306 0.079374865 1.025 9.6827468e-39
0.027216641 0.082370892 1.028 8.2057628e-39
0.030573532 0.082730807 1.02575 1.1525903e-38
0.034146167 0.083568245 1.025 1.0608651e-38
0.036841914 0.083568245 1.025 9.2293146e-39
0.027937612 0.085615262 1.028 7.2826967e-39
0.030641252 0.086516477 1.028 9.8667162e-39
0.034196138 0.086391553 1.0265 1.0607565e-38
0.037440971 0.086563528 1.025 9.688132e-39
0.030641252 0.089220122 1.028 9.2228028e-39
0.034246102 0.089220122 1.028 1.051501e-38
0.037794411 0.089989826 1.0265 9.5955804e-39
0.040436249 0.090756908 1.025 9.8710785e-39
0.038151365 0.093425781 1.0280001 9.4112004e-39
0.04133483 0.093452662 1.025 9.5944916e-39
0.079973914 0.094351247 1.025 9.778164e-39
0.081771083 0.093452662 1.025 9.5004967e-39
0.038752172 0.096429825 1.028 9.1345925e-39
0.041424908 0.097260684 1.0272499 9.0431199e-39
0.045108881 0.09866444 1.025 8.950204e-39
0.049422082 0.09974274 1.025 8.7668917e-39
0.079075329 0.097945571 1.025 8.9498467e-39
0.081329823 0.097537637 1.027 1.0427854e-38
0.042357024 0.10003468 1.028 8.9505697e-39
0.045915417 0.10263838 1.0270001 8.673264e-39
0.050021138 0.10273802 1.025 8.6736171e-39
0.053914994 0.10333708 1.025 8.4895804e-39
0.057509329 0.10333708 1.025 8.5806956e-39
0.062002249 0.10333708 1.025 8.4888601e-39
0.066495165 0.10333708 1.025 8.7650911e-39
0.070294634 0.10363953 1.028 8.4899461e-39
0.074127138 0.10293966 1.027 7.9371381e-39
0.077129424 0.10233885 1.027 7.7527356e-39
0.081109196 0.10003468 1.028 8.9530781e-39
0.046412483 0.10589256 1.028 8.4877797e-39
0.050430469 0.10626625 1.0272501 8.6707304e-39
0.053993899 0.10618931 1.0265 8.3952295e-39
0.057593487 0.10618931 1.0265 8.1190042e-39
0.062092982 0.10618931 1.0265 8.4870706e-39
0.066325381 0.10594019 1.027 8.1211664e-39
0.069393419 0.10544196 1.028 8.3977463e-39
0.050467946 0.10904681 1.028 8.0224659e-39
0.054974012 0.10904681 1.028 7.839888e-39
0.057677649 0.10904681 1.028 7.8391691e-39
0.03073067 0.091288179 1.031 9.4068451e-39
0.034346044 0.091288179 1.031 1.1159303e-38
0.035249889 0.093095861 1.031 9.9636272e-39
0.037057575 0.094903551 1.031 9.5041064e-39
0.037961416 0.097615078 1.031 9.5030176e-39
0.041576795 0.10213429 1.031 8.7658267e-39
0.078634366 0.10394198 1.031 8.0307686e-39
0.045192167 0.10755736 1.031 8.9444278e-39
0.067788251 0.10755736 1.031 7.2910526e-39
0.070801064 0.1069548 1.031 6.646758e-39
0.07411515 0.10574967 1.031 7.2010052e-39
0.047903694 0.10936504 1.031 7.6536792e-39
0.05151907 0.11117273 1.031 3.3197433e-39
0.053929321 0.11057016 1.031 5.4409827e-39
0.057845972 0.11117273 1.031 3.8754689e-39
0.061461344 0.11026888 1.031 6.3658523e-39
0.065980569 0.10936504 1.031 7.8427844e-39
0.081345901 0.12744191 1.031 1.2083796e-38
0.031726569 0.093366757 1.034 1.1438429e-38
0.034143832 0.09457539 1.0340002 1.0241657e-38
0.035352457 0.096992642 1.034 1.033421e-38
0.037165407 0.098805591 1.034 9.8710813e-39
0.038374037 0.10122286 1.0340002 9.2275097e-39
0.080676123 0.10243148 1.034 6.8318681e-39
0.041697774 0.10515091 1.034 8.6739814e-39
0.074330814 0.10787033 1.034 8.0304113e-39
0.077050239 0.10605738 1.034 4.7171182e-39
0.045323662 0.10968328 1.034 7.8355593e-39
0.048949562 0.11149622 1.034 1.0152632e-39
0.066172555 0.11149622 1.0340002 1.0977083e-38
0.070402764 0.11028759 1.0340002 8.3981344e-39
0.051668979 0.11330916 1.034 0
0.054388396 0.11330916 1.034 9.2051857e-40
0.058014292 0.11330916 1.034 8.3226899e-40
0.078863174 0.1223739 1.034 1.1903708e-38
0.080676123 0.1223739 1.034 1.1351632e-38
0.077956706 0.12599981 1.034 1.1626415e-38
0.081582598 0.12509331 1.034 1.1533498e-38
0.086114965 0.12599981 1.034 9.1317086e-39
0.031849299 0.095547892 1.038 9.779634e-39
0.031849299 0.09736786 1.038 9.6859712e-39
0.034579236 0.098277837 1.038 9.504098e-39
0.035489216 0.10100777 1.038 9.2296804e-39
0.037309177 0.10282774 1.038 9.3204284e-39
0.039129138 0.10555767 1.038 8.6739688e-39
0.040949099 0.10646766 1.038 8.3051821e-39
0.080988213 0.10464769 1.038 9.3211767e-39
0.042769056 0.10919759 1.038 6.5502197e-39
0.046408977 0.11192753 1.038 0
0.071888417 0.11192753 1.038 1.2636973e-38
0.074618354 0.11101755 1.038 1.0888844e-38
0.077348292 0.10828761 1.038 1.1440187e-38
0.055508777 0.11556746 1.038 6.4501908e-40
0.058238715 0.11556746 1.038 1.8439546e-40
0.061878636 0.11465748 1.038 8.311928e-40
0.065518558 0.11465748 1.038 1.0513917e-38
0.070068464 0.11465748 1.0380001 1.2544764e-38
0.070978433 0.12193732 1.038 1.1439471e-38
0.074618354 0.12193732 1.038 1.2731684e-38
0.077954948 0.12163399 1.038 1.2547647e-38
0.082201526 0.12163399 1.038 1.1443826e-38
0.085234791 0.12224065 1.038 1.1532438e-38
0.03011613 0.095824048 1.041 8.1201126e-39
0.03102874 0.098561883 1.041 1.125367e-38
0.033766571 0.09947449 1.041 8.0289736e-39
0.034679182 0.10221232 1.041 8.6754416e-39
0.083047509 0.10312493 1.041 1.1810434e-38
0.035591789 0.10495015 1.041 1.09789e-38
0.037417009 0.10495015 1.041 9.872512e-39
0.079397067 0.10677537 1.041 8.3123876e-39
0.083047509 0.10495015 1.041 1.3100837e-38
0.041067448 0.10951319 1.041 1.11033e-39
0.077571847 0.11042581 1.041 1.2913897e-38
0.044717886 0.11225102 1.041 0
0.049280938 0.11407624 1.041 0
0.053843986 0.11590146 1.041 2.7807367e-40
0.074834019 0.11498885 1.041 1.1627138e-38
0.078484461 0.11407624 1.041 1.2272863e-38
0.058407038 0.11772668 1.041 2.1212113e-39
0.06205748 0.11772668 1.041 0
0.065707922 0.11863929 1.041 3.5985022e-39
0.069358349 0.11863929 1.041 1.2267424e-38
0.073921405 0.11863929 1.041 1.2546212e-38
0.078484461 0.11863929 1.041 1.236362e-38
0.081830703 0.1189435 1.0410001 1.1904803e-38
0.085785344 0.1195519 1.041 1.1717179e-38
0.088523164 0.1195519 1.041 1.2358195e-38
0.030289711 0.1009657 1.0470001 1.2178148e-38
0.032674246 0.10291102 1.0450001 7.8478431e-39
0.085361905 0.10371931 1.0470001 1.2916434e-38
0.033961192 0.10616696 1.0470002 1.1165094e-38
0.037524838 0.10708307 1.044 1.0056546e-38
0.082491264 0.10723694 1.0455 1.254585e-38
0.085361905 0.10647292 1.0470001 1.3283404e-38
0.03852227 0.11006615 1.04625 2.3139235e-39
0.079625882 0.1098288 1.044 1.3098998e-38
0.082491264 0.1099866 1.0455 1.2730243e-38
0.085973822 0.11045035 1.0470002 1.282171e-38
0.045761999 0.114405 1.044 0
0.0823716 0.11348976 1.044 1.2639848e-38
0.086218633 0.11373369 1.0462501 1.2545845e-38
0.089033388 0.11381587 1.0470001 1.2912106e-38
0.033137999 0.10769849 1.05 1.2640582e-38
0.087447487 0.10769849 1.05 1.3099377e-38
0.087447487 0.10953949 1.05 1.3283045e-38
0.029568214 0.10533676 1.054 1.0892828e-38
0.087780632 0.10533676 1.054 1.2730955e-38
0.028725738 0.10193003 1.057 1.3099751e-38
