# .PCD v0.7 - Point Cloud Data file format
VERSION 0.7
FIELDS x y z rgb
SIZE 4 4 4 4
TYPE F F F F
COUNT 1 1 1 1
WIDTH 577
HEIGHT 1
VIEWPOINT 0 0 0 1 0 0 0
POINTS 577
DATA ascii
-0.030423835 0.14620346 0.96399993 2.092554e-38
-0.026198305 0.14704856 0.96399993 9.7774395e-39
-0.030423837 0.14958386 0.96399999 1.4291072e-38
-0.026198305 0.14958386 0.96399999 9.5008554e-39
-0.029670782 0.13987654 0.96700001 1.4475815e-38
-0.027127571 0.13987654 0.96700001 2.3325856e-38
-0.030235942 0.14270234 0.96700001 2.092806e-38
-0.026279835 0.14241976 0.96700001 1.8347645e-38
-0.021758575 0.14270234 0.96700001 8.1251419e-39
-0.019497944 0.14241976 0.96700001 9.1374805e-39
-0.026279835 0.14496297 0.96700001 1.2172004e-38
-0.022041153 0.14581069 0.96700001 8.4921181e-39
-0.019497944 0.14581069 0.96700001 8.6761478e-39
-0.033061728 0.15004939 0.96700001 1.9727376e-38
-0.030518519 0.15174486 0.96700001 1.097385e-38
-0.026279835 0.15174487 0.96700001 7.3825462e-39
-0.022041153 0.15004939 0.96700001 8.2130145e-39
-0.019497944 0.15004939 0.96700001 7.7530985e-39
-0.033061728 0.15428807 0.96700001 1.7422816e-38
-0.030801099 0.1540055 0.96700001 9.5894371e-39
-0.026279837 0.15428808 0.96700001 3.9752511e-39
-0.022323733 0.1540055 0.96700001 3.1429345e-39
-0.033061728 0.15767902 0.96700001 7.5679968e-39
-0.030518519 0.15767902 0.96700001 5.0787176e-39
-0.026279835 0.15767901 0.96700001 3.0486131e-39
-0.02288889 0.15767902 0.96700001 1.8403113e-40
-0.030518519 0.16022222 0.96700001 6.5545736e-39
-0.027127571 0.16022222 0.96700001 6.9212037e-39
-0.021259166 0.13775939 0.97000003 1.3001389e-38
-0.018282883 0.13818458 0.97000003 1.0149823e-38
-0.013605866 0.13775939 0.97000003 9.1349596e-39
-0.024660634 0.1403105 0.97000003 1.7424265e-38
-0.022392988 0.14087741 0.97000003 1.0975644e-38
-0.017371777 0.14176828 0.97000015 9.9661496e-39
-0.013605866 0.1403105 0.97000003 8.7658183e-39
-0.017857701 0.14626306 0.97000003 8.7683435e-39
-0.017857701 0.14966452 0.97000003 8.8590874e-39
-0.029762832 0.1556171 0.97000003 3.6079316e-39
-0.021259166 0.1556171 0.97000003 0
-0.018991522 0.15391639 0.97000003 2.2202733e-39
-0.034865033 0.1581682 0.97000003 1.217093e-38
-0.021259166 0.1581682 0.97000003 1.0141519e-39
-0.019558433 0.1581682 0.97000003 8.2976067e-40
-0.034014665 0.16156965 0.97000003 7.6573114e-39
-0.029762834 0.16242003 0.97000003 8.7672589e-39
-0.025511 0.16156965 0.97000003 3.1404542e-39
-0.021368749 0.12393875 0.97500002 2.3509886e-38
-0.019659251 0.12393875 0.97500002 2.3509886e-38
-0.01282125 0.12308399 0.97500002 1.3102972e-38
-0.010256999 0.123084 0.97500002 1.337848e-38
-0.0059832497 0.12308399 0.97500002 1.3100456e-38
-0.00256425 0.12393875 0.97500002 1.3192642e-38
-0.021368749 0.12650299 0.97500002 2.3509886e-38
-0.018519584 0.12678793 0.97500008 2.0745108e-38
-0.013669426 0.12643769 0.97449994 1.1625336e-38
-0.010251301 0.12643769 0.97450006 1.245546e-38
-0.0059832502 0.12650299 0.97500002 1.263984e-38
-0.0017095001 0.12650299 0.97500002 1.2272122e-38
-0.022223499 0.129922 0.97500002 2.3141102e-38
-0.017949749 0.12992202 0.97500002 1.9822792e-38
-0.013655398 0.12972167 0.97350001 1.2268896e-38
-0.01023596 0.12965548 0.97299999 1.2181021e-38
-0.0059832502 0.129922 0.97500002 1.1811155e-38
-0.0017095 0.129922 0.97500002 1.1165074e-38
-0.025215123 0.13462313 0.97500002 2.2402804e-38
-0.022185802 0.13396578 0.9733333 2.2679406e-38
-0.01791702 0.13395067 0.9732222 1.4385773e-38
-0.013647947 0.13392048 0.97299999 9.3218816e-39
-0.01023596 0.13392048 0.97299999 1.0889919e-38
-0.0059779901 0.13410398 0.97433335 1.079592e-38
-0.0018804502 0.13385384 0.97500002 1.0241677e-38
-0.028206749 0.13932425 0.97500002 2.2861656e-38
-0.025616199 0.1383266 0.97399998 2.258686e-38
-0.023030909 0.13818544 0.97299999 2.0837653e-38
-0.017059933 0.13733245 0.97299999 9.5030134e-39
-0.01023596 0.13818544 0.97299999 9.5955804e-39
-0.0059806202 0.13842246 0.9746666 9.3200739e-39
-0.00256425 0.1384695 0.97500002 8.9520033e-39
-0.013647947 0.14245044 0.97299999 9.0427528e-39
-0.010240781 0.14167064 0.97350001 8.7658197e-39
-0.0063251504 0.14171755 0.97500002 8.4895874e-39
-0.016206935 0.14671542 0.97299999 9.3200585e-39
-0.013823806 0.1455812 0.97340006 8.1211608e-39
-0.010256999 0.1453075 0.97500002 8.4888685e-39
-0.016206935 0.15012741 0.97299999 8.5810655e-39
-0.014515847 0.15028258 0.97399998 5.8151966e-39
-0.016775601 0.15382372 0.97299999 1.9469459e-39
-0.036678854 0.15951037 0.97299999 1.6962574e-38
-0.017230531 0.15746318 0.97299999 2.7658689e-40
-0.037571304 0.16223593 0.97399998 1.5120827e-38
-0.037608996 0.16582149 0.97500002 1.1620975e-38
-0.034119867 0.16548136 0.97299999 9.5030176e-39
-0.029864527 0.16553834 0.97333336 8.4906776e-39
-0.026442895 0.16462836 0.97299999 6.0907115e-39
-0.036754247 0.1692405 0.97500002 7.3788664e-39
-0.034190003 0.1692405 0.97500002 1.1252195e-38
-0.030098377 0.16970797 0.97399998 9.0424024e-39
-0.0068590399 0.1157463 0.97799999 1.1809006e-38
-0.022006087 0.11860423 0.97800004 2.194292e-38
-0.019719739 0.11831843 0.97799999 1.411931e-38
-0.013432287 0.11860423 0.97800004 1.3379933e-38
-0.010288559 0.11831843 0.97799999 1.383875e-38
-0.0060016601 0.11831843 0.97800004 1.1810816e-38
-0.0017147599 0.11831843 0.97799999 9.5062602e-39
0.00085737993 0.11917581 0.97799999 8.306631e-39
-0.024864018 0.12174796 0.97799999 2.3509886e-38
-0.02229188 0.12174796 0.97799999 2.3509886e-38
-0.01800498 0.12174796 0.97800004 1.6048184e-38
-0.014003873 0.12146217 0.97800004 1.3012595e-38
-0.010288559 0.12089057 0.97799999 1.3471039e-38
-0.0060016601 0.12089058 0.97800004 1.3468527e-38
-0.0017147599 0.12174796 0.97799999 1.1719321e-38
0.0014289666 0.12203376 0.97800004 9.8743491e-39
-0.025549922 0.12637781 0.97799999 2.3417327e-38
-0.023149259 0.12603486 0.97800004 2.332513e-38
-0.017319074 0.12569191 0.97799999 1.5954901e-38
-0.014575459 0.12432009 0.97799999 1.209063e-38
-0.00085737993 0.12432009 0.97799999 1.3008611e-38
0.0017147599 0.12603486 0.97800004 1.2272131e-38
0.0056587076 0.12706372 0.97799999 1.0889925e-38
-0.025721397 0.13032176 0.97799999 2.2956706e-38
0.0017147599 0.13032176 0.97799999 1.0888477e-38
0.0060016601 0.13032177 0.97800004 1.0519325e-38
-0.026578778 0.13375127 0.97799999 2.148048e-38
0.0017147599 0.13375127 0.97799999 9.8735938e-39
0.0060016601 0.13375127 0.97800004 9.2282258e-39
-0.028865125 0.13803819 0.97800004 1.8438055e-38
-0.00085737993 0.13803819 0.97800004 9.0442017e-39
0.00171476 0.13803817 0.97800004 8.5821389e-39
0.0055117286 0.13779321 0.97800004 8.2122746e-39
-0.0042868997 0.14318246 0.97799999 7.7523797e-39
-0.0017147599 0.14232507 0.97799999 8.1207937e-39
0.00085737993 0.14146769 0.97799999 7.8424117e-39
-0.0060016597 0.14575461 0.97800004 7.5669164e-39
-0.0020005533 0.1454688 0.97800004 7.2906855e-39
-0.0128607 0.15004149 0.97800004 5.7229912e-39
-0.010717249 0.14961281 0.97799999 6.7360655e-39
-0.014003873 0.1540426 0.97800004 3.8115318e-43
-0.014575459 0.15690053 0.97799999 0
-0.040296856 0.16290219 0.97799999 9.8090893e-45
-0.040296856 0.16633171 0.97799999 1.9379047e-39
-0.026578778 0.16718909 0.97799999 6.5488044e-39
-0.038582098 0.16976124 0.97799999 5.6203475e-39
-0.026578778 0.16976124 0.97799999 7.2874513e-39
-0.036867339 0.17233337 0.97799999 4.5200465e-39
-0.034123722 0.17370518 0.97799999 1.1064904e-38
-0.030008299 0.17433393 0.97800004 1.0605027e-38
-0.030865679 0.17747766 0.97799999 5.8093953e-39
-0.00172528 0.11128056 0.98400003 1.4944732e-38
-0.025016559 0.11473113 0.98400003 2.3509886e-38
-0.022119176 0.11403944 0.98300004 1.5681916e-38
-0.018105358 0.11381018 0.98350012 1.3564663e-38
-0.01380224 0.11386848 0.98400003 1.466849e-38
-0.0103359 0.11369359 0.98250002 1.3008631e-38
-0.0060292752 0.11369359 0.98250008 1.2269604e-38
-0.0017233074 0.11378103 0.98325002 1.5493919e-38
0.00172528 0.11386848 0.98400003 1.4574865e-38
0.0060384795 0.11404101 0.98400003 1.383874e-38
0.010064134 0.11415603 0.98400009 1.3378847e-38
0.012939599 0.11473113 0.98400003 1.2642365e-38
-0.028467119 0.11990695 0.98400003 2.3509886e-38
-0.025853779 0.1180607 0.98300004 2.3509886e-38
-0.02264693 0.11667468 0.98100007 2.0836572e-38
-0.017568775 0.11757565 0.98100007 1.1078277e-38
-0.014046829 0.11667468 0.98100007 1.3196608e-38
-0.01032012 0.11610134 0.98100001 1.402278e-38
-0.00430005 0.11610134 0.98100001 8.8594531e-39
-0.00172002 0.11610134 0.98100001 1.1440597e-38
0.0018920221 0.11747736 0.98100007 1.3558898e-38
0.0060200701 0.11782135 0.98100007 1.3192281e-38
0.010325818 0.11788055 0.98150003 1.2824221e-38
0.013802241 0.11818167 0.98400009 1.291678e-38
0.01789978 0.11839734 0.98400009 1.2179932e-38
0.021566 0.11904432 0.98400003 1.2086296e-38
-0.028467119 0.12249488 0.98400003 2.3417689e-38
-0.026660308 0.12212142 0.98100001 2.3417691e-38
0.0025800299 0.1212614 0.98100001 8.3091702e-39
0.0060200701 0.12212142 0.98100007 9.1377804e-39
0.01032012 0.12212142 0.98100001 1.1534516e-38
0.013781199 0.12230684 0.98250002 1.2085929e-38
0.018107111 0.12243219 0.98350012 1.1349092e-38
0.021566 0.12249488 0.98400003 1.033638e-38
-0.029286366 0.12575345 0.98250002 2.3140744e-38
-0.026660308 0.12470144 0.98100001 2.3325494e-38
0.0064500752 0.12513144 0.98100001 7.7620823e-39
0.01032012 0.12556145 0.98100001 1.1076086e-38
0.013760159 0.12556145 0.98100001 1.1163975e-38
0.018080372 0.12568945 0.98200005 1.0333856e-38
0.021566 0.12594545 0.98400003 9.5044624e-39
-0.029286368 0.13006008 0.98250008 2.2034386e-38
0.01032012 0.1298615 0.98100007 1.0242739e-38
0.01376016 0.1298615 0.98100007 9.5048197e-39
0.01808651 0.13003859 0.98233342 8.8587328e-39
0.021566 0.13025865 0.98400009 8.4903048e-39
-0.029286366 0.13436669 0.98250002 1.9729128e-38
0.01032012 0.13416156 0.98100001 9.043843e-39
0.013760159 0.13416156 0.98100001 8.5824977e-39
0.018098783 0.13443509 0.98300004 7.659105e-39
-0.030100347 0.1376016 0.98100001 1.7978148e-38
0.0077400901 0.1384616 0.98100001 8.2083174e-39
0.01032012 0.1376016 0.98100001 8.2115529e-39
0.013771337 0.13770746 0.98175001 7.1977668e-39
0.016965253 0.13773486 0.98400009 7.3810762e-39
0.00200669 0.14304832 0.98100007 7.3814335e-39
0.0060200701 0.14218831 0.98100007 7.5640269e-39
0.010344448 0.14136578 0.98325002 7.287803e-39
0.012939599 0.14061031 0.98400003 7.5629479e-39
-0.00086000998 0.14706171 0.98100001 6.6453203e-39
0.00172002 0.1462017 0.98100001 7.1044865e-39
0.0056881639 0.14595237 0.98280001 6.7331859e-39
-0.0094601102 0.15050174 0.98100001 6.2722091e-39
-0.0060200705 0.14964172 0.98100007 5.5357343e-39
-0.0020093201 0.14950848 0.98200005 5.2598481e-39
0.00172528 0.14923672 0.98400003 6.6406245e-39
0.0043131998 0.14923672 0.98400003 3.6979244e-39
-0.012900149 0.15566181 0.98100001 0
-0.010148118 0.15428579 0.98100007 9.2268077e-40
-0.0063703856 0.15309702 0.98220009 9.2772404e-40
-0.0025879201 0.15268727 0.98400003 6.483808e-42
-0.012900149 0.15738182 0.98100001 8.4077908e-45
-0.010334585 0.15762247 0.98250002 3.6950139e-40
-0.0077637597 0.15613784 0.98400003 0
-0.040420465 0.17028198 0.98100001 5.8972931e-39
-0.037840441 0.17372203 0.98100001 6.2700399e-39
-0.026701074 0.17398897 0.98250002 8.0239121e-39
-0.044820983 0.10954317 0.98699999 2.2312068e-38
-0.041359901 0.11023539 0.98699999 2.3140744e-38
-0.038071878 0.10988928 0.98699999 2.2219859e-38
-0.033745527 0.10988928 0.98699993 2.0562854e-38
-0.025958098 0.11161982 0.98699999 1.687906e-38
-0.022208594 0.11104298 0.98699999 1.3843066e-38
-0.019901209 0.11075455 0.98699999 1.5314226e-38
-0.010383239 0.11161982 0.98699999 1.0701203e-38
-0.0057107816 0.1109276 0.98699999 1.577088e-38
-0.0017305398 0.10902401 0.98699999 1.5220608e-38
0.0015574859 0.11023539 0.98699999 1.4944729e-38
0.0057107816 0.1109276 0.98699999 1.4577742e-38
0.010383239 0.11161982 0.98699999 1.4025291e-38
-0.032014988 0.1150809 0.98699999 2.0837657e-38
-0.029130755 0.11450406 0.98699999 2.3509886e-38
-0.026246523 0.11392721 0.98699999 2.2772681e-38
-0.023362288 0.11335036 0.98699999 1.7801665e-38
0.0060568899 0.11335036 0.98699999 1.3378835e-38
0.011248509 0.11335036 0.98699999 1.3932012e-38
0.014132744 0.11392721 0.98699999 1.2088831e-38
0.01817067 0.11421563 0.98699999 1.0983187e-38
0.022208594 0.11450405 0.98699999 1.2547278e-38
-0.032014988 0.11767671 0.98699999 2.3509886e-38
-0.029419178 0.11767671 0.98699999 2.3509886e-38
0.019901209 0.11681144 0.98699999 1.2178863e-38
0.02278544 0.11738829 0.98699999 1.1624967e-38
-0.032014988 0.12200306 0.98699999 2.3325853e-38
-0.030284448 0.12200306 0.98699999 2.3509884e-38
0.02336229 0.12200306 0.98699999 1.0520051e-38
0.025958098 0.12200306 0.98699999 1.0243108e-38
-0.032014988 0.12632942 0.98699999 2.2955624e-38
0.023362288 0.12632942 0.98699999 9.4122667e-39
0.025958098 0.12632942 0.98699999 9.3197222e-39
-0.032014988 0.1297905 0.98699999 2.1571598e-38
0.023362288 0.1297905 0.98699999 9.1360344e-39
0.025669675 0.12950209 0.98699999 9.0431185e-39
-0.032014988 0.13411686 0.98699999 1.936213e-38
0.022497017 0.13411684 0.98699999 7.751665e-39
0.025092829 0.13238631 0.98699999 8.5821445e-39
-0.032014988 0.1384432 0.98699999 1.7425686e-38
0.019035939 0.1384432 0.98699999 7.656933e-39
0.021631747 0.13757792 0.98699999 7.2892407e-39
-0.032014988 0.141039 0.98699999 1.3279411e-38
0.014132744 0.14219271 0.98699999 7.1023299e-39
0.016440129 0.141039 0.98699999 7.0094238e-39
0.0077874293 0.14709589 0.98699999 4.6134235e-39
0.010094816 0.14507693 0.98699999 6.9172156e-39
-0.00086526998 0.15142223 0.98699999 4.6854096e-40
0.0017305398 0.15142223 0.98699999 1.793662e-42
0.0060568899 0.1496917 0.98699999 2.4993812e-39
-0.0043263496 0.15488333 0.98699999 0
-0.0025958098 0.15488333 0.98699999 0
-0.0060568899 0.15661387 0.98699999 0
-0.042398226 0.16613182 0.98699999 1.6815582e-44
-0.0260107 0.10317577 0.98900002 1.8075055e-38
-0.021695748 0.1032801 0.99000001 1.7338922e-38
-0.0130448 0.10348874 0.99199998 1.6696802e-38
-0.011305492 0.10348874 0.99199998 1.1441651e-38
0.0017393066 0.10348874 0.99199998 1.6326577e-38
0.0060875728 0.10348874 0.99199998 1.6049626e-38
0.010435839 0.10348874 0.99199998 1.5497899e-38
0.013914453 0.10348874 0.99199998 1.53135e-38
0.017393064 0.10348874 0.99199998 1.4851801e-38
-0.032946885 0.10664387 0.98900002 1.8258681e-38
-0.029189786 0.10606585 0.98900002 1.651059e-38
-0.0260107 0.10577685 0.98900002 1.706485e-38
-0.022034492 0.10566708 0.9896 1.6511678e-38
-0.018242555 0.10685953 0.99100006 1.6234729e-38
-0.013624569 0.10638759 0.99199998 1.6970861e-38
-0.01043584 0.1060977 0.99199998 9.9690236e-39
-0.0060823131 0.10598987 0.99100006 1.6053588e-38
-0.0017366766 0.10593595 0.99049997 1.5497551e-38
0.0017366766 0.10593595 0.99049997 1.5866321e-38
0.0060783681 0.10593595 0.99049997 1.5314228e-38
0.01042006 0.10593595 0.99049997 1.5405702e-38
0.013893413 0.10593596 0.99050003 1.5312787e-38
0.017393064 0.1060977 0.99199998 1.4574867e-38
0.021741334 0.1060977 0.99200004 1.4114617e-38
0.025219945 0.10696735 0.99199998 1.383876e-38
-0.053048849 0.11044597 0.99199998 2.0006801e-38
-0.049892634 0.11019547 0.98975003 2.1574847e-38
-0.047252771 0.11054547 0.98900002 2.2127676e-38
-0.029478792 0.11011197 0.98900002 1.8171928e-38
-0.0260107 0.10924494 0.98900002 1.5037999e-38
-0.022831615 0.10895593 0.98900002 1.5313867e-38
-0.017727077 0.10995817 0.98985726 1.5866315e-38
-0.013879826 0.11016676 0.98949999 1.6326576e-38
-0.01040428 0.10924494 0.98900002 1.0057978e-38
-0.0065026749 0.10881142 0.98900002 1.6051779e-38
0.0026010699 0.10837791 0.98900002 1.5496459e-38
0.0065026749 0.10881142 0.98900002 1.4945804e-38
0.01040428 0.10924494 0.98900002 1.4853607e-38
0.013872373 0.11011197 0.98900002 1.2734195e-38
0.01820749 0.11011197 0.98900002 9.3265255e-39
0.0225654 0.11022155 0.98999995 1.1812959e-38
0.025900414 0.11003025 0.99139994 1.3469953e-38
0.029278329 0.1098662 0.99199998 1.2917151e-38
-0.053048849 0.11392459 0.99199998 1.926712e-38
-0.050491791 0.11399472 0.9896 1.3647523e-38
-0.045952238 0.11444709 0.98900002 1.1247844e-38
-0.041617118 0.11444708 0.98900002 1.263114e-38
-0.038149025 0.11444708 0.98900002 9.9596363e-39
-0.034160718 0.11427368 0.98900002 1.6874681e-38
-0.030345816 0.11358006 0.98900002 2.350986e-38
0.023409629 0.11358006 0.98900002 1.2733469e-38
0.026200408 0.11399472 0.9896 1.2731668e-38
0.029539285 0.11380887 0.99100006 1.2824239e-38
0.032177169 0.11566389 0.99199998 1.3100822e-38
0.04174336 0.11566389 0.99199998 9.4997638e-39
0.044352319 0.11566389 0.99199998 9.2217154e-39
-0.050050072 0.11774451 0.99000001 8.9458502e-39
-0.045997821 0.11803527 0.99000001 9.5890574e-39
-0.041680239 0.11809532 0.99049997 8.0213589e-39
-0.038178612 0.11800525 0.98975003 1.5950923e-38
-0.034680933 0.11791517 0.98900002 2.1943296e-38
0.0260107 0.11791517 0.98900002 1.1717505e-38
0.029524818 0.118094 0.99049997 1.1717867e-38
0.032177169 0.11827284 0.99199998 1.1441651e-38
0.038264744 0.1191425 0.99199998 1.1716446e-38
0.04174336 0.11740319 0.99199998 9.6848627e-39
0.044352319 0.11740319 0.99199998 1.0143665e-38
-0.037974861 0.12146159 0.99199998 1.7424971e-38
-0.034507528 0.12190348 0.98900002 2.1297192e-38
0.029478792 0.12225029 0.98900002 9.9661538e-39
0.033916477 0.12175146 0.99200004 1.0058e-38
0.038264744 0.12175146 0.99199998 1.0792693e-38
-0.03739509 0.12696938 0.99199998 1.5855132e-38
-0.034875903 0.1261404 0.9896 2.0557819e-38
0.029478794 0.12658539 0.98900002 9.0445632e-39
0.033916477 0.12609974 0.99200004 8.8587384e-39
-0.03739509 0.13044798 0.99199998 1.3456607e-38
-0.034680933 0.13005351 0.98900002 1.9911368e-38
0.026877722 0.13092051 0.98900002 8.0296714e-39
0.029501805 0.13015279 0.98975003 8.1229685e-39
0.033916477 0.13044798 0.99200004 7.0126552e-39
0.03739509 0.13044798 0.99199998 7.28634e-39
-0.03739509 0.1339266 0.99199998 8.6638501e-39
-0.034734845 0.13372409 0.99050003 1.8161792e-38
0.026299706 0.13381061 0.98900002 7.660191e-39
0.029546514 0.133826 0.99125004 7.4754425e-39
0.033916477 0.1339266 0.99200004 5.9949048e-39
-0.03739509 0.13740522 0.99199998 1.0974845e-38
-0.034550659 0.13767612 0.99019998 1.6504795e-38
0.019941535 0.13959076 0.98900002 7.2892379e-39
0.022976117 0.13829023 0.98900002 7.1956032e-39
0.026031081 0.13709423 0.98975003 6.8289884e-39
0.029568212 0.13740522 0.99199998 4.8939746e-39
0.034264337 0.13723131 0.99200004 5.0700576e-39
-0.034734845 0.14066949 0.99049997 1.6780684e-38
0.01820749 0.14219183 0.98900002 6.4569549e-39
0.022076044 0.14271133 0.99140006 3.2322533e-39
0.025799714 0.14059395 0.99199998 4.4257924e-39
0.011271304 0.14652695 0.98900002 6.7339005e-39
0.013883551 0.14577104 0.98975003 4.6151961e-39
0.017086525 0.14566547 0.99100006 4.6495644e-40
0.02087168 0.1452321 0.99199998 1.4012985e-44
0.0060691629 0.15115106 0.98900002 3.9614708e-42
0.01040428 0.149128 0.98900002 1.8657028e-40
0.013624569 0.14929049 0.99199998 0
-0.00086702331 0.15433015 0.98900002 0
0.0017366766 0.15456553 0.99049997 1.0832037e-42
0.0060875728 0.15334886 0.99199998 0
0.010435839 0.15218931 0.99199998 1.5414283e-44
-0.0060691629 0.15779825 0.98900002 4.6169141e-40
-0.0026089598 0.15740725 0.99199998 1.8367099e-40
-0.042613011 0.16436447 0.99199998 1.102026e-39
-0.017154906 0.10322019 0.99500006 1.687974e-38
-0.01413099 0.10170823 0.995 1.7892817e-38
-0.010467399 0.10205714 0.995 1.3376295e-38
-0.0064548962 0.10310389 0.995 1.604997e-38
-0.0017445666 0.10380171 0.995 1.6326577e-38
0.0017445666 0.10205714 0.995 1.6693931e-38
0.0061059832 0.10205714 0.99500006 1.6141467e-38
0.010758161 0.10147562 0.99500006 1.5405699e-38
0.013665773 0.10147562 0.99500006 1.5220949e-38
0.017445665 0.10205714 0.995 1.5128037e-38
0.021807082 0.10380171 0.99500006 1.4575942e-38
-0.017445665 0.10554628 0.995 1.6510959e-38
-0.014828817 0.10554628 0.995 1.7248161e-38
0.02645926 0.1061278 0.99500006 1.4114261e-38
0.029366871 0.10670932 0.99500006 1.3561814e-38
0.039252751 0.10729085 0.995 1.374148e-38
0.040997315 0.10729085 0.995 9.7770682e-39
-0.054953847 0.11077998 0.995 1.8716063e-38
0.030529916 0.10903541 0.995 1.2641286e-38
0.032856002 0.11019846 0.99500006 1.3283785e-38
0.039252751 0.10990769 0.995 1.3558905e-38
0.04157884 0.11019846 0.99500006 9.5923252e-39
-0.054953847 0.11339682 0.995 2.000433e-38
0.034019053 0.11339684 0.995 1.3467815e-38
0.038380466 0.11339682 0.995 1.3375247e-38
0.041869599 0.11339682 0.995 9.4079283e-39
-0.054081567 0.11688596 0.995 1.4566555e-38
-0.051464718 0.11950281 0.995 9.9571308e-39
0.034891337 0.11775826 0.995 1.1533488e-38
0.038380466 0.11688597 0.995 1.2546195e-38
0.041869599 0.11950281 0.995 9.9600175e-39
-0.046231017 0.1212474 0.99500006 8.5738222e-39
-0.04157884 0.12182891 0.99500006 7.3749287e-39
-0.039252751 0.12299194 0.995 1.5395591e-38
0.041869599 0.12211967 0.995 9.6827075e-39
-0.038380466 0.12473652 0.995 1.6132069e-38
0.038380466 0.1256088 0.995 8.5789075e-39
0.041869599 0.12473652 0.995 8.2986983e-39
0.038816608 0.12953407 0.995 8.3901849e-39
0.041869603 0.12997022 0.995 9.1270156e-39
0.038089707 0.13404088 0.99500006 7.7426308e-39
0.040997315 0.13345934 0.995 1.0230825e-38
0.032274481 0.13869305 0.995 3.413762e-39
0.037508182 0.13782077 0.995 7.5564571e-39
-0.033146765 0.14392674 0.995 1.4109521e-38
0.02645926 0.14334522 0.99500006 2.9427268e-44
0.029657632 0.14130989 0.995 1.4787356e-39
0.033582907 0.14087375 0.995 2.3992598e-39
0.037508182 0.14043762 0.995 7.1905557e-39
0.018317949 0.14741588 0.995 7.0064923e-45
0.021807082 0.14683436 0.99500006 7.1886611e-43
0.014828817 0.150905 0.995 0
0.017154906 0.14974198 0.99500006 1.8403953e-40
0.01308425 0.15264958 0.995 5.5176968e-40
-0.0052336995 0.15962785 0.995 1.6566445e-39
-0.0017445666 0.15875557 0.995 1.4729679e-39
0.0008722833 0.15788327 0.995 1.8413945e-39
0.011373873 0.098865204 0.99800003 1.2546922e-38
0.013123699 0.098865204 0.99800003 1.3284487e-38
-0.017789904 0.10119831 0.99800003 1.8627144e-38
-0.0096240472 0.10061503 0.99800003 1.1995942e-38
-0.0061243935 0.10119831 0.99800003 1.4482312e-38
-0.0017498266 0.10236486 0.99800003 1.6786833e-38
0.0017498266 0.10061503 0.99800003 1.6879042e-38
0.0061243935 0.10061504 0.99800003 1.5589008e-38
0.0096240472 0.10061503 0.99800003 1.5221302e-38
0.014873526 0.10061503 0.99800003 1.5312428e-38
0.017498266 0.10061503 0.99800003 1.5773052e-38
0.021872833 0.10148995 0.99800009 1.540607e-38
0.026247401 0.10411468 0.99800003 1.4392281e-38
0.029747054 0.1049896 0.99800003 1.4483761e-38
0.032955065 0.10703107 0.99800003 1.3286657e-38
0.038204551 0.10644779 0.99800003 1.2821711e-38
-0.056869365 0.11111399 0.99800003 1.6138198e-38
0.03528817 0.10994744 0.99800003 1.3652565e-38
0.037621275 0.11023907 0.99800003 1.3652565e-38
-0.056869365 0.11373873 0.99800003 1.8442045e-38
-0.056869365 0.11723839 0.99800003 1.6774619e-38
-0.054536264 0.11927985 0.99800003 9.4028612e-39
-0.053369712 0.12161295 0.99800003 8.4820008e-39
-0.050744973 0.12161295 0.99800003 8.3894548e-39
-0.042870753 0.12336278 0.99800003 7.4667698e-39
-0.041120928 0.12511261 0.99800003 7.6497191e-39
-0.039371099 0.12686244 0.99800003 1.3918296e-38
0.041995838 0.12686244 0.99800003 6.9161198e-39
0.039371099 0.13561156 0.99800003 8.1124896e-39
0.039371099 0.13736139 0.99800003 8.0206443e-39
-0.037621275 0.14086105 0.99800003 1.9635868e-38
0.034996532 0.14261088 0.99800003 3.4105349e-39
0.02362266 0.14786035 0.99800003 9.2338282e-40
0.026247401 0.14611052 0.99800003 1.1092342e-39
0.029747054 0.14436069 0.99800003 6.4464214e-40
0.01837318 0.15136001 0.99800003 1.1056385e-39
0.020123007 0.14961018 0.99800003 1.2896822e-39
0.0078742197 0.15485966 0.99800003 2.7550649e-40
0.014873526 0.15310983 0.99800003 1.1056385e-39
-0.038204551 0.15777603 0.99800003 1.5209036e-38
-0.035871446 0.15748438 0.99800003 2.0001414e-38
0.0052494798 0.15660948 0.99800003 2.0293576e-39
-0.0008749133 0.16010913 0.99800003 2.6711551e-39
0.014962945 0.090657845 1.0039999 1.8902645e-38
0.017603464 0.090657845 1.0039999 1.8903372e-38
0.0079215588 0.095058709 1.0039999 1.7891731e-38
0.01055156 0.094082996 1.003 1.7430749e-38
0.014061294 0.094036087 1.0024999 1.7063048e-38
0.017568402 0.093989186 1.0020001 1.7155254e-38
0.021728072 0.094151691 1.001375 1.6695371e-38
0.026326301 0.094774686 1.001 1.7248922e-38
0.029836472 0.09565223 1.001 1.5313185e-38
-0.016673323 0.0991624 1.001 1.57615e-38
-0.013761329 0.098674677 1.0020001 1.7148386e-38
-0.0105463 0.098430812 1.0025001 1.7060156e-38
-0.0061542001 0.098480344 1.003 1.5957788e-38
-0.0017603465 0.098579407 1.0039999 1.68794e-38
0.001758374 0.09850511 1.0032499 1.6971227e-38
0.006148064 0.098382168 1.0020001 1.4668132e-38
0.010238006 0.097992346 1.0010002 1.2641632e-38
0.014333207 0.097992346 1.0010002 1.4114615e-38
0.017550867 0.098284855 1.001 1.6050361e-38
0.021938583 0.098284863 1.001 1.5774854e-38
0.026326301 0.098284855 1.001 1.6235842e-38
0.029836472 0.098284855 1.001 1.6051809e-38
0.033397932 0.098432131 1.0025001 1.3562197e-38
0.036087103 0.099459581 1.0039999 1.0334966e-38
-0.0043877168 0.10091748 1.001 1.7157407e-38
-0.0017550867 0.10091748 1.001 1.715597e-38
0.026326301 0.10179503 1.001 1.5591533e-38
0.029836472 0.10179503 1.001 1.4669947e-38
0.034224194 0.10179502 1.001 1.5221324e-38
0.038319394 0.10208754 1.0010002 9.3153894e-39
0.030714015 0.10442766 1.001 1.4852542e-38
0.034809217 0.10559772 1.001 1.420789e-38
0.038611908 0.10442766 1.001 1.134622e-38
-0.058795404 0.11495818 1.001 2.0741535e-38
-0.060731951 0.11794321 1.0039999 1.9171662e-38
-0.058795404 0.11759081 1.001 1.7696215e-38
-0.058005963 0.12128244 1.0025001 9.4043144e-39
-0.054700203 0.12314858 1.0010002 8.8500644e-39
-0.051775057 0.12373361 1.001 8.8497043e-39
-0.057211258 0.12410443 1.0039999 9.4932604e-39
-0.037734363 0.14303957 1.001 1.7703363e-38
-0.035979275 0.14303957 1.001 1.733422e-38
-0.033446584 0.14698893 1.0039999 1.6777807e-38
0.029836472 0.14654973 1.001 3.0417145e-39
0.032469105 0.14479466 1.001 3.037767e-39
0.022816125 0.15005991 1.001 2.2126951e-39
0.026326301 0.14830482 1.001 2.947742e-39
0.029045718 0.14874928 1.0039999 3.1346514e-39
-0.045723423 0.15387516 1.003 1.9823138e-38
-0.042206239 0.15387516 1.003 1.669029e-38
0.017578481 0.1538002 1.0025001 1.8435623e-39
0.021124158 0.15226997 1.0039999 2.0286612e-39
0.01059364 0.090928733 1.007 1.7703339e-38
0.013242049 0.090928733 1.007 1.8994468e-38
0.0070624258 0.093577147 1.007 1.8441664e-38
0.0017656065 0.09622556 1.007 1.835236e-38
0.0052968198 0.09622556 1.007 1.7892461e-38
-0.060913429 0.12094405 1.007 1.364605e-38
-0.059147816 0.12447526 1.007 9.3088677e-39
-0.042080294 0.14683962 1.007 2.2679766e-38
-0.037960541 0.14654535 1.007 1.7333496e-38
0.033546522 0.14654535 1.007 4.2377564e-39
-0.042374559 0.15007655 1.007 1.8532395e-38
-0.037960541 0.15007657 1.007 1.5859424e-38
-0.034429327 0.14919375 1.007 1.5674705e-38
0.026484098 0.15095936 1.007 3.5945408e-39
0.0079688998 0.091199629 1.01 1.7149416e-38
0.0053125997 0.093855925 1.01 1.8254031e-38
-0.064636625 0.12307522 1.01 1.2719754e-38
-0.062275477 0.12248494 1.01 1.2721943e-38
-0.061980329 0.1248461 1.01 9.7741815e-39
-0.057553165 0.12661695 1.01 9.4032284e-39
-0.054896865 0.12661695 1.01 9.3106824e-39
-0.039844498 0.14255476 1.01 2.0091457e-38
-0.042500798 0.14521106 1.01 2.3232217e-38
-0.039844498 0.14432563 1.01 1.9728417e-38
0.0062164431 0.091470525 1.013 1.5028546e-38
-0.061276369 0.12699306 1.013 9.3113859e-39
-0.059500244 0.12699306 1.013 9.1270016e-39
-0.041738976 0.14297819 1.013 1.9722675e-38
-0.063239224 0.12736915 1.016 9.6801698e-39
-0.061457843 0.12915054 1.016 9.8631205e-39
-0.057895064 0.12915054 1.016 9.3113901e-39
-0.061820775 0.13080917 1.022 9.8638436e-39
-0.058236964 0.13170514 1.022 9.772371e-39
-0.066907197 0.12545098 1.0599999 1.7144424e-38
